-3.5269121 19.725454 9.0831417
-3.6190005 19.686931 9.0825912
-3.7118539 19.649203 9.0793671
-3.8054619 19.612342 9.0734724
-3.8997259 19.576376 9.0650359
-3.9944719 19.54129 9.0542996
-4.0894755 19.507029 9.0415982
-4.1844916 19.473503 9.0273304
-4.2792887 19.440595 9.0119283
-4.3736809 19.408161 8.9958267
-4.4675531 19.376038 8.9794361
-4.5608781 19.344047 8.9631226
-4.6537195 19.312001 8.9471933
-4.7462236 19.279711 8.9318913
-4.8385979 19.246993 8.9173951
-4.9310822 19.213677 8.9038246
-5.0239141 19.179614 8.8912506
-5.1172942 19.144685 8.8797047
-5.2113572 19.108799 8.8691914
-5.3061509 19.071901 8.8596982
-5.4016279 19.033965 8.8512043
-5.4976491 18.994989 8.8436873
-5.5939997 18.954986 8.8371276
-5.690414 18.913975 8.8315105
-5.786605 18.871971 8.826826
-5.8822941 18.828982 8.8230672
-5.9772366 18.785001 8.8202268
-6.0712391 18.740016 8.818294
-6.1641666 18.694009 8.8172501
-6.2559401 18.646973 8.817065
-6.3465259 18.598923 8.8176947
-6.4359195 18.549904 8.8190794
-6.5241288 18.500001 8.8211438
-6.6111591 18.449344 8.8237983
-6.6970034 18.398103 8.8269417
-6.7816388 18.34648 8.8304651
-6.8650305 18.294698 8.8342566
-6.9471398 18.24298 8.8382063
-7.0279369 18.191535 8.8422114
-7.1074137 18.140539 8.8461808
-7.1855955 18.090123 8.8500384
-7.2625506 18.040363 8.853726
-7.3383943 17.991275 8.8572041
-7.4132886 17.942816 8.8604516
-7.4874369 17.89489 8.8634653
-7.5610734 17.847357 8.8662569
-7.6344479 17.80005 8.8688515
-7.7078082 17.752783 8.871285
-7.7813792 17.705374 8.8736024
-7.8553436 17.657656 8.8758578
-7.9298234 17.609489 8.8781139
-8.004868 17.560769 8.880444
-8.0804473 17.511429 8.882934
-8.1564552 17.461439 8.8856845
-8.2327206 17.410791 8.8888132
-8.3090269 17.35949 8.8924557
-8.3851368 17.307538 8.8967649
-8.4608191 17.254918 8.9019085
-8.5358733 17.201582 8.9080634
-8.6101486 17.147446 8.9154087
-8.6835537 17.092391 8.9241166
-8.7560574 17.036267 8.9343415
-8.8276774 16.978907 8.9462098
-8.8984631 16.920144 8.9598104
-8.9684719 16.859822 8.9751865
-9.0377456 16.797812 8.9923318
-9.1062895 16.734018 9.0111884
-9.1740582 16.668378 9.0316503
-9.2409503 16.600852 9.0535688
-9.3068129 16.531417 9.0767619
-9.3714552 16.46004 9.1010253
-9.4346689 16.38667 9.1261443
-9.496254 16.311213 9.1519054
-9.5560439 16.233528 9.178107
-9.6139284 16.153418 9.204567
-9.669871 16.070639 9.2311284
-9.7239175 15.984914 9.2576607
-9.7761946 15.895949 9.2840577
-9.8268999 15.803469 9.3102329
-9.8762831 15.707242 9.3361107
-9.9246211 15.607111 9.3616167
-9.9721913 15.503029 9.386667
-10.019244 15.395071 9.4111585
-10.065981 15.283456 9.4349617
-10.112537 15.168542 9.457917
-10.158974 15.050821 9.4798364
-10.205282 14.93089 9.5005093
-10.251386 14.809425 9.5197144
-10.297166 14.687139 9.5372338
-10.34247 14.564737 9.55287
-10.387144 14.442878 9.5664622
-10.431043 14.322133 9.5779003
-10.474052 14.202958 9.5871352
-10.516094 14.085668 9.5941831
-10.55714 13.970429 9.5991249
-10.597205 13.857255 9.6021
-10.636344 13.746011 9.6032958
-10.674647 13.636426 9.6029344
-10.712231 13.528117 9.6012589
-10.749226 13.420613 9.5985192
-10.785765 13.313386 9.5949602
-10.821974 13.205893 9.5908126
-10.857963 13.097614 9.5862862
-10.893813 12.988094 9.5815658
-10.929574 12.876981 9.5768101
-10.965254 12.764056 9.5721517
-11.000824 12.649253 9.5676989
-11.036217 12.532661 9.5635369
-11.071335 12.41451 9.5597306
-11.106058 12.295145 9.5563264
-11.14026 12.174985 9.5533539
-11.173818 12.05448 9.5508274
-11.206623 11.934063 9.5487478
-11.238594 11.81412 9.5471042
-11.269677 11.694955 9.5458757
-11.299851 11.576786 9.545034
-11.329117 11.459747 9.5445461
-11.357499 11.343894 9.5443769
-11.385029 11.229226 9.5444923
-11.411741 11.115703 9.544862
-11.43767 11.003249 9.5454611
-11.462844 10.891768 9.5462718
-11.487288 10.781133 9.5472831
-11.511029 10.671181 9.54849
-11.5341 10.561713 9.5498915
-11.55655 10.452485 9.5514882
-11.578445 10.343219 9.553279
-11.599874 10.233615 9.5552589
-11.620942 10.123375 9.5574167
-11.641773 10.01223 9.5597341
-11.6625 9.8999642 9.5621862
-11.683255 9.7864337 9.5647427
-11.704168 9.6715803 9.5673705
-11.725355 9.5554296 9.5700369
-11.746919 9.4380812 9.5727127
-11.768942 9.3196914 9.5753748
-11.791492 9.2004523 9.5780081
-11.814618 9.0805724 9.5806056
-11.838357 8.9602613 9.5831679
-11.862734 8.8397212 9.5857006
-11.887762 8.719144 9.5882115
-11.91345 8.5987141 9.5907067
-11.939798 8.4786128 9.5931875
-11.966805 8.3590217 9.5956474
-11.994465 8.2401243 9.5980706
-12.02277 8.122103 9.6004315
-12.051712 8.0051323 9.6026962
-12.081281 7.8893711 9.6048248
-12.111466 7.7749541 9.606775
-12.142251 7.6619855 9.6085061
-12.173611 7.5505373 9.6099833
-12.205511 7.4406508 9.6111812
-12.237896 7.3323417 9.612087
-12.270696 7.2256079 9.6127021
-12.303814 7.1204352 9.613043
-12.337134 7.0168025 9.6131403
-12.370519 6.9146819 9.6130372
-12.403818 6.814036 9.6127871
-12.436874 6.7148109 9.6124497
-12.46953 6.61693 9.6120883
-12.501639 6.5202869 9.6117659
-12.533069 6.4247431 9.6115424
-12.563708 6.3301302 9.611472
-12.593467 6.2362564 9.6116017
-12.622277 6.1429183 9.6119705
-12.650087 6.049914 9.612609
-12.676859 5.9570559 9.6135405
-12.702566 5.8641803 9.6147824
-12.727183 5.7711516 9.6163476
-12.750691 5.6778591 9.6182466
-12.773071 5.5842088 9.6204896
-12.79431 5.4901087 9.6230878
-12.814403 5.3954527 9.6260545
-12.833357 5.3001047 9.6294057
-12.851198 5.2038862 9.63316
-12.867976 5.106571 9.6373376
-12.883768 5.0078862 9.641959
-12.898677 4.9075224 9.6470425
-12.912836 4.8051502 9.6526027
-12.926404 4.7004424 9.6586472
-12.939558 4.5930976 9.6651747
-12.952489 4.4828647 9.6721728
-12.965397 4.3695633 9.679616
-12.978479 4.2530994 9.6874645
-12.991923 4.1334741 9.6956635
-13.005903 4.0107857 9.7041433
-13.020573 3.8852238 9.7128196
-13.036065 3.7570579 9.7215952
-13.052483 3.626621 9.7303617
-13.069908 3.4942893 9.7390026
-13.088395 3.3604601 9.7473965
-13.10798 3.2255296 9.7554212
-13.128677 3.0898722 9.7629578
-13.150485 2.9538222 9.7698951
-13.173394 2.8176596 9.7761336
-13.197382 2.6816018 9.7815899
-13.222424 2.5458007 9.7861991
-13.248487 2.4103468 9.789918
-13.275539 2.2752789 9.7927259
-13.303542 2.1405996 9.7946263
-13.332457 2.0062946 9.7956461
-13.362237 1.8723535 9.7958361
-13.392832 1.7387904 9.7952694
-13.424182 1.6056616 9.79404
-13.456219 1.473078 9.792261
-13.488867 1.3412119 9.7900616
-13.522038 1.2102958 9.7875838
-13.55564 1.0806141 9.7849774
-13.589575 0.95248938 9.7823947
-13.623738 0.82626303 9.7799847
-13.658026 0.70227452 9.7778864
-13.692334 0.58083995 9.7762227
-13.726563 0.46223262 9.7750955
-13.760616 0.34666701 9.7745818
-13.794408 0.23428701 9.7747319
-13.827858 0.12515883 9.7755701
-13.860904 0.019268228 9.7770969
-13.893493 -0.083478472 9.7792934
-13.925593 -0.18325019 9.7821267
-13.957191 -0.28028448 9.7855559
-13.988295 -0.3748789 9.7895381
-14.018933 -0.46738074 9.7940335
-14.049153 -0.55817536 9.7990096
-14.079022 -0.64767322 9.8044436
-14.108619 -0.73629608 9.8103239
-14.138032 -0.82446267 9.8166497
-14.167353 -0.91257439 9.8234301
-14.196668 -1.001002 9.8306819
-14.22606 -1.0900738 9.8384267
-14.255597 -1.1800667 9.8466886
-14.285331 -1.2711998 9.8554909
-14.315299 -1.3636318 9.8648538
-14.345521 -1.4574622 9.8747921
-14.376003 -1.5527348 9.8853135
-14.406735 -1.6494451 9.896418
-14.437701 -1.747548 9.9080967
-14.468877 -1.846968 9.9203326
-14.500239 -1.9476091 9.9331016
-14.531763 -2.0493647 9.9463731
-14.563432 -2.1521276 9.9601125
-14.595236 -2.2558002 9.974283
-14.627179 -2.3603027 9.9888482
-14.659277 -2.4655818 10.003774
-14.691563 -2.5716173 10.019032
-14.724085 -2.6784259 10.0346
-14.756906 -2.7860622 10.050461
-14.790102 -2.8946147 10.066608
-14.823755 -3.0041982 10.08304
-14.857951 -3.114941 10.09976
-14.892768 -3.2269692 10.116772
-14.928272 -3.34039 10.134082
-14.964509 -3.4552741 10.151689
-15.001497 -3.5716431 10.16959
-15.039227 -3.6894602 10.187771
-15.077657 -3.8086287 10.206216
-15.116718 -3.9289967 10.2249
-15.156318 -4.0503684 10.243794
-15.196349 -4.1725198 10.262869
-15.236694 -4.2952157 10.282095
-15.277236 -4.4182262 10.301447
-15.317863 -4.5413394 10.320904
-15.358476 -4.6643685 10.340449
-15.398985 -4.7871537 10.360067
-15.439319 -4.9095578 10.379744
-15.479418 -5.0314604 10.399465
-15.519232 -5.1527494 10.419209
-15.558723 -5.2733148 10.438947
-15.597865 -5.3930462 10.458643
-15.636638 -5.5118329 10.478251
-15.675032 -5.6295688 10.497719
-15.713051 -5.7461585 10.516988
-15.750706 -5.8615253 10.535999
-15.78802 -5.9756165 10.554694
-15.825026 -6.0884088 10.573021
-15.861765 -6.1999097 10.590936
-15.898282 -6.3101596 10.608405
-15.93463 -6.4192318 10.625405
-15.970866 -6.5272354 10.641928
-16.007055 -6.6343185 10.657974
-16.043271 -6.7406742 10.67356
-16.079602 -6.846545 10.688708
-16.116151 -6.9522263 10.703453
-16.15304 -7.058064 10.717832
-16.190403 -7.1644453 10.731889
-16.228385 -7.2717812 10.745664
-16.267132 -7.3804821 10.759198
-16.306781 -7.4909272 10.772521
-16.347445 -7.6034328 10.785658
-16.389208 -7.7182238 10.798621
-16.432108 -7.8354118 10.811412
-16.476138 -7.954983 10.824024
-16.521246 -8.0767988 10.836444
-16.567333 -8.2006061 10.848654
-16.614269 -8.3260579 10.860636
-16.6619 -8.4527393 10.872376
-16.710063 -8.5801955 10.883865
-16.758601 -8.707959 10.895101
-16.807371 -8.8355739 10.906094
-16.856262 -8.9626137 10.916857
-16.905196 -9.0886946 10.927415
-16.954141 -9.2134834 10.937798
-17.003106 -9.3367009 10.948042
-17.052143 -9.4581223 10.958191
-17.101344 -9.5775765 10.96829
-17.150831 -9.6949429 10.978392
-17.20075 -9.8101495 10.988551
-17.251255 -9.9231696 10.998828
-17.302504 -10.034018 11.009284
-17.354642 -10.142747 11.019982
-17.40779 -10.249437 11.030983
-17.462038 -10.354186 11.042341
-17.517436 -10.457099 11.054107
-17.573988 -10.558266 11.066317
-17.631653 -10.657749 11.078995
-17.690344 -10.755561 11.092149
-17.74994 -10.851658 11.105769
-17.810291 -10.945928 11.119831
-17.871234 -11.038199 11.134295
-17.932612 -11.128246 11.149112
-17.994293 -11.215819 11.164227
-18.056183 -11.300669 11.179584
-18.11824 -11.382578 11.195136
-18.180486 -11.461387 11.21084
-18.243002 -11.537022 11.226673
-18.305922 -11.609499 11.242625
-18.369419 -11.678925 11.258703
-18.433685 -11.745482 11.274928
-18.498907 -11.809404 11.291336
-18.565245 -11.87094 11.307972
-18.632812 -11.930325 11.324884
-18.701666 -11.987745 11.342125
-18.7718 -12.043317 11.359745
-18.843149 -12.097069 11.377789
-18.915596 -12.148947 11.396292
-18.988992 -12.198814 11.41528
-19.063166 -12.246474 11.434764
-19.137948 -12.291691 11.454738
-19.21318 -12.334213 11.47518
-19.288729 -12.373801 11.496048
-19.364497 -12.410241 11.517286
-19.440426 -12.443364 11.538821
-19.516498 -12.473056 11.560574
-19.592744 -12.499254 11.58246
-19.669231 -12.521954 11.604396
-19.746064 -12.541201 11.626305
-19.823376 -12.557087 11.648118
-19.901309 -12.569743 11.669777
-19.980002 -12.579335 11.691231
-20.059568 -12.586057 11.712432
-20.140078 -12.590127 11.733335
-20.221535 -12.591783 11.753888
-20.303873 -12.591275 11.774035
-20.386946 -12.588859 11.793716
-20.470539 -12.58479 11.812875
-20.55438 -12.579314 11.83147
-20.638162 -12.572658 11.849489
-20.721569 -12.565027 11.866964
-20.804302 -12.556596 11.88399
-20.886097 -12.547504 11.900743
-20.966741 -12.537856 11.91749
-21.046081 -12.527722 11.9346
-21.124025 -12.517141 11.952537
-21.200533 -12.506124 11.971862
-21.275611 -12.494664 11.993208
-21.349297 -12.482738 12.017259
-21.421648 -12.470321 12.044712
-21.49273 -12.457387 12.076242
-21.562605 -12.443922 12.112452
-21.631324 -12.429922 12.153834
-21.69892 -12.415401 12.200727
-21.765408 -12.400388 12.253291
-21.830788 -12.384929 12.311489
-21.89505 -12.36908 12.375085
-21.958187 -12.352905 12.44366
-22.02021 -12.336472 12.516638
-22.081163 -12.319847 12.593326
-22.141135 -12.30309 12.672953
-22.200278 -12.286258 12.754711
-22.258807 -12.269396 12.837789
-22.317001 -12.252546 12.921399
-22.375198 -12.235741 13.004788
-22.433779 -12.219007 13.087241
-22.49315 -12.202365 13.168083
-22.553725 -12.185825 13.246663
-22.615902 -12.16939 13.322352
-22.680047 -12.15305 13.394533
-22.746478 -12.136782 13.462603
-22.815449 -12.120546 13.525976
-22.887146 -12.104287 13.584097
-22.961678 -12.087933 13.636458
-23.039074 -12.071396 13.682611
-23.119289 -12.054571 13.722195
-23.202208 -12.037338 13.754946
-23.287658 -12.019561 13.780714
-23.375419 -12.001091 13.799466
-23.465243 -11.981768 13.811286
-23.55687 -11.961422 13.816374
-23.65004 -11.939884 13.815028
-23.744511 -11.916988 13.807634
-23.84006 -11.892591 13.794647
-23.936486 -11.866577 13.776573
-24.033606 -11.838877 13.753959
-24.131249 -11.80948 13.727372
-24.229239 -11.778443 13.697393
-24.3274 -11.745897 13.664608
-24.425544 -11.712047 13.629595
-24.523476 -11.677162 13.592919
-24.62101 -11.641564 13.555116
-24.717975 -11.605605 13.516686
-24.814238 -11.569643 13.478075
-24.909719 -11.534017 13.43966
-25.004397 -11.499018 13.40174
-25.098317 -11.464872 13.364524
-25.191578 -11.431725 13.328125
-25.284317 -11.39963 13.292566
-25.376685 -11.368555 13.257783
-25.468818 -11.338385 13.22364
-25.560806 -11.30894 13.189945
-25.652673 -11.279991 13.156473
-25.74436 -11.251278 13.122981
-25.83572 -11.222533 13.089231
-25.926532 -11.193493 13.055005
-26.016511 -11.163916 13.020114
-26.105342 -11.133588 12.984408
-26.192701 -11.102334 12.947779
-26.278293 -11.070017 12.910161
-26.361872 -11.03654 12.871528
-26.443265 -11.001851 12.831887
-26.522379 -10.965932 12.791276
-26.599208 -10.928804 12.749757
-26.673826 -10.890523 12.70741
-26.746377 -10.85117 12.66433
-26.817053 -10.810854 12.620619
-26.886081 -10.769699 12.576386
-26.953696 -10.727837 12.53174
-27.020123 -10.685405 12.486789
-27.085564 -10.642534 12.441637
-27.150175 -10.599341 12.396382
-27.214065 -10.555933 12.351116
-27.277287 -10.512393 12.30592
-27.339839 -10.46879 12.260868
-27.401665 -10.425176 12.216019
-27.462665 -10.38159 12.171419
-27.522703 -10.338065 12.127093
-27.581615 -10.294629 12.083036
-27.639224 -10.251312 12.039208
-27.695341 -10.208148 11.995516
-27.74978 -10.165182 11.951811
-27.802355 -10.122471 11.907868
-27.85288 -10.080091 11.863383
-27.901171 -10.038138 11.817972
-27.947035 -9.9967314 11.771166
-27.99027 -9.9560183 11.722429
-28.03066 -9.9161699 11.67117
-28.067977 -9.8773787 11.616773
-28.101987 -9.8398501 11.55862
-28.132455 -9.8037918 11.496132
-28.159167 -9.7693987 11.428799
-28.181938 -9.7368387 11.35621
-28.200637 -9.7062378 11.278086
-28.215197 -9.677668 11.194295
-28.225628 -9.6511398 11.104865
-28.232022 -9.6265987 11.009987
-28.234558 -9.6039265 10.91001
-28.233493 -9.5829478 10.805426
-28.229157 -9.5634383 10.696852
-28.221936 -9.545136 10.585
-28.212258 -9.5277526 10.470654
-28.200575 -9.5109841 10.354631
-28.187342 -9.4945216 10.237751
-28.173 -9.4780592 10.120798
-28.157958 -9.4613017 10.004487
-28.142576 -9.44397 9.8894341
-28.127157 -9.4258068 9.7761342
-28.111936 -9.4065804 9.664944
-28.097085 -9.386089 9.5560817
-28.082714 -9.3641641 9.4496358
-28.068885 -9.3406742 9.3455876
-28.055628 -9.3155276 9.2438417
-28.042955 -9.2886748 9.1442631
-28.030882 -9.2601098 9.046715
-28.019443 -9.2298696 8.9510926
-28.008702 -9.1980316 8.857349
-27.998759 -9.1647094 8.7655097
-27.989751 -9.1300451 8.6756759
-27.981848 -9.0941996 8.5880148
-27.975241 -9.0573406 8.5027416
-27.97013 -9.0196289 8.4200944
-27.96671 -8.9812037 8.3403065
-27.965157 -8.942168 8.2635793
-27.965609 -8.9025751 8.1900588
-27.968164 -8.8624173 8.1198183
-27.972864 -8.8216179 8.0528488
-27.979693 -8.7800272 7.9890573
-27.988577 -8.7374237 7.9282734
-27.999383 -8.6935206 7.8702631
-28.011925 -8.6479769 7.8147484
-28.02597 -8.6004146 7.7614306
-28.041246 -8.5504387 7.7100151
-28.057452 -8.4976598 7.6602352
-28.074271 -8.4417188 7.6118724
-28.09138 -8.3823093 7.5647717
-28.10846 -8.3191989 7.518849
-28.125206 -8.2522448 7.4740924
-28.141335 -8.1814051 7.4305554
-28.156591 -8.1067414 7.388344
-28.170749 -8.0284159 7.3475994
-28.183615 -7.9466786 7.3084776
-28.195026 -7.8618479 7.2711295
-28.204843 -7.774285 7.2356816
-28.212954 -7.6843629 7.2022211
-28.219266 -7.5924333 7.1707851
-28.223707 -7.4987952 7.1413559
-28.226224 -7.4036684 7.1138616
-28.226791 -7.3071752 7.088183
-28.225406 -7.2093347 7.0641637
-28.222105 -7.1100706 7.0416253
-28.216962 -7.0092318 7.020383
-28.210096 -6.906625 7.0002624
-28.201673 -6.8020541 6.9811141
-28.1919 -6.6953597 6.9628253
-28.18102 -6.5864558 6.9453276
-28.169302 -6.475355 6.9285989
-28.157018 -6.3621806 6.9126616
-28.144433 -6.2471643 6.8975751
-28.13178 -6.1306287 6.8834259
-28.119248 -6.0129602 6.8703155
-28.106966 -5.894575 6.8583475
-28.094998 -5.7758831 6.8476158
-28.083339 -5.6572554 6.8381946
-28.071922 -5.5389981 6.8301305
-28.060623 -5.4213343 6.8234384
-28.049277 -5.3043967 6.8180986
-28.037688 -5.1882286 6.8140576
-28.025645 -5.072794 6.8112299
-28.012932 -4.9579927 6.8095023
-27.999337 -4.8436809 6.8087383
-27.98466 -4.7296927 6.8087844
-27.968715 -4.6158622 6.8094758
-27.951335 -4.502044 6.8106437
-27.932371 -4.3881304 6.8121217
-27.9117 -4.2740648 6.8137519
-27.889221 -4.1598519 6.8153911
-27.864867 -4.045562 6.8169159
-27.838602 -3.9313318 6.8182268
-27.810438 -3.8173595 6.8192512
-27.780431 -3.7038961 6.8199449
-27.74869 -3.5912319 6.8202931
-27.715376 -3.4796783 6.8203096
-27.680706 -3.3695482 6.8200358
-27.644944 -3.2611335 6.8195383
-27.608395 -3.154684 6.8189069
-27.571398 -3.0503889 6.8182522
-27.534318 -2.9483629 6.8177024
-27.497527 -2.8486399 6.8174007
-27.461399 -2.7511719 6.8175011
-27.426295 -2.6558372 6.818164
-27.392549 -2.5624529 6.8195502
-27.360456 -2.4707922 6.8218128
-27.330258 -2.3806033 6.8250885
-27.302129 -2.2916285 6.8294868
-27.276171 -2.2036208 6.8350795
-27.252396 -2.116358 6.8418906
-27.230732 -2.0296533 6.8498889
-27.211022 -1.9433611 6.858984
-27.193032 -1.8573803 6.8690279
-27.176472 -1.7716522 6.8798218
-27.161018 -1.6861565 6.8911294
-27.146335 -1.6009018 6.9026944
-27.132111 -1.5159144 6.9142615
-27.118078 -1.4312237 6.9255987
-27.104035 -1.3468455 6.9365168
-27.089863 -1.2627658 6.9468857
-27.075527 -1.1789253 6.9566442
-27.061075 -1.0952073 6.9658026
-27.046623 -1.0114307 6.9744378
-27.032335 -0.92734892 6.9826821
-27.018402 -0.84265696 6.9907072
-27.005013 -0.75700492 6.9987055
-26.992336 -0.6700186 7.0068708
-26.980497 -0.58132471 7.0153811
-26.969568 -0.49057857 7.0243843
-26.959561 -0.39749122 7.0339891
-26.950429 -0.30185314 7.0442597
-26.94207 -0.20355184 7.0552167
-26.934344 -0.10258118 7.0668407
-26.927079 0.00095855561 7.0790794
-26.920091 0.10687014 7.0918572
-26.913198 0.21487745 7.1050846
-26.906227 0.32465037 7.1186683
-26.899026 0.43583395 7.1325192
-26.891467 0.54807868 7.1465594
-26.88345 0.66106847 7.1607261
-26.874899 0.7745429 7.1749739
-26.865759 0.88831097 7.1892735
-26.855994 1.0022544 7.2036089
-26.845578 1.1163202 7.2179728
-26.834495 1.230504 7.2323598
-26.822731 1.3448268 7.2467607
-26.810273 1.4593103 7.2611557
-26.797107 1.5739547 7.2755101
-26.78321 1.6887246 7.2897712
-26.768556 1.8035439 7.303867
-26.753104 1.9183022 7.3177083
-26.736803 2.0328697 7.3311912
-26.719589 2.1471169 7.3442018
-26.701384 2.2609348 7.3566217
-26.682097 2.3742503 7.3683329
-26.661636 2.487034 7.3792236
-26.639907 2.5992977 7.3891919
-26.616825 2.7110839 7.39815
-26.592325 2.8224483 7.4060276
-26.566372 2.933441 7.4127745
-26.538961 3.0440899 7.4183625
-26.510129 3.1543894 7.4227874
-26.479951 3.2642984 7.4260697
-26.448539 3.3737469 7.4282549
-26.41603 3.4826507 7.4294119
-26.382583 3.5909311 7.4296312
-26.348361 3.6985357 7.4290214
-26.313526 3.8054569 7.427705
-26.278223 3.9117442 7.4258132
-26.24258 4.0175078 7.4234806
-26.206698 4.1229123 7.4208401
-26.170653 4.2281614 7.4180177
-26.134499 4.333476 7.4151282
-26.098271 4.4390679 7.4122711
-26.061993 4.5451135 7.4095277
-26.025676 4.6517311 7.4069588
-25.989332 4.758964 7.4046033
-25.952967 4.8667723 7.4024775
-25.91659 4.9750333 7.4005756
-25.880203 5.0835513 7.3988713
-25.843811 5.1920734 7.3973202
-25.807408 5.3003115 7.3958628
-25.770983 5.4079662 7.3944291
-25.734517 5.5147508 7.3929427
-25.697979 5.6204132 7.3913255
-25.66133 5.7247532 7.3895025
-25.624523 5.8276347 7.3874047
-25.587503 5.9289921 7.3849728
-25.550212 6.0288314 7.3821584
-25.512584 6.1272268 7.3789243
-25.474551 6.2243143 7.3752442
-25.43604 6.3202831 7.3711004
-25.39697 6.415365 7.366482
-25.357253 6.509823 7.3613817
-25.316792 6.6039389 7.3557935
-25.275483 6.6979977 7.349711
-25.233216 6.7922719 7.3431257
-25.189878 6.8870039 7.3360269
-25.145362 6.9823886 7.3284025
-25.099574 7.0785583 7.3202397
-25.052434 7.1755727 7.3115276
-25.003886 7.2734148 7.3022585
-24.9539 7.3719956 7.2924297
-24.902471 7.4711658 7.2820453
-24.849615 7.5707341 7.2711167
-24.795368 7.6704886 7.2596629
-24.739782 7.7702181 7.24771
-24.682921 7.8697291 7.2352909
-24.624855 7.9688568 7.2224438
-24.565666 8.0674677 7.2092108
-24.505441 8.1654557 7.1956364
-24.444282 8.2627318 7.1817654
-24.382297 8.3592133 7.1676406
-24.319604 8.4548129 7.1533005
-24.256327 8.5494334 7.1387765
-24.192589 8.6429689 7.1240915
-24.128506 8.7353124 7.109258
-24.064183 8.8263699 7.0942781
-23.999709 8.916078 7.0791451
-23.935156 9.0044214 7.0638466
-23.870585 9.091448 7.0483693
-23.806053 9.1772775 7.0327043
-23.741626 9.2621026 7.0168539
-23.677388 9.3461813 7.0008358
-23.613462 9.429821 6.9846873
-23.550008 9.5133567 6.9684655
-23.487237 9.5971243 6.9522455
-23.425401 9.6814339 6.9361141
-23.364791 9.7665452 6.9201628
-23.30572 9.8526475 6.9044774
-23.248506 9.9398474 6.8891295
-23.193452 10.028165 6.8741671
-23.140827 10.117538 6.8596098
-23.090853 10.207835 6.8454463
-23.043685 10.29887 6.8316355
-22.999409 10.390428 6.8181118
-22.95804 10.482281 6.8047922
-22.919516 10.574209 6.7915856
-22.883713 10.666012 6.7784017
-22.850449 10.757523 6.7651591
-22.819494 10.848609 6.7517912
-22.790585 10.939172 6.7382496
-22.763435 11.029148 6.7245048
-22.737745 11.118499 6.7105447
-22.713214 11.207209 6.6963716
-22.68955 11.295278 6.681998
-22.666479 11.382715 6.6674432
-22.64375 11.469533 6.6527294
-22.621142 11.555745 6.6378798
-22.59847 11.64136 6.6229165
-22.575584 11.726381 6.6078598
-22.552365 11.810812 6.5927273
-22.528729 11.894658 6.5775334
-22.504609 11.977935 6.5622876
-22.479956 12.060685 6.5469928
-22.454718 12.142987 6.5316435
-22.428837 12.224965 6.5162234
-22.402234 12.306804 6.5007035
-22.374805 12.388746 6.4850415
-22.346415 12.471091 6.4691823
-22.316901 12.554181 6.4530597
-22.286078 12.638389 6.4365998
-22.253748 12.724087 6.4197261
-22.219713 12.811627 6.4023647
-22.183792 12.901307 6.3844501
-22.145831 12.993357 6.3659308
-22.105721 13.08791 6.3467727
-22.063405 13.185001 6.3269629
-22.018886 13.284558 6.3065097
-21.972229 13.386411 6.2854425
-21.923554 13.490302 6.2638091
-21.873036 13.595903 6.2416718
-21.820891 13.702832 6.2191039
-21.767361 13.810676 6.1961842
-21.712706 13.919005 6.1729931
-21.657181 14.027393 6.1496092
-21.601026 14.135423 6.1261054
-21.544454 14.242706 6.1025477
-21.487636 14.348877 6.0789939
-21.430696 14.453611 6.055493
-21.373708 14.556619 6.0320861
-21.316699 14.657654 6.0088075
-21.259653 14.756508 5.9856857
-21.202523 14.853021 5.9627452
-21.145248 14.947073 5.9400079
-21.087763 15.038587 5.9174938
-21.03002 15.127528 5.8952226
-20.971999 15.213902 5.8732131
-20.913718 15.297749 5.8514834
-20.855237 15.379146 5.8300496
-20.796657 15.458202 5.8089246
-20.738106 15.535057 5.7881156
-20.679731 15.609882 5.7676216
-20.621675 15.682878 5.7474312
-20.564059 15.754284 5.7275192
-20.506961 15.82437 5.7078452
-20.450403 15.893446 5.6883524
-20.394342 15.961855 5.6689672
-20.338664 16.029967 5.6496018
-20.283191 16.098173 5.6301569
-20.227693 16.16687 5.6105268
-20.171906 16.23644 5.5906052
-20.115551 16.307235 5.570292
-20.058359 16.379555 5.5494998
-20.000095 16.453631 5.5281603
-19.940574 16.52961 5.5062295
-19.879681 16.607541 5.4836912
-19.817382 16.687377 5.4605597
-19.753727 16.768967 5.4368796
-19.688854 16.852071 5.4127249
-19.622982 16.936361 5.3881961
-19.556398 17.021445 5.3634157
-19.489441 17.106878 5.3385233
-19.422482 17.192187 5.3136693
-19.355906 17.27689 5.2890087
-19.290079 17.360523 5.2646945
-19.225331 17.442656 5.2408712
-19.161935 17.522923 5.2176688
-19.100084 17.601037 5.1951976
-19.03988 17.676805 5.173544
-18.981327 17.750144 5.1527673
-18.924332 17.82108 5.1328981
-18.868706 17.88975 5.1139386
-18.814187 17.956388 5.0958645
-18.760452 18.021307 5.0786278
-18.70715 18.084874 5.0621623
-18.653925 18.147478 5.0463889
-18.600446 18.209502 5.031222
-18.546438 18.27129 5.0165757
-18.491698 18.333117 5.00237
-18.436111 18.395176 4.9885352
-18.37966 18.457557 4.9750159
-18.32242 18.520253 4.9617729
-18.264552 18.583156 4.9487839
-18.206281 18.646081 4.9360422
-18.147876 18.708781 4.9235546
-18.089622 18.770972 4.9113379
-18.031793 18.832364 4.8994147
-17.97463 18.892683 4.8878089
-17.91831 18.9517 4.8765422
-17.862939 19.009246 4.8656298
-17.80853 19.065229 4.8550781
-17.755008 19.119636 4.8448831
-17.702203 19.172538 4.83503
-17.649864 19.224083 4.8254936
-17.597666 19.27448 4.8162405
-17.545229 19.323988 4.807231
-17.492138 19.372896 4.7984223
-17.437962 19.421501 4.789771
-17.382272 19.470094 4.7812359
-17.324665 19.518942 4.7727799
-17.264776 19.568275 4.7643719
-17.202294 19.618275 4.755987
-17.136967 19.669075 4.7476069
-17.06861 19.72076 4.7392192
-16.997102 19.773363 4.7308163
-16.922383 19.826881 4.7223947
-16.844451 19.881275 4.7139532
-16.763348 19.936483 4.7054927
-16.679161 19.992426 4.6970152
-16.592011 20.049012 4.6885236
-16.502056 20.106141 4.6800223
-16.409491 20.163706 4.6715175
-16.314553 20.221587 4.6630179
-16.217536 20.279652 4.6545358
-16.118793 20.337751 4.6460874
-16.018747 20.39571 4.6376929
-15.917892 20.453336 4.6293765
-15.816787 20.510416 4.6211647
-15.716044 20.56673 4.6130851
-15.616297 20.62206 4.6051634
-15.518174 20.676208 4.5974215
-15.422258 20.729016 4.5898737
-15.329045 20.780385 4.582524
-15.238908 20.830293 4.5753642
-15.152067 20.878806 4.5683715
-15.068574 20.926087 4.561508
-14.988309 20.972395 4.5547211
-14.91099 21.018073 4.5479445
-14.836204 21.063539 4.5411014
-14.763443 21.109255 4.5341075
-14.692145 21.155705 4.5268752
-14.621744 21.203367 4.5193185
-14.55171 21.25268 4.5113575
-14.481583 21.304022 4.5029225
-14.410999 21.357691 4.493958
-14.339698 21.413888 4.4844247
-14.267525 21.472715 4.4743015
-14.194421 21.534172 4.4635856
-14.120403 21.598166 4.4522919
-14.045546 21.664524 4.4404509
-13.969963 21.733002 4.428107
-13.893786 21.803305 4.4153149
-13.817154 21.8751 4.4021376
-13.740203 21.948029 4.3886428
-13.663064 22.021724 4.3749004
-13.585858 22.095815 4.3609803
-13.508699 22.16994 4.3469497
-13.43169 22.243755 4.3328716
-13.354921 22.316943 4.3188028
-13.278466 22.389223 4.3047926
-13.202373 22.460356 4.2908814
-13.12666 22.530154 4.2771
-13.051308 22.598484 4.2634695
-12.97626 22.665273 4.2500013
-12.901418 22.730502 4.2366982
-12.826652 22.794207 4.2235564
-12.751811 22.856465 4.2105671
-12.676732 22.917385 4.1977192
-12.601262 22.977094 4.1850022
-12.525267 23.035722 4.1724084
-12.448653 23.093392 4.1599353
-12.371365 23.150209 4.1475867
-12.2934 23.206254 4.1353741
-12.214796 23.261582 4.1233163
-12.135632 23.316224 4.1114397
-12.056008 23.37019 4.0997772
-11.976039 23.423476 4.088368
-11.895839 23.476068 4.0772564
-11.815506 23.527952 4.0664913
-11.735113 23.579114 4.0561257
-11.654702 23.62955 4.0462158
-11.574279 23.679266 4.0368195
-11.493809 23.728283 4.0279953
-11.413222 23.776636 4.0197998
-11.332414 23.824376 4.0122851
-11.251257 23.871567 4.0054957
-11.169612 23.918284 3.9994658
-11.087343 23.964605 3.9942162
-11.004333 24.010605 3.9897524
-10.9205 24.056349 3.9860638
-10.835813 24.101885 3.9831231
-10.750296 24.147243 3.9808875
-10.664032 24.192429 3.9793005
-10.577153 24.237435 3.9782941
-10.48983 24.282241 3.977792
-10.402249 24.32683 3.977712
-10.314593 24.37119 3.9779695
-10.227021 24.415332 3.9784797
-10.139653 24.459288 3.9791603
-10.052558 24.503117 3.979934
-9.9657587 24.546903 3.9807303
-9.8792293 24.590743 3.9814875
-9.7929086 24.634742 3.9821551
-9.7067111 24.679 3.9826947
-9.6205391 24.723603 3.9830821
-9.5342929 24.768608 3.9833074
-9.4478788 24.814047 3.9833759
-9.3612123 24.859916 3.9833068
-9.2742182 24.906182 3.9831322
-9.186828 24.95279 3.9828941
-9.098975 24.999664 3.9826417
-9.010588 25.046727 3.9824272
-8.9215872 25.093905 3.9823023
-8.8318802 25.14114 3.982314
-8.741362 25.188396 3.982501
-8.6499193 25.235665 3.9828914
-8.5574377 25.282967 3.9835008
-8.4638136 25.330348 3.9843313
-8.3689682 25.377869 3.9853719
-8.2728616 25.425603 3.9866
-8.1755051 25.473624 3.9879828
-8.07697 25.521993 3.9894803
-7.9773889 25.570756 3.9910484
-7.876951 25.619935 3.9926414
-7.7758896 25.669528 3.9942157
-7.6744637 25.719511 3.9957325
-7.5729361 25.769834 3.9971604
-7.4715501 25.820434 3.9984773
-7.3705085 25.871236 3.9996716
-7.2699569 25.922157 4.0007433
-7.169973 25.973114 4.0017029
-7.0705632 26.024023 4.002571
-6.9716655 26.074809 4.0033756
-6.8731593 26.125401 4.00415
-6.7748782 26.175741 4.0049297
-6.6766263 26.225776 4.0057492
-6.5781953 26.275466 4.006639
-6.4793814 26.324777 4.0076229
-6.3800003 26.373679 4.0087162
-6.2799009 26.422143 4.0099241
-6.1789757 26.470136 4.0112417
-6.0771676 26.517615 4.0126534
-5.9744738 26.564524 4.0141344
-5.8709446 26.610793 4.0156518
-5.7666778 26.656332 4.0171663
-5.6618096 26.701044 4.0186344
-5.556501 26.744821 4.0200106
-5.4509228 26.787559 4.0212492
-5.3452393 26.829164 4.0223072
-5.2395943 26.869562 4.0231458
-5.1340996 26.908709 4.0237328
-5.0288294 26.946591 4.0240436
-4.9238192 26.983233 4.0240629
-4.8190719 27.018687 4.023785
-4.7145667 27.053037 4.0232141
-4.6102724 27.086382 4.0223639
-4.5061603 27.118831 4.0212565
-4.402216 27.15049 4.0199211
-4.2984484 27.18146 4.0183925
-4.1948932 27.211824 4.0167098
-4.0916125 27.241649 4.0149144
-3.9886901 27.270981 4.0130494
-3.8862222 27.299851 4.0111584
-3.7843069 27.328276 4.0092855
-3.6830314 27.356263 4.007475
-3.5824596 27.383813 4.0057713
-3.4826208 27.410924 4.0042198
-3.3834999 27.437593 4.0028664
-3.285031 27.463815 4.0017575
-3.1870948 27.489583 4.00094
-3.0895205 27.514884 4.0004601
-2.9920931 27.539697 4.0003629
-2.894565 27.563989 4.0006908
-2.7966722 27.587713 4.0014821
-2.6981528 27.610807 4.0027699
-2.5987659 27.633197 4.0045806
-2.4983101 27.654797 4.0069326
-2.3966384 27.675518 4.0098351
-2.2936696 27.695275 4.0132868
-2.1893951 27.713995 4.0172759
-2.0838816 27.731623 4.0217791
-1.9772694 27.74813 4.0267621
-1.8697671 27.763517 4.0321801
-1.7616441 27.777812 4.0379792
-1.6532186 27.791073 4.0440987
-1.5448438 27.803379 4.0504733
-1.4368904 27.814825 4.0570364
-1.3297274 27.825509 4.0637234
-1.223701 27.835533 4.070475
-1.1191147 27.844986 4.0772397
-1.016211 27.853949 4.0839756
-0.91515691 27.862486 4.0906519
-0.81603613 27.870645 4.0972483
-0.71884562 27.878468 4.1037539
-0.62349846 27.885984 4.1101655
-0.52983024 27.893225 4.1164851
-0.43760767 27.900223 4.1227174
-0.34653725 27.907022 4.1288684
-0.25627299 27.913673 4.1349436
-0.16642289 27.920242 4.1409484
-0.076555226 27.9268 4.1468882
0.013793489 27.933426 4.1527701
0.10510656 27.940191 4.1586047
0.19786923 27.947157 4.164407
0.29254405 27.954362 4.170198
0.38954013 27.961817 4.1760041
0.48917888 27.969496 4.1818563
0.59165994 27.977336 4.1877878
0.69703221 27.985237 4.1938308
0.80517439 27.993066 4.2000131
0.91578869 28.000665 4.2063548
1.0284096 28.007862 4.2128647
1.1424273 28.014478 4.2195384
1.2571244 28.020341 4.226357
1.3717201 28.025295 4.233287
1.4854205 28.029205 4.2402812
1.5974675 28.031962 4.2472804
1.707183 28.033484 4.2542161
1.8140066 28.033715 4.2610135
1.9175235 28.032621 4.2675946
2.0174817 28.030185 4.2738822
2.1138 28.026401 4.279803
2.2065652 28.021269 4.2852913
2.2960213 28.01479 4.290292
2.38255 28.006964 4.2947635
2.4666456 27.997787 4.2986793
2.5488843 27.987253 4.3020293
2.6298907 27.975352 4.3048194
2.7103037 27.962077 4.307071
2.7907447 27.947423 4.3088182
2.8717902 27.931395 4.3101057
2.95395 27.914003 4.3109851
3.0376542 27.895271 4.3115112
3.1232467 27.875234 4.3117395
3.210986 27.853935 4.3117227
3.3010507 27.83143 4.311509
3.3935478 27.807783 4.3111402
3.4885214 27.783064 4.3106517
3.5859588 27.75735 4.3100718
3.6857947 27.730726 4.3094222
3.7879105 27.703282 4.3087189
3.8921316 27.675117 4.3079728
3.9982223 27.646338 4.3071902
4.1058817 27.617059 4.3063737
4.2147411 27.587404 4.3055224
4.3243676 27.557501 4.3046322
4.4342728 27.527484 4.303695
4.5439298 27.497479 4.3026995
4.6527965 27.467605 4.3016299
4.7603451 27.437959 4.3004664
4.8660943 27.40861 4.2991852
4.969642 27.379588 4.2977593
5.0706943 27.350876 4.2961594
5.1690869 27.322406 4.2943556
5.2647967 27.294053 4.2923201
5.3579427 27.265639 4.290029
5.4487728 27.236941 4.2874653
5.5376413 27.207699 4.2846208
5.6249771 27.17763 4.2814981
5.7112469 27.14645 4.2781111
5.7969167 27.113888 4.274485
5.8824174 27.079704 4.2706551
5.9681151 27.043711 4.2666645
6.0542913 27.00578 4.2625617
6.141133 26.96585 4.258397
6.2287332 26.923931 4.2542198
6.317102 26.880098 4.2500751
6.4061845 26.834478 4.2460021
6.4958857 26.787234 4.2420318
6.586096 26.738548 4.2381869
6.6767173 26.688598 4.2344818
6.7676837 26.637541 4.2309235
6.8589755 26.585497 4.2275125
6.9506245 26.532545 4.2242449
7.0427095 26.478716 4.2211137
7.1353434 26.424004 4.2181104
7.2286543 26.368378 4.215226
7.3227634 26.311796 4.2124521
7.4177647 26.254227 4.2097807
7.5137087 26.195663 4.2072041
7.6105939 26.136128 4.2047142
7.7083682 26.075691 4.2023015
7.8069368 26.014458 4.1999539
7.9061783 25.952567 4.1976551
8.0059629 25.890178 4.1953841
8.1061712 25.82746 4.1931142
8.2067087 25.764577 4.1908127
8.3075144 25.701676 4.1884409
8.4085614 25.63888 4.1859546
8.5098503 25.576283 4.1833055
8.6113961 25.513951 4.1804416
8.7132102 25.451918 4.1773095
8.8152819 25.3902 4.1738555
8.9175605 25.328789 4.1700279
9.0199417 25.267669 4.1657787
9.1222599 25.206815 4.1610661
9.2242882 25.146201 4.1558565
9.3257452 25.085798 4.1501261
9.4263094 25.025583 4.1438637
9.5256395 24.965534 4.1370706
9.6233981 24.905629 4.1297618
9.7192767 24.845846 4.1219653
9.8130199 24.786161 4.1137199
9.9044453 24.726539 4.1050728
9.9934569 24.66694 4.0960762
10.080051 24.607308 4.086783
10.16431 24.547583 4.0772434
10.246397 24.487697 4.0675011
10.326525 24.427587 4.0575913
10.404941 24.367201 4.0475388
10.481895 24.306509 4.037358
10.557616 24.245513 4.027053
10.632296 24.184251 4.0166188
10.706074 24.122795 4.006043
10.779043 24.061248 3.9953061
10.851252 23.999731 3.9843839
10.922722 23.938368 3.973248
10.993465 23.87727 3.9618673
11.063498 23.816521 3.9502097
11.13286 23.756168 3.9382445
11.201611 23.696219 3.9259448
11.269834 23.636645 3.9132913
11.337622 23.577394 3.9002752
11.405062 23.518405 3.8869019
11.472216 23.459627 3.8731935
11.539109 23.401035 3.8591902
11.60571 23.342647 3.8449496
11.671937 23.284524 3.8305458
11.737655 23.226773 3.8160643
11.802697 23.169535 3.8015975
11.866881 23.112967 3.7872375
11.930044 23.057224 3.773069
11.992069 23.002427 3.7591621
12.052913 22.948647 3.7455657
12.112627 22.89588 3.7323029
12.171378 22.844037 3.7193678
12.229441 22.79294 3.7067253
12.287203 22.742326 3.6943129
12.345136 22.691863 3.6820449
12.40378 22.641171 3.6698186
12.463702 22.589847 3.6575213
12.525472 22.537493 3.645038
12.589625 22.483742 3.6322586
12.656636 22.428281 3.6190845
12.7269 22.370865 3.6054326
12.800716 22.311324 3.5912393
12.878281 22.249568 3.5764614
12.959693 22.185579 3.5610757
13.044955 22.1194 3.5450784
13.133983 22.051129 3.5284823
13.226619 21.980903 3.5113152
13.32264 21.908888 3.4936181
13.421763 21.835274 3.4754433
13.523658 21.760269 3.4568541
13.627951 21.684101 3.4379243
13.734232 21.607012 3.4187387
13.842062 21.529269 3.3993926
13.950982 21.451154 3.3799921
14.060527 21.372968 3.3606525
14.170246 21.295019 3.3414964
14.279714 21.217616 3.3226502
14.388558 21.141056 3.3042396
14.496472 21.065607 3.2863846
14.603232 20.991496 3.2691938
14.708698 20.9189 3.2527594
14.812817 20.847938 3.2371528
14.915607 20.77867 3.2224218
15.017135 20.711105 3.2085893
15.117496 20.645211 3.1956543
15.21678 20.580924 3.1835942
15.315048 20.518169 3.1723686
15.412309 20.456868 3.1619244
15.508514 20.396951 3.1522005
15.603554 20.338359 3.1431326
15.697269 20.281047 3.1346573
15.789471 20.224974 3.1267147
15.879967 20.170101 3.1192509
15.968577 20.11638 3.1122186
16.055163 20.063749 3.1055776
16.139634 20.012129 3.0992944
16.221953 19.961425 3.0933425
16.302134 19.911531 3.0877011
16.380231 19.862334 3.0823556
16.456325 19.813722 3.0772967
16.530514 19.765591 3.0725201
16.602901 19.717844 3.0680255
16.673592 19.670394 3.0638158
16.742699 19.623154 3.059896
16.810346 19.576034 3.0562711
16.876678 19.528927 3.0529454
16.941871 19.481707 3.0499207
17.006138 19.434218 3.047196
17.069727 19.386278 3.0447678
17.13292 19.337676 3.0426302
17.196015 19.28819 3.0407774
17.259314 19.237591 3.0392059
17.323099 19.18566 3.0379177
17.387612 19.132204 3.036924
17.453043 19.077064 3.0362484
17.519511 19.020127 3.0359306
17.587064 18.961325 3.0360283
17.655682 18.900636 3.036619
17.725278 18.838076 3.0378
17.79572 18.773686 3.0396868
17.866842 18.707524 3.0424105
17.938463 18.639646 3.0461136
18.0104 18.570098 3.0509455
18.082481 18.498909 3.057058
18.154554 18.426077 3.0646005
18.22649 18.351577 3.0737183
18.298183 18.275354 3.0845506
18.36955 18.197334 3.0972328
18.440527 18.117424 3.1118985
18.511068 18.035524 3.128684
18.581139 17.951529 3.1477319
18.650717 17.865342 3.1691933
18.719792 17.776877 3.1932276
18.788362 17.686068 3.219998
18.856435 17.592881 3.2496627
18.924022 17.497317 3.2823619
18.991138 17.399424 3.3182024
19.057795 17.299307 3.3572404
19.123997 17.197132 3.3994658
19.189739 17.093134 3.4447905
19.255004 16.987613 3.4930421
19.319762 16.880934 3.5439654
19.383974 16.773513 3.5972314
19.447599 16.665806 3.6524529
19.510597 16.558285 3.7092054
19.572943 16.451421 3.7670514
19.634627 16.345663 3.8255639
19.695667 16.241417 3.8843473
19.756106 16.139033 3.9430552
19.816012 16.038792 4.0014008
19.875482 15.940901 4.0591638
19.934627 15.845486 4.11619
19.993573 15.7526 4.1723885
20.052448 15.66222 4.2277248
20.111376 15.574254 4.2822119
20.170471 15.48855 4.3359011
20.229824 15.404904 4.3888715
20.289501 15.323074 4.44122
20.349537 15.242788 4.4930518
20.409931 15.16376 4.5444718
20.470648 15.085706 4.595578
20.531618 15.008348 4.6464565
20.592744 14.931429 4.6971796
20.653911 14.854717 4.7478062
20.714992 14.778002 4.7983844
20.775868 14.701102 4.8489556
20.836429 14.623851 4.8995589
20.896591 14.546105 4.9502345
20.956296 14.467734 5.0010249
21.015514 14.388628 5.0519739
21.074237 14.308701 5.1031226
21.132475 14.227892 5.154504
21.190242 14.146181 5.2061364
21.247546 14.063584 5.2580188
21.304388 13.980159 5.3101281
21.36075 13.895994 5.3624202
21.416601 13.811203 5.414835
21.4719 13.7259 5.4673048
21.526605 13.640185 5.5197639
21.58068 13.554124 5.5721588
21.634102 13.467733 5.6244546
21.686868 13.38097 5.6766386
21.738995 13.293739 5.7287175
21.790513 13.205899 5.78071
21.841462 13.117279 5.8326347
21.89188 13.027705 5.8844973
21.941795 12.937016 5.9362765
21.991217 12.845086 5.9879148
22.040134 12.751833 6.039313
22.088518 12.657223 6.0903324
22.136321 12.561265 6.1408026
22.183492 12.463998 6.1905353
22.229986 12.365473 6.2393413
22.27577 12.265735 6.28705
22.320841 12.164808 6.3335258
22.365225 12.062686 6.3786828
22.408983 11.959325 6.4224928
22.452211 11.854651 6.4649876
22.495033 11.748569 6.5062552
22.537591 11.640987 6.5464298
22.580039 11.53183 6.5856786
22.622529 11.42107 6.6241853
22.6652 11.308744 6.6621342
22.708174 11.194969 6.6996956
22.751544 11.079955 6.7370138
22.795377 10.964003 6.7741997
22.83971 10.847499 6.8113274
22.884555 10.730895 6.848435
22.929903 10.614686 6.8855293
22.975733 10.499379 6.9225927
23.022019 10.385455 6.9595923
23.068735 10.27334 6.9964884
23.115864 10.163367 7.0332433
23.163396 10.055752 7.0698269
23.211334 9.9505751 7.1062206
23.259687 9.847775 7.1424183
23.308468 9.7471543 7.1784239
23.357682 9.6483967 7.2142462
23.407323 9.5510953 7.249893
23.45736 9.4547881 7.2853636
23.507738 9.3589969 7.3206416
23.558371 9.263266 7.3556898
23.609143 9.1671962 7.3904469
23.659913 9.0704711 7.4248264
23.71052 8.9728736 7.4587185
23.760797 8.8742917 7.4919945
23.810577 8.774714 7.5245121
23.859708 8.6742171 7.5561229
23.908059 8.5729458 7.5866799
23.95553 8.4710894 7.616045
24.002061 8.368856 7.644097
24.047634 8.266447 7.6707386
24.092275 8.1640349 7.6959029
24.136058 8.0617453 7.7195584
24.179101 7.9596447 7.7417124
24.221558 7.8577359 7.7624124
24.263613 7.7559612 7.7817437
24.305467 7.6542121 7.7998242
24.347325 7.5523447 7.8167967
24.389375 7.4501986 7.8328174
24.43178 7.3476158 7.8480437
24.474656 7.2444567 7.8626212
24.518069 7.1406119 7.8766721
24.562024 7.0360055 7.8902862
24.606471 6.9305925 7.9035147
24.651306 6.8243485 7.9163688
24.696386 6.7172561 7.9288216
24.741545 6.6092889 7.9408142
24.786605 6.5003976 7.9522638
24.831394 6.3905016 7.9630734
24.875758 6.2794863 7.9731419
24.91957 6.1672106 7.9823736
24.962734 6.0535202 7.9906854
25.005184 5.938268 7.9980126
25.046885 5.8213371 8.0043114
25.087824 5.7026612 8.0095602
25.128011 5.5822416 8.0137577
25.167467 5.4601541 8.0169204
25.206232 5.336547 8.0190788
25.244357 5.2116282 8.0202729
25.281909 5.0856443 8.020549
25.318977 4.9588559 8.0199563
25.355668 4.8315127 8.0185451
25.392112 4.703834 8.0163657
25.428455 4.575997 8.0134684
25.464861 4.4481361 8.0099039
25.501495 4.3203512 8.0057244
25.538519 4.1927235 8.000984
25.576081 4.0653333 7.9957381
25.614303 3.9382759 7.9900423
25.653279 3.8116717 7.9839504
25.693066 3.6856662 7.9775113
25.733692 3.5604218 7.9707657
25.775151 3.4361015 7.963743
25.817417 3.312848 7.9564591
25.860441 3.1907647 7.9489151
25.904165 3.0698996 7.9410972
25.948518 2.9502381 7.9329781
25.993421 2.8317056 7.9245193
26.038785 2.7141777 7.9156738
26.084504 2.5974994 7.9063891
26.130455 2.4815064 7.8966095
26.176494 2.3660482 7.886278
26.222448 2.2510066 7.8753374
26.268119 2.1363091 7.8637304
26.313287 2.0219339 7.8513998
26.357711 1.9079076 7.8382887
26.401147 1.7942958 7.8243402
26.443351 1.6811894 7.8094994
26.484096 1.5686883 7.7937149
26.523185 1.4568878 7.7769427
26.560461 1.3458679 7.7591498
26.595816 1.2356892 7.7403193
26.629196 1.126396 7.7204548
26.660598 1.018025 7.6995845
26.69007 0.91061815 7.6777637
26.717704 0.80423627 7.655075
26.743621 0.69897031 7.6316259
26.76797 0.59494617 7.6075439
26.79091 0.49232132 7.5829685
26.812612 0.39127218 7.5580409
26.833244 0.29197316 7.5328925
26.852977 0.19456995 7.5076327
26.871976 0.099150813 7.482338
26.890402 0.0057202773 7.4570429
26.908409 -0.085820578 7.4317341
26.926144 -0.17568377 7.4063483
26.943744 -0.26419191 7.3807752
26.961331 -0.35176302 7.3548644
26.97901 -0.43888375 7.3284372
26.996868 -0.52607341 7.3013014
27.014972 -0.61384247 7.2732687
27.033371 -0.70264959 7.2441733
27.0521 -0.79286181 7.2138895
27.071183 -0.88472188 7.1823466
27.09064 -0.97832648 7.1495402
27.110496 -1.0736177 7.1155371
27.13078 -1.1703891 7.0804738
27.151533 -1.2683053 7.0445488
27.172804 -1.366934 7.0080084
27.194654 -1.4657857 6.971128
27.217147 -1.5643582 6.9341918
27.240346 -1.6621788 6.8974714
27.264308 -1.7588421 6.8612071
27.289076 -1.8540382 6.8255943
27.314672 -1.9475696 6.7907745
27.341098 -2.0393569 6.7568325
27.368332 -2.129433 6.7237994
27.396325 -2.2179292 6.6916603
27.425009 -2.3050555 6.6603643
27.454294 -2.3910782 6.6298367
27.484078 -2.4762965 6.5999903
27.514245 -2.5610216 6.5707356
27.544673 -2.6455587 6.5419887
27.575236 -2.7301922 6.5136766
27.605808 -2.8151747 6.4857395
27.636267 -2.9007194 6.4581317
27.666498 -2.9869957 6.4308204
27.696393 -3.0741259 6.4037841
27.725856 -3.1621855 6.3770106
27.754805 -3.2512036 6.3504961
27.783167 -3.3411658 6.3242448
27.810884 -3.432017 6.2982695
27.83791 -3.5236665 6.2725942
27.864204 -3.6159937 6.247256
27.889732 -3.7088552 6.222308
27.914461 -3.8020941 6.1978215
27.938356 -3.8955503 6.1738864
27.961378 -3.9890723 6.1506102
27.983484 -4.0825299 6.1281146
28.004626 -4.1758249 6.1065301
28.024758 -4.2689004 6.0859893
28.043835 -4.3617445 6.0666193
28.061817 -4.4543887 6.0485349
28.07868 -4.5469001 6.0318329
28.09441 -4.6393682 6.0165891
28.109013 -4.7318882 6.0028585
28.122509 -4.8245461 5.990678
28.13493 -4.9174056 5.9800719
28.146321 -5.0105042 5.9710587
28.156732 -5.1038565 5.9636587
28.166211 -5.1974679 5.9579008
28.174806 -5.2913527 5.953827
28.182554 -5.3855567 5.9514956
28.189483 -5.4801754 5.9509809
28.195607 -5.5753654 5.9523714
28.200926 -5.6713452 5.9557657
28.205426 -5.7683826 5.961267
28.20908 -5.8667706 5.9689777
28.21185 -5.9667945 5.9789934
28.213687 -6.0686941 5.9913976
28.214539 -6.1726274 6.0062568
28.214354 -6.2786393 6.0236174
28.213083 -6.3866411 6.0435032
28.210687 -6.4964016 6.0659143
28.207139 -6.607553 6.0908283
28.202428 -6.7196096 6.1182032
28.196556 -6.8319982 6.1479818
28.189543 -6.9440967 6.1800983
28.181412 -7.0552783 6.2144843
28.172193 -7.1649548 6.2510756
28.161911 -7.2726167 6.2898162
28.150581 -7.3778633 6.3306591
28.138201 -7.4804222 6.373563
28.124752 -7.5801538 6.4184851
28.110197 -7.6770417 6.4653693
28.094479 -7.771171 6.5141328
28.077534 -7.8626974 6.5646522
28.059294 -7.951812 6.6167521
28.039692 -8.0387074 6.6701995
28.018675 -8.1235491 6.7247044
27.996208 -8.2064564 6.7799291
27.972279 -8.2874941 6.8355052
27.946901 -8.3666741 6.8910576
27.920114 -8.4439657 6.9462319
27.89198 -8.519311 7.0007232
27.862583 -8.592641 7.0543028
27.832027 -8.6638901 7.1068392
27.80043 -8.7330064 7.1583119
27.767925 -8.7999568 7.2088173
27.73466 -8.8647275 7.2585655
27.700796 -8.9273217 7.3078696
27.666515 -8.987756 7.357129
27.632021 -9.0460575 7.4068078
27.597543 -9.1022627 7.45741
27.56334 -9.1564185 7.5094538
27.5297 -9.2085847 7.5634452
27.496939 -9.2588374 7.6198527
27.465393 -9.3072704 7.6790842
27.435408 -9.3539955 7.7414674
27.407328 -9.3991392 7.8072349
27.381472 -9.4428375 7.8765156
27.358122 -9.4852287 7.9493338
27.3375 -9.5264458 8.0256151
27.319751 -9.5666093 8.1052016
27.304935 -9.6058229 8.1878719
27.293018 -9.6441716 8.2733672
27.283872 -9.6817218 8.3614176
27.277286 -9.7185247 8.4517669
27.27297 -9.7546208 8.5441931
27.270578 -9.790044 8.6385208
27.269727 -9.8248262 8.7346252
27.270011 -9.8590001 8.8324278
27.27102 -9.8926011 8.9318855
27.272359 -9.9256677 9.0329751
27.273651 -9.9582418 9.1356771
27.274551 -9.9903682 9.2399623
27.274743 -10.022095 9.3457826
27.27394 -10.053473 9.4530676
27.271885 -10.08456 9.5617265
27.268338 -10.115415 9.6716533
27.263076 -10.146106 9.7827332
27.255886 -10.176702 9.8948471
27.246559 -10.207275 10.007872
27.234888 -10.237895 10.121675
27.220668 -10.268625 10.236106
27.203695 -10.299518 10.350982
27.183767 -10.330612 10.466073
27.160686 -10.361928 10.581089
27.134262 -10.393474 10.695671
27.104314 -10.425241 10.80939
27.070671 -10.457211 10.921752
27.033183 -10.489359 11.032209
26.991717 -10.521663 11.140179
26.946165 -10.554098 11.245069
26.896451 -10.586647 11.3463
26.842536 -10.619292 11.443334
26.784427 -10.652014 11.535695
26.722178 -10.684785 11.622993
26.655901 -10.717564 11.704934
26.585761 -10.750289 11.781336
26.511978 -10.782874 11.852126
26.434818 -10.815207 11.917341
26.354582 -10.847156 11.977121
26.271591 -10.878572 12.031693
26.186166 -10.909303 12.081357
26.098613 -10.939204 12.126472
26.0092 -10.968155 12.167433
25.918145 -10.99607 12.204656
25.825606 -11.022914 12.238566
25.731677 -11.048708 12.269582
25.636397 -11.073533 12.298112
25.53975 -11.097533 12.324546
25.441693 -11.120902 12.349257
25.342161 -11.14388 12.372597
25.241099 -11.166735 12.394895
25.138469 -11.189745 12.416461
25.034277 -11.213182 12.437579
24.928578 -11.237291 12.458506
24.821491 -11.262274 12.479461
24.713199 -11.288273 12.500621
24.603948 -11.315362 12.522117
24.494045 -11.343541 12.544021
24.383834 -11.372738 12.566353
24.273688 -11.402812 12.589072
24.16398 -11.433568 12.612093
24.055059 -11.464773 12.635285
23.947228 -11.49617 12.658492
23.840721 -11.527504 12.681538
23.735691 -11.558529 12.704245
23.632207 -11.58903 12.72644
23.530255 -11.618823 12.747959
23.42975 -11.64776 12.768651
23.33056 -11.675726 12.788374
23.232522 -11.702629 12.806987
