7.4232227 17.288809 6.0406478
7.356411 17.37125 6.0425257
7.2865907 17.451011 6.0463241
7.2134887 17.528025 6.05212
7.1369172 17.602287 6.0599382
7.0567926 17.673844 6.069744
6.9731478 17.742791 6.0814381
6.8861362 17.809267 6.0948558
6.7960259 17.873437 6.1097703
6.7031841 17.935494 6.1258995
6.6080534 17.995643 6.1429168
6.5111228 18.054105 6.1604638
6.4128959 18.111103 6.1781653
6.3138613 18.166866 6.1956438
6.2144663 18.221623 6.2125341
6.1150993 18.2756 6.228495
6.0160792 18.32901 6.2432187
5.917653 18.382054 6.2564371
5.8199997 18.434911 6.2679254
5.723238 18.487738 6.2775019
5.6274353 18.540661 6.2850271
5.5326165 18.593783 6.2904007
5.4387696 18.647181 6.2935584
5.3458506 18.700916 6.2944695
5.2537866 18.755037 6.2931347
5.1624785 18.809588 6.2895849
5.0718059 18.864607 6.2838817
4.9816345 18.920128 6.2761177
4.8918254 18.976174 6.266418
4.8022457 19.032746 6.2549414
4.7127788 19.089812 6.2418806
4.6233309 19.1473 6.2274625
4.5338323 19.205077 6.2119466
4.4442325 19.262956 6.1956216
4.3544879 19.320684 6.1788015
4.2645441 19.377955 6.161818
4.1743156 19.434417 6.1450127
4.0836654 19.489686 6.1287262
3.9923897 19.543371 6.1132863
3.9002085 19.595085 6.0989944
3.8067673 19.644473 6.0861122
3.7116484 19.691222 6.0748481
3.6143929 19.735085 6.0653458
3.5145311 19.775885 6.0576751
3.4116194 19.813528 6.0518275
3.3052792 19.848005 6.0477155
3.1952349 19.879388 6.0451783
3.0813472 19.907831 6.0439917
2.9636374 19.933554 6.043883
2.8422998 19.956836 6.0445485
2.7177008 19.977997 6.0456732
2.5903619 19.997382 6.0469497
2.4609293 20.015345 6.0480953
2.3301304 20.032233 6.0488657
2.1987221 20.048371 6.0490643
2.0674355 20.064053 6.0485477
1.9369229 20.079528 6.0472263
1.8077136 20.094999 6.0450614
1.6801819 20.11062 6.0420598
1.5545317 20.12649 6.0382669
1.4307994 20.14266 6.0337592
1.3088718 20.159133 6.0286364
1.1885187 20.175868 6.0230149
1.0694338 20.192786 6.0170217
0.95127846 20.20977 6.0107893
0.83372446 20.226677 6.0044514
0.71648996 20.243341 5.9981393
0.59936589 20.259579 5.9919791
0.48223125 20.275196 5.9860895
0.36505695 20.289995 5.9805795
0.2478995 20.303782 5.9755484
0.13088649 20.316366 5.9710852
0.01419639 20.327568 5.9672697
-0.10196482 20.337218 5.9641747
-0.21738796 20.345157 5.9618676
-0.33188387 20.351236 5.9604129
-0.44530415 20.355312 5.9598737
-0.55755812 20.357252 5.9603116
-0.66862485 20.356925 5.9617856
-0.77855937 20.354215 5.9643475
-0.88749208 20.349014 5.968037
-0.99562074 20.341239 5.9728732
-1.1031952 20.330834 5.9788466
-1.2104953 20.317785 5.9859105
-1.3178048 20.30213 5.9939733
-1.4253822 20.283967 6.0028939
-1.5334346 20.263459 6.0124801
-1.6420954 20.240842 6.0224913
-1.7514112 20.21642 6.0326449
-1.8613381 20.190558 6.0426275
-1.9717494 20.163675 6.0521078
-2.0824522 20.13623 6.060752
-2.1932105 20.108704 6.0682387
-2.3037727 20.081585 6.0742722
-2.4138972 20.055356 6.0785939
-2.5233752 20.03047 6.0809889
-2.6320462 20.007347 6.0812903
-2.7398062 19.986358 6.0793794
-2.8466076 19.967817 6.0751838
-2.9524515 19.951971 6.0686743
-3.0573758 19.938999 6.0598617
-3.1614387 19.929004 6.0487948
-3.2647025 19.922006 6.0355594
-3.3672187 19.917942 6.0202801
-3.4690167 19.916659 6.0031227
-3.5700971 19.917916 5.9842975
-3.6704315 19.921375 5.964062
-3.7699677 19.926613 5.9427223
-3.8686399 19.933122 5.9206306
-3.9663832 19.940318 5.89818
-4.0631494 19.947565 5.8757938
-4.1589225 19.954185 5.853912
-4.253731 19.959493 5.8329731
-4.3476553 19.962819 5.8133956
-4.4408291 19.96354 5.7955575
-4.5334335 19.961108 5.779778
-4.6256859 19.955073 5.7663022
-4.7178241 19.945106 5.75529
-4.8100896 19.931004 5.7468099
-4.9027113 19.912695 5.740838
-4.9958934 19.890232 5.7372627
-5.0898081 19.863778 5.7358929
-5.1845946 19.833587 5.7364695
-5.2803625 19.799977 5.7386798
-5.3771994 19.763311 5.742172
-5.4751794 19.723966 5.7465701
-5.5743708 19.682323 5.7514886
-5.6748407 19.638745 5.7565455
-5.7766562 19.593575 5.7613738
-5.8798804 19.547131 5.7656315
-5.9845669 19.499709 5.7690096
-6.0907508 19.45159 5.7712377
-6.1984415 19.403047 5.7720876
-6.307616 19.354352 5.7713755
-6.4182172 19.305778 5.7689612
-6.5301549 19.257602 5.7647464
-6.6433113 19.210101 5.7586713
-6.7575487 19.163547 5.750711
-6.8727179 19.118194 5.7408715
-6.9886661 19.07427 5.7291862
-7.1052407 19.031967 5.7157143
-7.2222897 18.991427 5.7005393
-7.3396571 18.952738 5.6837703
-7.457175 18.915929 5.6655428
-7.5746541 18.880965 5.6460215
-7.6918738 18.847754 5.6254017
-7.808576 18.816142 5.6039102
-7.9244634 18.785925 5.5818054
-8.0392026 18.756847 5.5593742
-8.1524339 18.728612 5.5369288
-8.2637839 18.700882 5.5148005
-8.3728815 18.673288 5.493334
-8.4793737 18.645432 5.4728797
-8.5829393 18.61689 5.4537881
-8.6833009 18.587219 5.4364042
-8.7802325 18.555959 5.4210628
-8.8735652 18.522633 5.4080862
-8.9631904 18.486747 5.3977815
-9.0490612 18.447797 5.3904396
-9.1311932 18.405265 5.386333
-9.2096646 18.35863 5.3857135
-9.2846135 18.307374 5.3888073
-9.3562341 18.251001 5.3958086
-9.4247694 18.189055 5.4068711
-9.4905001 18.121151 5.4220969
-9.553731 18.047005 5.4415258
-9.6147744 17.966465 5.4651233
-9.6739332 17.87954 5.4927717
-9.7314842 17.786424 5.5242636
-9.7876638 17.687505 5.5593002
-9.8426582 17.583364 5.5974953
-9.8965984 17.474763 5.638384
-9.9495605 17.36261 5.6814388
-10.001572 17.247924 5.7260881
-10.052625 17.13178 5.7717401
-10.102688 17.015254 5.8178071
-10.15173 16.899366 5.8637305
-10.199735 16.785032 5.9090034
-10.246721 16.673015 5.9531903
-10.292756 16.563894 5.9959417
-10.337966 16.458052 6.037003
-10.382541 16.355671 6.0762183
-10.426724 16.25675 6.1135274
-10.470809 16.161133 6.1489588
-10.515116 16.068548 6.1826184
-10.559978 15.978647 6.2146764
-10.605719 15.891057 6.2453527
-10.652632 15.80541 6.2749029
-10.700969 15.721378 6.3036059
-10.750929 15.638689 6.3317527
-10.802655 15.557138 6.3596367
-10.856233 15.476581 6.3875455
-10.911696 15.396928 6.415753
-10.969032 15.318128 6.4445114
-11.028185 15.240157 6.4740444
-11.089063 15.163006 6.5045397
-11.151536 15.086667 6.5361443
-11.215441 15.011132 6.5689618
-11.280582 14.936381 6.6030538
-11.346731 14.862381 6.6384466
-11.413639 14.789075 6.6751416
-11.48104 14.716374 6.7131306
-11.54866 14.644142 6.7524117
-11.616228 14.57219 6.7930054
-11.683484 14.500261 6.8349669
-11.75018 14.428025 6.8783919
-11.816076 14.355087 6.9234156
-11.880936 14.280996 6.9702027
-11.944515 14.205262 7.0189307
-12.006546 14.127389 7.0697688
-12.066734 14.046901 7.122854
-12.124752 13.963375 7.1782695
-12.180245 13.876473 7.2360268
-12.232849 13.785961 7.2960551
-12.282213 13.691728 7.3581969
-12.328022 13.593794 7.4222116
-12.370034 13.492307 7.4877841
-12.4081 13.387542 7.5545383
-12.442184 13.279879 7.6220522
-12.472376 13.169789 7.6898752
-12.498886 13.057801 7.7575447
-12.522036 12.944476 7.8246027
-12.542243 12.830365 7.8906133
-12.55999 12.71598 7.9551776
-12.575804 12.60175 8.017949
-12.590228 12.487999 8.0786455
-12.603796 12.374919 8.1370576
-12.617015 12.26257 8.1930516
-12.630347 12.15088 8.2465656
-12.6442 12.039673 8.2975989
-12.658916 11.928697 8.346195
-12.674773 11.817677 8.392421
-12.691977 11.706347 8.4363443
-12.710668 11.594501 8.4780122
-12.730922 11.482023 8.5174348
-12.752756 11.368898 8.5545753
-12.776137 11.255227 8.5893482
-12.80099 11.141206 8.6216243
-12.827214 11.027109 8.6512426
-12.854685 10.913256 8.6780265
-12.883273 10.799983 8.7018013
-12.912849 10.687607 8.7224115
-12.943289 10.576406 8.7397353
-12.974483 10.4666 8.7536959
-13.006335 10.358339 8.7642686
-13.038759 10.251707 8.7714849
-13.071685 10.146723 8.775432
-13.105045 10.043353 8.7762511
-13.138779 9.941518 8.7741329
-13.172824 9.8411053 8.7693116
-13.207116 9.7419791 8.7620571
-13.241587 9.6439874 8.7526663
-13.276159 9.5469675 8.7414526
-13.310752 9.4507506 8.7287347
-13.345275 9.3551652 8.714825
-13.379636 9.2600411 8.7000181
-13.413734 9.1652141 8.6845805
-13.447464 9.070533 8.6687423
-13.480715 8.975867 8.6526915
-13.513373 8.8811142 8.636571
-13.545313 8.7862087 8.6204784
-13.576407 8.6911257 8.6044694
-13.606522 8.5958809 8.5885617
-13.635523 8.5005265 8.5727418
-13.66328 8.40514 8.556972
-13.689674 8.3098094 8.5411978
-13.714603 8.2146151 8.5253546
-13.737993 8.119612 8.5093753
-13.759805 8.0248141 8.4931961
-13.780033 7.9301828 8.4767618
-13.798713 7.8356226 8.4600314
-13.815913 7.7409813 8.4429808
-13.831735 7.646057 8.425606
-13.8463 7.5506089 8.4079237
-13.859745 7.4543703 8.389971
-13.872213 7.3570638 8.3718028
-13.883843 7.2584158 8.3534887
-13.89477 7.1581718 8.335108
-13.905119 7.0561105 8.3167447
-13.915007 6.9520575 8.2984826
-13.924546 6.8458976 8.2804006
-13.933841 6.7375849 8.2625699
-13.942997 6.627149 8.2450521
-13.952123 6.5146959 8.2278992
-13.961327 6.4004024 8.2111559
-13.970721 6.2845033 8.1948625
-13.980418 6.1672722 8.1790592
-13.990524 6.0489973 8.1637911
-14.001141 5.9299546 8.1491128
-14.012352 5.8103828 8.1350918
-14.024225 5.6904618 8.1218108
-14.036799 5.570299 8.1093677
-14.050089 5.4499244 8.0978728
-14.064075 5.3292962 8.0874441
-14.078711 5.2083155 8.0782
-14.09392 5.0868485 8.0702507
-14.109603 4.9647536 8.0636892
-14.125643 4.84191 8.0585827
-14.141913 4.718244 8.0549654
-14.158286 4.5937495 8.0528348
-14.174638 4.4685008 8.0521499
-14.190864 4.3426555 8.0528341
-14.206875 4.2164473 8.0547802
-14.222609 4.09017 8.0578587
-14.238033 3.9641552 8.0619275
-14.253141 3.838745 8.066842
-14.267953 3.7142655 8.0724651
-14.282514 3.5910012 8.0786758
-14.296886 3.4691752 8.0853757
-14.311146 3.3489343 8.0924935
-14.325379 3.230341 8.0999858
-14.339673 3.1133714 8.1078369
-14.354116 2.9979182 8.1160552
-14.368794 2.8837983 8.1246685
-14.383789 2.7707624 8.1337175
-14.39918 2.6585089 8.1432496
-14.415042 2.5466983 8.1533115
-14.431448 2.4349702 8.1639436
-14.448466 2.3229617 8.175175
-14.466163 2.2103266 8.1870195
-14.484597 2.0967549 8.1994742
-14.503816 1.9819923 8.2125185
-14.523854 1.8658567 8.2261156
-14.544724 1.7482523 8.2402139
-14.566414 1.629177 8.2547507
-14.588886 1.5087245 8.2696548
-14.612074 1.3870772 8.2848507
-14.635887 1.2644917 8.3002621
-14.660213 1.1412764 8.3158158
-14.68493 1.0177628 8.3314449
-14.709911 0.89427394 8.3470921
-14.73504 0.77109361 8.3627117
-14.760216 0.64843966 8.3782714
-14.785364 0.52644601 8.3937526
-14.81044 0.40515593 8.4091495
-14.835433 0.28452805 8.4244669
-14.860356 0.1644549 8.4397169
-14.88525 0.044791285 8.4549148
-14.910166 -0.074611157 8.4700748
-14.93516 -0.19386865 8.4852054
-14.96028 -0.31303449 8.5003063
-14.985562 -0.43207776 8.5153666
-15.011021 -0.55087504 8.5303641
-15.036647 -0.66921673 8.5452668
-15.062414 -0.78682738 8.5600367
-15.088275 -0.90339715 8.5746338
-15.114177 -1.0186201 8.5890215
-15.140063 -1.132234 8.6031723
-15.165886 -1.2440552 8.6170724
-15.191612 -1.3540061 8.6307258
-15.217227 -1.4621286 8.6441565
-15.24274 -1.5685858 8.6574096
-15.268184 -1.6736504 8.6705506
-15.293609 -1.7776823 8.6836641
-15.319085 -1.8811011 8.6968507
-15.344688 -1.9843557 8.7102241
-15.3705 -2.0878964 8.7239081
-15.396603 -2.1921527 8.738033
-15.423067 -2.2975178 8.7527327
-15.449956 -2.4043411 8.7681411
-15.477316 -2.5129279 8.7843886
-15.505177 -2.6235417 8.8015986
-15.533552 -2.7364095 8.8198828
-15.562436 -2.8517239 8.8393367
-15.591805 -2.9696426 8.8600347
-15.621622 -3.0902821 8.8820251
-15.651829 -3.2137078 8.9053264
-15.682358 -3.3399204 8.9299236
-15.713129 -3.4688434 8.955767
-15.744054 -3.6003135 8.9827727
-15.775042 -3.7340764 9.0108253
-15.806005 -3.8697931 9.0397829
-15.836863 -4.0070531 9.0694845
-15.867547 -4.1453989 9.0997581
-15.898009 -4.2843554 9.130431
-15.928218 -4.4234636 9.1613389
-15.958169 -4.5623142 9.1923349
-15.987878 -4.7005757 9.223297
-16.017385 -4.838016 9.2541326
-16.046748 -4.9745131 9.2847809
-16.076038 -5.1100541 9.3152122
-16.105339 -5.2447241 9.3454239
-16.134738 -5.3786852 9.3754354
-16.164326 -5.5121482 9.4052799
-16.194187 -5.6453422 9.4349967
-16.224402 -5.7784822 9.4646231
-16.255037 -5.911742 9.4941868
-16.286147 -6.0452321 9.5237009
-16.317775 -6.1789867 9.5531604
-16.349947 -6.3129608 9.5825417
-16.382675 -6.4470366 9.6118042
-16.415957 -6.5810392 9.6408942
-16.449785 -6.7147593 9.6697502
-16.48414 -6.8479793 9.6983097
-16.519001 -6.9805007 9.7265154
-16.554346 -7.1121681 9.7543212
-16.590156 -7.2428878 9.7816969
-16.626414 -7.3726389 9.8086312
-16.663106 -7.5014739 9.8351324
-16.70022 -7.6295114 9.8612281
-16.737743 -7.7569176 9.8869622
-16.775654 -7.8838826 9.9123911
-16.813925 -8.0105901 9.9375789
-16.852509 -8.137187 9.9625927
-16.891344 -8.2637555 9.9874982
-16.930349 -8.390292 10.012357
-16.969425 -8.5166965 10.037225
-17.008461 -8.642776 10.062155
-17.047349 -8.7682616 10.087199
-17.085987 -8.8928382 10.112414
-17.124301 -9.0161841 10.137867
-17.162253 -9.1380127 10.163641
-17.199859 -9.2581123 10.189839
-17.237189 -9.3763751 10.216579
-17.274374 -9.4928114 10.243995
-17.3116 -9.6075452 10.272227
-17.349095 -9.7207916 10.301409
-17.387117 -9.8328202 10.331656
-17.425928 -9.9439082 10.363055
-17.46578 -10.054292 10.395649
-17.506895 -10.164127 10.42944
-17.549449 -10.273456 10.464381
-17.593563 -10.382195 10.500388
-17.639304 -10.490144 10.537348
-17.686681 -10.597 10.575135
-17.735654 -10.702393 10.613619
-17.786142 -10.805926 10.652686
-17.838027 -10.907207 10.692243
-17.891163 -11.005884 10.732226
-17.945381 -11.101661 10.772601
-18.000491 -11.194313 10.813357
-18.056283 -11.283681 10.854509
-18.112528 -11.369662 10.89609
-18.168988 -11.452199 10.93815
-18.225416 -11.531265 10.980754
-18.281568 -11.606848 11.023992
-18.337218 -11.67895 11.067977
-18.392162 -11.74758 11.112856
-18.44624 -11.812754 11.158811
-18.499332 -11.874499 11.206061
-18.551369 -11.932858 11.254856
-18.602329 -11.987885 11.305468
-18.652224 -12.039648 11.358175
-18.701096 -12.088219 11.413242
-18.74899 -12.13367 11.470906
-18.79595 -12.176062 11.531354
-18.841995 -12.215439 11.594712
-18.887111 -12.251819 11.661035
-18.931241 -12.285198 11.730308
-18.974283 -12.315546 11.802443
-19.01609 -12.342816 11.877293
-19.056481 -12.366956 11.954662
-19.095245 -12.387916 12.03432
-19.132164 -12.405661 12.116015
-19.167025 -12.420187 12.199491
-19.199645 -12.431529 12.28449
-19.229892 -12.439771 12.370768
-19.257708 -12.445055 12.458089
-19.283128 -12.447586 12.546235
-19.306297 -12.447632 12.634992
-19.327483 -12.445524 12.724157
-19.347076 -12.441653 12.813528
-19.365592 -12.43646 12.902905
-19.383655 -12.430424 12.99209
-19.401981 -12.424047 13.080887
-19.421354 -12.417833 13.169108
-19.442594 -12.41227 13.256576
-19.466527 -12.407808 13.343129
-19.493953 -12.404838 13.428618
-19.525615 -12.403675 13.512905
-19.562167 -12.404545 13.595859
-19.604153 -12.407572 13.677344
-19.651989 -12.412776 13.757216
-19.705944 -12.420066 13.835307
-19.766138 -12.429246 13.911422
-19.832539 -12.440021 13.985336
-19.904968 -12.452006 14.056798
-19.983117 -12.464737 14.125534
-20.066559 -12.477694 14.191254
-20.154775 -12.490314 14.253669
-20.24717 -12.502014 14.312496
-20.343102 -12.512215 14.367471
-20.441901 -12.52036 14.418355
-20.542888 -12.525939 14.464942
-20.645398 -12.528503 14.507064
-20.748796 -12.527685 14.544592
-20.852496 -12.523206 14.577439
-20.955972 -12.514881 14.605571
-21.058782 -12.502627 14.629006
-21.160575 -12.486451 14.647823
-21.261103 -12.466453 14.662167
-21.360227 -12.442812 14.672259
-21.457914 -12.415776 14.678391
-21.554229 -12.385649 14.68093
-21.649324 -12.352782 14.68031
-21.74341 -12.317556 14.67702
-21.836744 -12.280376 14.671588
-21.929594 -12.241653 14.664564
-22.022227 -12.201799 14.656495
-22.114888 -12.161214 14.647908
-22.207789 -12.12028 14.639285
-22.301109 -12.079348 14.631054
-22.394994 -12.038739 14.623572
-22.489563 -11.99873 14.617119
-22.584915 -11.959558 14.611896
-22.68114 -11.921412 14.608028
-22.778315 -11.884435 14.605568
-22.876508 -11.848725 14.604505
-22.975769 -11.814331 14.604773
-23.07612 -11.781262 14.606259
-23.177537 -11.749482 14.60881
-23.279945 -11.71892 14.612244
-23.383199 -11.689467 14.616354
-23.487082 -11.660984 14.620912
-23.591307 -11.633307 14.625678
-23.695524 -11.606252 14.630403
-23.79934 -11.579622 14.63483
-23.90234 -11.553215 14.638702
-24.004118 -11.52683 14.641763
-24.104302 -11.500278 14.64376
-24.20258 -11.473385 14.644448
-24.29872 -11.445997 14.643584
-24.392582 -11.417993 14.640933
-24.484118 -11.389279 14.636263
-24.573365 -11.359803 14.629343
-24.660425 -11.329551 14.619948
-24.745442 -11.298559 14.607853
-24.828572 -11.26691 14.592841
-24.909957 -11.234741 14.574705
-24.989699 -11.202241 14.553261
-25.067841 -11.169647 14.528351
-25.144364 -11.137236 14.499854
-25.219182 -11.105313 14.467694
-25.292162 -11.074194 14.431841
-25.363141 -11.044185 14.392317
-25.431952 -11.015563 14.349184
-25.498452 -10.988557 14.30254
-25.562542 -10.963334 14.252505
-25.624189 -10.939989 14.199208
-25.683435 -10.918543 14.142771
-25.740394 -10.898947 14.083302
-25.795243 -10.881094 14.020885
-25.848212 -10.864828 13.955579
-25.899561 -10.849962 13.887421
-25.949559 -10.836288 13.816433
-25.998469 -10.823591 13.742633
-26.046528 -10.811653 13.666043
-26.093943 -10.800257 13.586709
-26.140874 -10.789182 13.504702
-26.187443 -10.778206 13.420136
-26.233727 -10.767093 13.333164
-26.279765 -10.755601 13.243985
-26.325561 -10.743476 13.152838
-26.371092 -10.730456 13.060003
-26.416306 -10.716284 12.96579
-26.461135 -10.700716 12.870534
-26.505493 -10.683534 12.774588
-26.549281 -10.664561 12.678316
-26.592394 -10.643668 12.582086
-26.634721 -10.62078 12.486266
-26.676154 -10.595879 12.391209
-26.71659 -10.568996 12.29725
-26.75594 -10.540202 12.204687
-26.794134 -10.509592 12.113772
-26.831124 -10.477276 12.024697
-26.866892 -10.443358 11.937588
-26.901446 -10.407933 11.852497
-26.934819 -10.371078 11.769411
-26.967066 -10.332855 11.688261
-26.998256 -10.293314 11.608944
-27.028466 -10.252501 11.531344
-27.05777 -10.210463 11.455354
-27.086242 -10.167258 11.3809
-27.113945 -10.122953 11.307949
-27.140938 -10.077624 11.236512
-27.167274 -10.031348 11.16664
-27.193005 -9.9841989 11.098411
-27.218187 -9.9362342 11.031911
-27.242881 -9.8874929 10.967215
-27.267153 -9.8379914 10.904375
-27.291073 -9.7877249 10.843409
-27.314709 -9.7366728 10.784301
-27.338124 -9.6848055 10.727003
-27.361367 -9.6320921 10.671445
-27.384471 -9.5785063 10.617543
-27.407451 -9.5240283 10.565211
-27.430301 -9.4686437 10.514362
-27.453 -9.4123382 10.464914
-27.475517 -9.35509 10.416788
-27.497814 -9.2968613 10.369896
-27.519856 -9.2375915 10.324143
-27.541615 -9.177192 10.279417
-27.563075 -9.1155456 10.235585
-27.584234 -9.0525094 10.192496
-27.605105 -8.987921 10.149986
-27.625715 -8.9216075 10.107879
-27.646101 -8.8533958 10.066001
-27.666307 -8.7831236 10.024188
-27.68638 -8.7106497 9.9822943
-27.706364 -8.635863 9.9402016
-27.726297 -8.5586901 9.8978229
-27.746207 -8.4791005 9.8551075
-27.766107 -8.3971098 9.8120423
-27.785995 -8.3127799 9.7686528
-27.805848 -8.2262166 9.7250024
-27.825621 -8.1375645 9.6811917
-27.845251 -8.0469992 9.6373567
-27.864646 -7.9547172 9.5936674
-27.883694 -7.8609228 9.5503239
-27.90226 -7.7658156 9.5075527
-27.920192 -7.6695758 9.4655994
-27.937317 -7.5723522 9.4247201
-27.953458 -7.4742515 9.3851701
-27.968432 -7.3753318 9.3471913
-27.98206 -7.2756009 9.3109984
-27.99418 -7.1750198 9.2767665
-28.004646 -7.0735117 9.2446213
-28.013343 -6.9709752 9.2146322
-28.020186 -6.8673003 9.1868114
-28.025121 -6.7623848 9.1611174
-28.028125 -6.6561481 9.1374638
-28.029204 -6.548541 9.115731
-28.028386 -6.4395494 9.0957806
-28.025712 -6.3291917 9.0774691
-28.021237 -6.2175099 9.0606598
-28.01502 -6.1045581 9.0452316
-28.007125 -5.9903883 9.0310841
-27.997616 -5.8750391 9.0181377
-27.986564 -5.7585275 9.0063313
-27.974045 -5.6408463 8.9956167
-27.960141 -5.5219683 8.9859529
-27.944951 -5.4018546 8.9772995
-27.928581 -5.2804684 8.9696122
-27.911152 -5.1577895 8.9628393
-27.892792 -5.0338298 8.9569208
-27.873634 -4.9086463 8.9517889
-27.853813 -4.7823519 8.9473698
-27.833454 -4.6551217 8.9435868
-27.812675 -4.5271951 8.9403631
-27.791572 -4.3988733 8.9376249
-27.770225 -4.270512 8.9353042
-27.74869 -4.1425095 8.9333407
-27.727001 -4.0152896 8.9316834
-27.705171 -3.889281 8.930292
-27.683193 -3.7648938 8.9291376
-27.661052 -3.6424945 8.9282036
-27.638721 -3.522382 8.9274861
-27.616177 -3.4047675 8.9269945
-27.593403 -3.2897601 8.9267509
-27.570398 -3.1773604 8.9267903
-27.547181 -3.067464 8.9271589
-27.523795 -2.9598742 8.927912
-27.50031 -2.8543238 8.9291111
-27.47682 -2.7505032 8.9308194
-27.453439 -2.6480919 8.9330974
-27.430293 -2.5467896 8.935997
-27.407509 -2.4463441 8.939556
-27.38521 -2.3465711 8.9437934
-27.363497 -2.2473653 8.9487057
-27.342446 -2.1487017 8.9542638
-27.322098 -2.0506269 8.9604136
-27.302455 -1.9532426 8.9670771
-27.283484 -1.856684 8.9741563
-27.265113 -1.7610955 8.9815389
-27.247243 -1.6666076 8.9891049
-27.229752 -1.5733166 8.9967336
-27.212507 -1.4812702 9.004312
-27.195374 -1.3904583 9.0117408
-27.178226 -1.3008115 9.0189411
-27.160952 -1.2122045 9.0258582
-27.143464 -1.1244647 9.0324655
-27.125702 -1.0373829 9.0387651
-27.107637 -0.95072592 9.0447875
-27.089267 -0.86424776 9.05059
-27.070621 -0.77769852 9.056253
-27.051751 -0.69083031 9.0618759
-27.032725 -0.60339948 9.067572
-27.01362 -0.51516569 9.0734623
-26.994517 -0.42588898 9.0796702
-26.975491 -0.33532634 9.0863149
-26.956601 -0.24322973 9.0935055
-26.937891 -0.14934745 9.1013347
-26.91938 -0.053430454 9.1098718
-26.901061 0.044755594 9.119156
-26.882902 0.14541251 9.1291895
-26.864845 0.24868738 9.1399304
-26.846812 0.35464856 9.151287
-26.828703 0.46326326 9.1631138
-26.810405 0.57438115 9.1752105
-26.791798 0.68772792 9.187325
-26.772756 0.80291212 9.1991606
-26.753154 0.91944677 9.2103891
-26.732872 1.036785 9.2206666
-26.711796 1.1543663 9.2296532
-26.689823 1.2716688 9.2370337
-26.666858 1.3882593 9.2425377
-26.642818 1.5038355 9.2459561
-26.617629 1.6182539 9.2471543
-26.591231 1.731538 9.2460788
-26.56358 1.8438686 9.2427582
-26.534646 1.9555537 9.2372995
-26.504425 2.0669861 9.2298778
-26.472935 2.1785923 9.2207249
-26.440225 2.2907801 9.2101141
-26.406376 2.4038913 9.1983449
-26.371502 2.5181655 9.1857283
-26.335746 2.6337177 9.1725731
-26.299279 2.750531 9.159173
-26.262292 2.868466 9.145797
-26.224984 2.9872816 9.1326807
-26.187553 3.1066674 9.1200202
-26.150183 3.2262801 9.107968
-26.113033 3.3457828 9.0966312
-26.076232 3.4648796 9.0860714
-26.039864 3.5833446 9.0763069
-26.003971 3.7010419 9.0673161
-25.968554 3.8179335 9.0590433
-25.933571 3.9340791 9.0514035
-25.898952 4.0496242 9.0442901
-25.864601 4.1647842 9.0375805
-25.830409 4.2798229 9.0311425
-25.796263 4.3950319 9.0248395
-25.762051 4.5107109 9.0185351
-25.727671 4.6271519 9.0120965
-25.693035 4.744626 9.0053978
-25.658066 4.8633729 8.9983226
-25.622707 4.983591 8.990766
-25.586914 5.1054263 8.9826374
-25.550663 5.2289599 8.973863
-25.513948 5.3541932 8.9643881
-25.476788 5.4810332 8.9541796
-25.439222 5.6092802 8.9432274
-25.401317 5.7386209 8.9315446
-25.363167 5.8686302 8.9191674
-25.324888 5.9987837 8.906152
-25.286612 6.1284815 8.8925706
-25.248484 6.2570816 8.8785066
-25.21065 6.3839406 8.8640479
-25.173245 6.5084567 8.8492811
-25.136384 6.6301104 8.8342852
-25.100153 6.7484987 8.819127
-25.064604 6.8633587 8.8038572
-25.029749 6.9745797 8.7885088
-24.995563 7.0822021 8.7730968
-24.961984 7.1864058 8.7576194
-24.928922 7.2874905 8.7420601
-24.896262 7.3858486 8.7263917
-24.863875 7.4819369 8.7105796
-24.831628 7.576247 8.6945858
-24.799388 7.6692769 8.6783739
-24.767036 7.7615057 8.6619121
-24.734466 7.8533712 8.6451774
-24.701603 7.9452513 8.6281587
-24.668394 8.0374497 8.6108584
-24.634823 8.1301858 8.5932941
-24.600903 8.2235892 8.5754979
-24.566679 8.3176993 8.5575151
-24.532224 8.412469 8.5394008
-24.497632 8.5077725 8.5212158
-24.463011 8.6034162 8.5030213
-24.428476 8.6991519 8.4848731
-24.394141 8.7946914 8.4668153
-24.360108 8.8897214 8.448875
-24.326459 8.9839199 8.4310565
-24.293251 9.0769721 8.4133379
-24.260507 9.1685867 8.3956676
-24.228213 9.2585122 8.3779632
-24.196311 9.3465512 8.3601127
-24.164703 9.4325727 8.3419778
-24.133246 9.5165205 8.3234001
-24.101762 9.5984156 8.3042103
-24.070044 9.678352 8.2842411
-24.037864 9.7564867 8.2633413
-24.004984 9.8330232 8.2413929
-23.971172 9.908191 8.2183272
-23.936209 9.9822246 8.1941406
-23.899901 10.055343 8.1689064
-23.862085 10.127731 8.1427817
-23.822634 10.199533 8.116008
-23.781458 10.270844 8.0889036
-23.738506 10.341711 8.0618481
-23.693765 10.412142 8.0352593
-23.647263 10.482114 8.0095639
-23.599067 10.551588 7.9851642
-23.549287 10.62052 7.962404
-23.498074 10.688875 7.9415376
-23.44562 10.756638 7.922705
-23.392153 10.823825 7.9059166
-23.337925 10.890491 7.8910511
-23.283203 10.956737 7.8778646
-23.228253 11.022714 7.8660134
-23.173323 11.088619 7.8550858
-23.118627 11.154694 7.8446402
-23.064344 11.221219 7.8342453
-23.010607 11.288494 7.8235169
-22.957513 11.356821 7.8121478
-22.905135 11.426487 7.7999285
-22.853536 11.49774 7.7867554
-22.802786 11.570762 7.7726289
-22.752978 11.645658 7.7576408
-22.704239 11.722436 7.7419539
-22.656727 11.801005 7.725778
-22.61063 11.881178 7.7093435
-22.566147 11.962681 7.6928763
-22.523468 12.045177 7.6765769
-22.482758 12.128287 7.660604
-22.444125 12.211618 7.6450642
-22.407613 12.294793 7.6300081
-22.373185 12.377469 7.6154315
-22.340721 12.459361 7.6012807
-22.310025 12.54025 7.587462
-22.280835 12.619995 7.5738514
-22.252836 12.69853 7.5603058
-22.225686 12.775865 7.5466732
-22.199026 12.85208 7.5328017
-22.172504 12.927315 7.5185471
-22.145789 13.001759 7.5037787
-22.118583 13.075642 7.4883844
-22.090633 13.149211 7.4722745
-22.061736 13.222721 7.4553843
-22.031744 13.296416 7.437676
-22.000563 13.370511 7.4191393
-21.968154 13.445183 7.3997904
-21.934525 13.520564 7.3796693
-21.899719 13.596743 7.3588347
-21.863805 13.673774 7.3373575
-21.826863 13.75169 7.3153119
-21.788966 13.830522 7.2927669
-21.750162 13.910322 7.2697764
-21.710466 13.991181 7.2463714
-21.669842 14.073241 7.2225536
-21.628201 14.156708 7.1982926
-21.585401 14.241847 7.1735252
-21.541253 14.32897 7.1481607
-21.495534 14.418414 7.1220878
-21.448007 14.510512 7.0951863
-21.398445 14.605556 7.06734
-21.346655 14.703758 7.0384512
-21.292508 14.805224 7.0084543
-21.235954 14.909919 6.9773262
-21.177041 15.017661 6.9450944
-21.115916 15.128121 6.9118383
-21.052826 15.240838 6.8776861
-20.988095 15.355257 6.8428061
-20.922108 15.470768 6.8073943
-20.855279 15.586753 6.7716582
-20.788024 15.702631 6.7358019
-20.720728 15.817896 6.7000114
-20.653732 15.932143 6.6644436
-20.58731 16.045075 6.6292194
-20.521674 16.156499 6.5944216
-20.456973 16.266312 6.5600965
-20.393306 16.374471 6.526259
-20.330737 16.480974 6.4928983
-20.269309 16.585829 6.4599849
-20.209062 16.689041 6.4274743
-20.150031 16.790605 6.3953101
-20.092255 16.890504 6.363424
-20.03577 16.988719 6.3317337
-19.980594 17.085244 6.30014
-19.926718 17.180094 6.2685252
-19.874094 17.27332 6.2367525
-19.822622 17.365007 6.2046694
-19.772147 17.455273 6.1721147
-19.722468 17.544252 6.1389298
-19.673347 17.632079 6.1049722
-19.624529 17.718863 6.070131
-19.575767 17.804665 6.0343418
-19.526846 17.889484 5.9975974
-19.477606 17.973243 5.9599556
-19.427959 18.055787 5.9215383
-19.377897 18.136901 5.8825256
-19.327492 18.216323 5.8431421
-19.276881 18.293778 5.8036386
-19.226249 18.369007 5.7642705
-19.175804 18.441799 5.7252754
-19.125745 18.512018 5.6868527
-19.076238 18.579623 5.6491469
-19.027394 18.644678 5.6122372
-18.979247 18.707351 5.5761323
-18.93175 18.767902 5.540773
-18.884774 18.826669 5.5060396
-18.838119 18.884044 5.471765
-18.79153 18.94045 5.4377498
-18.744719 18.996316 5.4037804
-18.697395 19.052059 5.3696462
-18.649285 19.108062 5.335156
-18.600166 19.164665 5.3001515
-18.54988 19.222152 5.2645182
-18.49835 19.280749 5.2281908
-18.445584 19.340621 5.1911556
-18.391676 19.401871 5.153447
-18.336793 19.464548 5.1151417
-18.281154 19.52865 5.076349
-18.225016 19.594129 5.0372002
-18.168646 19.660901 4.9978375
-18.1123 19.728846 4.958404
-18.056202 19.797818 4.9190361
-18.00053 19.86765 4.8798582
-17.945409 19.938157 4.8409797
-17.890899 20.009145 4.8024947
-17.836996 20.080417 4.7644813
-17.783634 20.151789 4.727003
-17.730678 20.223102 4.6901072
-17.677934 20.294238 4.6538242
-17.625143 20.365139 4.6181647
-17.571986 20.435814 4.5831169
-17.518092 20.506353 4.5486444
-17.46304 20.576927 4.5146864
-17.406381 20.647775 4.4811608
-17.347651 20.71919 4.4479701
-17.286401 20.791487 4.415012
-17.222224 20.864972 4.382191
-17.154782 20.939908 4.3494318
-17.083832 21.016477 4.3166913
-17.009249 21.094754 4.2839672
-16.93103 21.174695 4.2513021
-16.8493 21.256127 4.2187818
-16.764294 21.33876 4.1865285
-16.67634 21.422205 4.1546886
-16.58583 21.506004 4.1234181
-16.493189 21.58966 4.0928673
-16.398845 21.672671 4.0631668
-16.303204 21.754558 4.0344167
-16.206628 21.834888 4.00668
-16.109427 21.913291 3.9799814
-16.011854 21.989461 3.95431
-15.914109 22.063163 3.9296259
-15.816348 22.134224 3.9058695
-15.718697 22.202526 3.8829709
-15.621264 22.267995 3.8608606
-15.524151 22.330597 3.8394778
-15.427462 22.390328 3.8187775
-15.331303 22.44721 3.7987357
-15.235787 22.501294 3.7793519
-15.141016 22.552661 3.7606501
-15.047076 22.601423 3.7426771
-14.954013 22.647734 3.7254996
-14.861823 22.691788 3.7091997
-14.770427 22.733827 3.6938691
-14.679667 22.774141 3.6796025
-14.589295 22.813063 3.6664912
-14.498982 22.850965 3.6546154
-14.408327 22.888243 3.6440388
-14.316883 22.925306 3.6348035
-14.224187 22.962555 3.6269257
-14.129792 23.000366 3.6203945
-14.033307 23.039063 3.6151718
-13.934425 23.078909 3.611194
-13.832954 23.120084 3.6083751
-13.728834 23.162674 3.6066115
-13.622143 23.206676 3.6057868
-13.513099 23.251994 3.6057768
-13.402045 23.298454 3.606455
-13.289432 23.345828 3.6076965
-13.175793 23.393852 3.6093823
-13.061716 23.442263 3.611402
-12.947808 23.490823 3.6136559
-12.83467 23.539354 3.6160564
-12.722862 23.587754 3.618529
-12.612883 23.636014 3.6210123
-12.505144 23.684221 3.6234577
-12.399955 23.732549 3.625829
-12.297516 23.781243 3.6281012
-12.197909 23.830592 3.6302599
-12.101101 23.880897 3.6322998
-12.006952 23.932445 3.6342237
-11.915217 23.985473 3.6360415
-11.825565 24.040153 3.6377694
-11.737584 24.096577 3.6394285
-11.650794 24.154754 3.6410447
-11.56466 24.214616 3.6426475
-11.478601 24.276033 3.6442691
-11.392003 24.338832 3.6459439
-11.304231 24.402812 3.6477078
-11.214644 24.46777 3.6495966
-11.122609 24.533512 3.6516459
-11.027519 24.599864 3.6538894
-10.928811 24.666677 3.6563586
-10.825988 24.733824 3.6590814
-10.718629 24.801195 3.6620814
-10.606417 24.868686 3.6653774
-10.489139 24.936185 3.668983
-10.366702 25.003564 3.6729066
-10.239128 25.070672 3.6771514
-10.106546 25.137327 3.6817162
-9.9691831 25.20332 3.6865965
-9.8273402 25.268423 3.691785
-9.6813749 25.332395 3.697273
-9.5316813 25.394996 3.7030511
-9.3786754 25.456004 3.7091089
-9.2227871 25.515224 3.7154356
-9.0644603 25.572501 3.7220184
-8.904159 25.627726 3.7288413
-8.7423774 25.680842 3.7358837
-8.5796502 25.731838 3.7431188
-8.4165587 25.780753 3.750512
-8.2537282 25.827668 3.7580208
-8.0918155 25.872699 3.7655949
-7.9314865 25.915991 3.7731778
-7.7733844 25.957711 3.7807088
-7.6180931 25.998038 3.7881269
-7.4661009 26.037151 3.7953738
-7.3177681 26.075227 3.8023982
-7.1733052 26.112424 3.8091599
-7.032762 26.148873 3.8156318
-6.8960323 26.184674 3.8218033
-6.7628713 26.219885 3.8276799
-6.6329245 26.254525 3.8332833
-6.505766 26.288571 3.8386491
-6.3809395 26.321966 3.8438237
-6.2579998 26.354626 3.8488596
-6.1365489 26.386458 3.8538112
-6.0162639 26.417363 3.8587294
-5.8969141 26.447258 3.8636581
-5.7783661 26.476082 3.8686304
-5.660579 26.503805 3.8736672
-5.5435899 26.53043 3.8787767
-5.4274948 26.555994 3.8839555
-5.3124269 26.58056 3.8891913
-5.1985374 26.604209 3.8944657
-5.0859804 26.627029 3.8997582
-4.9749036 26.649101 3.9050491
-4.8654451 26.670494 3.9103231
-4.7577351 26.691249 3.9155707
-4.6518997 26.711381 3.9207904
-4.5480651 26.730875 3.9259883
-4.4463586 26.749686 3.9311782
-4.3469058 26.767748 3.936381
-4.2498225 26.78498 3.9416235
-4.1552015 26.801291 3.9469372
-4.0630976 26.816593 3.9523571
-3.9735116 26.830804 3.9579202
-3.8863765 26.843855 3.963665
-3.8015501 26.855692 3.9696293
-3.7188143 26.866277 3.9758497
-3.6378827 26.875589 3.9823599
-3.558416 26.88362 3.9891894
-3.4800442 26.890376 3.9963621
-3.402391 26.89587 4.0038955
-3.3251005 26.900125 4.0117992
-3.2478601 26.903169 4.0200749
-3.1704194 26.905035 4.0287155
-3.0926034 26.905765 4.0377056
-3.0143173 26.905406 4.047021
-2.9355466 26.904015 4.0566296
-2.8563487 26.901661 4.0664919
-2.7768415 26.898427 4.0765618
-2.6971862 26.894409 4.0867877
-2.617568 26.889722 4.0971145
-2.5381745 26.884496 4.1074849
-2.459174 26.878875 4.1178422
-2.380695 26.873017 4.1281321
-2.3028079 26.867089 4.1383059
-2.2255128 26.861263 4.1483229
-2.1487329 26.855708 4.1581516
-2.0723159 26.850587 4.1677722
-1.9960435 26.846048 4.1771764
-1.9196485 26.842217 4.1863682
-1.8428371 26.83919 4.1953624
-1.7653146 26.837028 4.2041838
-1.6868114 26.835751 4.2128654
-1.607105 26.835338 4.2214465
-1.5260371 26.835724 4.2299703
-1.4435231 26.836806 4.2384823
-1.3595534 26.838451 4.2470277
-1.274187 26.840504 4.2556489
-1.1875395 26.842808 4.2643835
-1.0997676 26.845216 4.2732618
-1.0110509 26.84761 4.2823041
-0.92157705 26.849912 4.2915192
-0.83152779 26.8521 4.3009026
-0.74107068 26.854211 4.3104356
-0.65035472 26.856338 4.3200858
-0.55951047 26.858627 4.3298076
-0.46865315 26.861258 4.3395448
-0.37788721 26.864429 4.349233
-0.28731088 26.868333 4.3588028
-0.19701893 26.873137 4.3681837
-0.1071029 26.87896 4.3773074
-0.017648343 26.885865 4.3861111
0.071270294 26.893845 4.39454
0.15959598 26.902829 4.4025496
0.24729494 26.912687 4.4101064
0.33436029 26.923242 4.4171888
0.42081195 26.934289 4.4237864
0.5066922 26.945609 4.4298996
0.59205698 26.95699 4.4355377
0.67696395 26.968238 4.4407173
0.76145943 26.979183 4.4454599
0.84556614 26.989691 4.44979
0.92927431 26.999654 4.4537322
1.0125378 27.008997 4.4573092
1.095276 27.017663 4.4605391
1.1773824 27.025613 4.4634342
1.2587374 27.032817 4.4659987
1.3392255 27.039249 4.4682285
1.4187531 27.044881 4.4701099
1.4972668 27.049685 4.471621
1.574768 27.053625 4.4727321
1.6513241 27.056661 4.4734081
1.7270742 27.058743 4.4736109
1.8022297 27.059819 4.4733022
1.8770684 27.059828 4.4724472
1.9519246 27.058703 4.4710177
2.0271737 27.056373 4.4689945
2.1032131 27.052767 4.4663701
2.180442 27.047811 4.4631493
2.259238 27.041437 4.4593504
2.3399349 27.033585 4.4550038
2.4228016 27.02421 4.450151
2.5080233 27.013285 4.4448427
2.5956872 27.000805 4.4391358
2.6857736 26.986797 4.4330911
2.7781543 26.971318 4.4267706
2.8725988 26.95446 4.4202342
2.9687882 26.936347 4.4135376
3.0663371 26.917134 4.406729
3.1648214 26.897005 4.399847
3.2638088 26.876161 4.3929184
3.3628898 26.854818 4.3859558
3.4617041 26.833194 4.3789571
3.5599608 26.811502 4.3719051
3.6574492 26.78994 4.364768
3.7540394 26.768684 4.3575017
3.8496749 26.747878 4.3500528
3.9443574 26.727626 4.342363
4.0381282 26.707992 4.3343734
4.1310504 26.688992 4.3260294
4.223193 26.670593 4.3172854
4.3146208 26.652722 4.308108
4.4053903 26.635264 4.2984785
4.4955506 26.618077 4.2883941
4.5851497 26.600999 4.2778672
4.6742421 26.583866 4.2669242
4.7628969 26.566523 4.2556026
4.851204 26.548836 4.2439488
4.9392777 26.530709 4.232015
5.0272575 26.512083 4.2198564
5.1153052 26.492946 4.2075293
5.2036009 26.473329 4.1950894
5.2923376 26.453296 4.1825902
5.3817155 26.432941 4.1700827
5.4719362 26.41237 4.1576138
5.5631972 26.391688 4.1452263
5.655686 26.370989 4.1329577
5.7495734 26.35034 4.1208399
5.8450058 26.329772 4.108899
5.9420972 26.309278 4.0971555
6.0409216 26.288809 4.0856243
6.1415064 26.268272 4.074316
6.2438299 26.247538 4.0632381
6.3478221 26.226448 4.0523956
6.4533713 26.204815 4.0417931
6.5603347 26.182438 4.0314352
6.6685532 26.159102 4.0213277
6.7778671 26.134593 4.0114784
6.8881319 26.108697 4.0018973
6.9992296 26.081208 3.9925979
7.1110763 26.051934 3.9835967
7.2236228 26.0207 3.9749145
7.3368507 25.987349 3.9665765
7.450762 25.951748 3.9586124
7.5653677 25.913785 3.9510558
7.6806749 25.873377 3.9439435
7.7966744 25.830463 3.9373135
7.9133321 25.785014 3.9312031
8.0305834 25.73703 3.9256456
8.1483307 25.686545 3.9206679
8.2664447 25.63363 3.9162873
8.3847688 25.5784 3.9125098
8.5031252 25.521017 3.9093281
8.6213235 25.461692 3.9067218
8.7391707 25.400684 3.9046574
8.8564828 25.338302 3.9030905
8.9730971 25.274892 3.9019672
9.0888845 25.210828 3.9012278
9.2037609 25.146502 3.9008093
9.3176958 25.082301 3.9006483
9.4307175 25.018592 3.9006844
9.5429137 24.955709 3.9008623
9.6544265 24.893929 3.9011333
9.7654433 24.833467 3.9014572
9.8761827 24.774466 3.9018022
9.9868768 24.716988 3.9021455
10.097752 24.661022 3.9024723
10.209009 24.606485 3.9027752
10.320803 24.553238 3.9030529
10.433227 24.501098 3.9033089
10.546295 24.449861 3.9035507
10.659937 24.399322 3.9037893
10.773996 24.349294 3.9040384
10.888233 24.299626 3.9043157
11.002342 24.250216 3.904643
11.115974 24.201017 3.9050478
11.228764 24.152035 3.9055647
11.340374 24.103325 3.9062374
11.450523 24.054973 3.9071192
11.559026 24.007085 3.9082744
11.665825 23.959764 3.9097776
11.771003 23.913094 3.9117129
11.874796 23.867124 3.9141713
11.977577 23.821856 3.9172473
12.079837 23.77724 3.9210338
12.182143 23.733172 3.9256177
12.285089 23.6895 3.9310734
12.389242 23.646031 3.9374579
12.495087 23.602544 3.9448066
12.602983 23.558808 3.9531297
12.713124 23.514586 3.9624112
12.825524 23.469658 3.9726095
12.940011 23.423823 3.9836594
13.056245 23.376911 3.995476
13.17375 23.328783 4.0079593
13.291945 23.279336 4.0209987
13.410194 23.228504 4.0344783
13.527839 23.176254 4.04828
13.64424 23.122595 4.0622869
13.758801 23.067566 4.0763851
13.870987 23.011245 4.0904649
13.980334 22.953738 4.1044218
14.086461 22.895175 4.118157
14.189069 22.835702 4.131579
14.287946 22.775462 4.1446049
14.382968 22.714581 4.1571627
14.474103 22.65315 4.1691937
14.561412 22.591207 4.1806543
14.645047 22.528724 4.1915184
14.725247 22.465597 4.2017778
14.802323 22.401642 4.2114423
14.876644 22.336607 4.2205379
14.948614 22.270179 4.2291048
15.018643 22.202005 4.2371935
15.087125 22.131718 4.2448615
15.154411 22.058963 4.2521694
15.220788 21.98342 4.2591771
15.286464 21.904831 4.2659408
15.351558 21.823017 4.2725114
15.416105 21.73789 4.2789326
15.480058 21.649455 4.2852407
15.543303 21.557808 4.2914649
15.605679 21.463116 4.2976287
15.667003 21.365604 4.3037509
15.727087 21.265522 4.3098482
15.785769 21.16312 4.3159372
15.842932 21.058622 4.322037
15.898516 20.952205 4.3281718
15.952532 20.843986 4.3343733
16.005061 20.734019 4.3406831
16.05625 20.622312 4.3471551
16.106299 20.508837 4.3538568
16.155444 20.393566 4.3608709
16.203938 20.276497 4.3682958
16.252027 20.157682 4.3762452
16.299935 20.037253 4.3848462
16.347848 19.915434 4.3942369
16.395908 19.792543 4.4045615
16.444206 19.668984 4.4159651
16.492793 19.545225 4.4285865
16.541682 19.421772 4.4425511
16.590868 19.299132 4.4579642
16.640338 19.177785 4.4749044
16.690089 19.058149 4.4934194
16.740141 18.940561 4.5135237
16.790544 18.825259 4.5351988
16.841384 18.712377 4.5583949
16.89278 18.601954 4.5830359
16.94488 18.493948 4.6090239
16.997846 18.388252 4.6362455
17.051841 18.284723 4.6645773
17.107011 18.183202 4.6938906
17.163472 18.083537 4.7240559
17.221292 17.985593 4.7549461
17.280487 17.889267 4.7864386
17.341016 17.794485 4.8184179
17.402784 17.701196 4.8507771
17.46565 17.609369 4.8834199
17.529442 17.518978 4.9162624
17.593977 17.429994 4.9492345
17.659071 17.342374 4.9822821
17.724566 17.256057 5.0153675
17.790338 17.17096 5.0484706
17.856311 17.086973 5.081589
17.922464 17.003965 5.1147376
17.988827 16.921779 5.1479471
18.055483 16.840238 5.1812628
18.122555 16.759145 5.2147415
18.190191 16.678285 5.2484488
18.258556 16.59743 5.2824541
18.327806 16.516344 5.3168267
18.398077 16.434795 5.3516292
18.469463 16.35256 5.3869126
18.542008 16.26944 5.4227104
18.61569 16.185274 5.4590341
18.690422 16.099943 5.49587
18.766041 16.013386 5.5331778
18.842321 15.925599 5.5708919
18.918979 15.836638 5.6089248
18.995685 15.746617 5.6471719
19.072079 15.655699 5.6855201
19.147788 15.564086 5.7238554
19.22244 15.472005 5.7620728
19.295682 15.379691 5.8000862
19.367198 15.287368 5.8378365
19.436715 15.195233 5.8752999
19.504021 15.103429 5.9124931
19.568972 15.012033 5.9494763
19.631494 14.921039 5.9863525
19.691588 14.830349 6.0232627
19.749325 14.739776 6.0603779
19.804835 14.649052 6.0978865
19.8583 14.557849 6.1359804
19.909931 14.4658 6.1748396
19.959957 14.372538 6.2146176
20.008604 14.27772 6.2554299
20.056084 14.181058 6.297346
20.102584 14.082339 6.3403861
20.14826 13.981438 6.384522
20.193238 13.87833 6.4296819
20.237613 13.773078 6.4757565
20.281455 13.665837 6.5226059
20.324809 13.556839 6.570066
20.367702 13.446382 6.617953
20.410138 13.334816 6.6660669
20.452104 13.222535 6.7141939
20.493569 13.109954 6.7621098
20.534483 12.997497 6.8095838
20.574785 12.885577 6.8563854
20.614407 12.774575 6.9022928
20.653285 12.664822 6.9471045
20.691365 12.556584 6.9906501
20.728618 12.450045 7.0328022
20.765044 12.345308 7.0734846
20.800678 12.242391 7.1126779
20.835591 12.141236 7.1504205
20.869886 12.041729 7.1868044
20.903692 11.943709 7.2219668
20.937154 11.846994 7.2560788
20.97042 11.751398 7.289331
21.003632 11.656744 7.3219185
21.036912 11.562879 7.3540264
21.070353 11.46968 7.3858163
21.104015 11.377062 7.4174151
21.137911 11.284976 7.4489062
21.172011 11.193412 7.4803242
21.206237 11.102396 7.5116525
21.240465 11.011985 7.5428245
21.274529 10.922262 7.5737282
21.308228 10.833325 7.6042141
21.341338 10.745275 7.6341071
21.373618 10.658203 7.6632196
21.404834 10.572168 7.6913678
21.434767 10.487187 7.7183876
21.46323 10.403215 7.7441501
21.490084 10.320134 7.7685757
21.515249 10.237754 7.791644
21.538712 10.155806 7.8134
21.560529 10.073961 7.8339551
21.580825 9.9918402 7.8534829
21.599788 9.90904 7.8722106
21.61766 9.8251569 7.890406
21.634722 9.7398128 7.9083623
21.651281 9.6526794 7.9263812
21.66765 9.5634969 7.9447561
21.684137 9.4720872 7.9637571
21.701025 9.378361 7.9836179
21.718565 9.2823167 8.0045265
21.736966 9.1840346 8.0266184
21.756387 9.0836649 8.0499744
21.776941 8.9814124 8.0746211
21.798691 8.8775192 8.1005346
21.821659 8.7722453 8.1276458
21.845834 8.6658506 8.1558482
21.871177 8.5585777 8.1850057
21.897634 8.4506371 8.2149611
21.925143 8.3421965 8.2455432
21.953639 8.2333737 8.2765745
21.983063 8.1242343 8.3078761
22.013362 8.0147938 8.339273
22.044492 7.9050228 8.3705973
22.076414 7.7948552 8.4016918
22.109094 7.6841978 8.4324124
22.142499 7.5729399 8.4626312
22.176596 7.4609628 8.4922386
22.211347 7.3481488 8.5211458
22.246714 7.2343889 8.549286
22.282649 7.1195908 8.5766149
22.319104 7.003686 8.6031094
22.356026 6.8866359 8.6287656
22.393364 6.768436 8.6535949
22.431066 6.6491181 8.6776196
22.469087 6.5287473 8.7008687
22.507389 6.4074166 8.7233738
22.545945 6.2852364 8.7451657
22.584739 6.1623233 8.7662729
22.623768 6.038788 8.7867207
22.66304 5.9147269 8.8065314
22.702569 5.7902168 8.8257249
22.742371 5.6653166 8.8443195
22.782461 5.5400735 8.8623329
22.822838 5.4145325 8.8797821
22.863491 5.2887474 8.8966835
22.904387 5.1627901 8.9130532
22.945475 5.0367564 8.9289063
22.986686 4.9107666 8.944257
23.027938 4.7849626 8.9591189
23.069141 4.6595013 8.9735049
23.110204 4.5345483 8.9874277
23.151036 4.4102712 9.0009006
23.191558 4.2868367 9.0139372
23.231698 4.1644096 9.0265524
23.271395 4.0431527 9.0387627
23.310601 3.9232272 9.050587
23.349284 3.8047898 9.0620475
23.387426 3.6879857 9.0731717
23.425027 3.5729372 9.0839935
23.462111 3.4597281 9.0945554
23.498725 3.3483868 9.1049096
23.534945 3.2388709 9.1151188
23.570875 3.1310562 9.1252551
23.60664 3.0247339 9.1353974
23.642386 2.9196157 9.1456274
23.678266 2.8153486 9.1560227
23.714432 2.7115362 9.1666489
23.751018 2.6077647 9.1775509
23.788132 2.5036286 9.1887438
23.825844 2.3987555 9.2002046
23.864176 2.2928241 9.2118662
23.903105 2.1855772 9.2236145
23.942553 2.0768267 9.2352887
23.982402 1.9664538 9.2466865
24.022493 1.8544047 9.2575738
24.062643 1.7406837 9.2676972
24.102651 1.6253462 9.2768014
24.142316 1.5084919 9.2846467
24.181447 1.390259 9.291027
24.219873 1.2708193 9.2957862
24.257455 1.1503735 9.2988306
24.294093 1.029146 9.300136
24.329726 0.90737774 9.2997491
24.364337 0.78531807 9.2977829
24.397947 0.66321437 9.2944065
24.430615 0.54130124 9.2898305
24.462425 0.41978966 9.284291
24.493483 0.29885788 9.2780324
24.52391 0.17864502 9.2712925
24.553829 0.0592482 9.2642899
24.583364 -0.05927665 9.2572161
24.612631 -0.17691079 9.2502304
24.641734 -0.29366656 9.2434596
24.670765 -0.40958049 9.2369984
24.699799 -0.52470681 9.2309133
24.728897 -0.63911218 9.2252449
24.758102 -0.75287186 9.2200119
24.787441 -0.86606651 9.2152131
24.816925 -0.97877884 9.2108301
24.84655 -1.0910887 9.2068291
24.876294 -1.2030657 9.203164
24.90612 -1.3147598 9.1997788
24.935977 -1.4261895 9.1966124
24.965797 -1.5373316 9.1936023
24.995502 -1.6481122 9.1906896
25.025002 -1.7584042 9.1878229
25.054206 -1.8680316 9.1849617
25.083019 -1.9767813 9.1820777
25.111357 -2.0844231 9.1791553
25.139147 -2.1907333 9.17619
25.166335 -2.2955212 9.1731857
25.192889 -2.3986522 9.1701514
25.218801 -2.5000664 9.1670979
25.244086 -2.5997881 9.1640341
25.268785 -2.6979271 9.1609651
25.292952 -2.7946713 9.1578901
25.316656 -2.8902724 9.154802
25.339975 -2.9850285 9.1516877
25.362986 -3.0792655 9.1485291
25.385768 -3.1733202 9.1453046
25.408394 -3.2675273 9.1419915
25.430932 -3.3622104 9.1385678
25.453443 -3.4576775 9.1350155
25.475983 -3.5542181 9.1313226
25.498602 -3.6521023 9.1274867
25.521342 -3.751578 9.1235173
25.544239 -3.8528659 9.1194394
25.567316 -3.9561506 9.1152954
25.590579 -4.0615692 9.1111479
25.614015 -4.1691979 9.1070806
25.637584 -4.2790395 9.1031985
25.661216 -4.3910157 9.0996264
25.684809 -4.5049661 9.0965064
25.708229 -4.6206564 9.093993
25.731316 -4.7377978 9.0922473
25.753894 -4.8560755 9.0914302
25.775777 -4.9751828 9.0916945
25.796789 -5.0948584 9.093178
25.816772 -5.2149194 9.0959968
25.8356 -5.3352854 9.1002398
25.853191 -5.4559894 9.1059655
25.869508 -5.5771738 9.1132005
25.884562 -5.6990695 9.1219401
25.898406 -5.8219632 9.1321507
25.911126 -5.946155 9.1437739
25.922828 -6.0719124 9.1567315
25.933625 -6.1994267 9.1709312
25.943618 -6.3287764 9.1862724
25.952886 -6.4599021 9.202652
25.961466 -6.5925945 9.2199702
25.969354 -6.7264978 9.2381352
25.976489 -6.8611268 9.2570683
25.982758 -6.9958964 9.2767079
25.987996 -7.1301606 9.297012
25.991997 -7.2632568 9.3179608
25.994523 -7.394551 9.3395559
25.995323 -7.523478 9.3618184
25.994145 -7.6495741 9.3847841
25.990762 -7.7724965 9.4084969
25.984982 -7.8920295 9.4330002
25.976665 -8.0080762 9.4583285
25.96573 -8.1206387 9.4844998
25.952159 -8.2297919 9.5115103
25.935988 -8.3356533 9.5393328
25.917302 -8.4383563 9.5679201
25.896213 -8.5380303 9.5972117
25.872847 -8.6347892 9.6271449
25.847318 -8.7287307 9.6576669
25.819714 -8.8199433 9.6887476
25.790084 -8.9085182 9.7203891
25.758434 -8.9945641 9.7526319
25.724724 -9.0782187 9.7855556
25.688882 -9.1596559 9.8192738
25.650814 -9.2390853 9.8539245
25.610428 -9.3167447 9.8896561
25.567651 -9.392886 9.9266137
25.522449 -9.4677565 9.9649251
25.474839 -9.5415796 10.004692
25.424904 -9.614536 10.045983
25.372787 -9.6867504 10.088841
25.318692 -9.7582837 10.133287
25.262875 -9.8291312 10.179335
25.205625 -9.8992287 10.227014
25.147258 -9.9684612 10.27638
25.0881 -10.036676 10.327535
25.028476 -10.103694 10.38064
24.968708 -10.169323 10.435913
24.909107 -10.233364 10.493628
24.849973 -10.29562 10.554103
24.791595 -10.355897 10.617675
24.734244 -10.41401 10.684675
24.678168 -10.469781 10.7554
24.623587 -10.52305 10.830086
24.570677 -10.573671 10.908882
24.519558 -10.621523 10.991832
24.470287 -10.666514 11.078866
24.42285 -10.708582 11.169804
24.377154 -10.747704 11.264356
24.333041 -10.783888 11.362143
24.290291 -10.81718 11.462717
24.248642 -10.847652 11.565577
24.207808 -10.875403 11.670194
24.167504 -10.900551 11.776028
24.127461 -10.923225 11.882543
24.087447 -10.943566 11.989216
24.047273 -10.96172 12.095551
