BEGIN_Polyline
-25.6129 12.8692 5.3737
-25.5889 12.9083 5.36796
-25.5648 12.9472 5.36173
-25.5397 12.9855 5.35562
-25.5146 13.0236 5.34933
-25.4896 13.062 5.34343
-25.4628 13.0994 5.33836
-25.4354 13.1362 5.33334
-25.4078 13.1729 5.32797
-25.3802 13.2096 5.32256
-25.3505 13.2448 5.31781
-25.3203 13.2796 5.31301
-25.29 13.3145 5.30799
-25.2598 13.3493 5.30306
-25.2296 13.3841 5.29805
-25.1993 13.4189 5.29296
-25.169 13.4537 5.28779
-25.1386 13.4885 5.28259
-25.1084 13.5233 5.27745
-25.0781 13.5581 5.2724
-25.0456 13.591 5.26868
-25.0178 13.6278 5.26274
-24.9877 13.6626 5.25818
-24.9578 13.6974 5.25376
-24.9275 13.7319 5.24975
-24.8966 13.7658 5.24607
-24.8658 13.7998 5.24245
-24.835 13.8337 5.23885
-24.8042 13.8676 5.23526
-24.7734 13.9016 5.23167
-24.7425 13.9355 5.228
-24.711 13.9689 5.22462
-24.6794 14.0022 5.22115
-24.6479 14.0356 5.21772
-24.6153 14.068 5.21475
-24.5815 14.0993 5.21229
-24.5477 14.1306 5.20964
-24.5139 14.1618 5.20697
-24.48 14.193 5.20414
-24.4461 14.2243 5.20122
-24.4117 14.2551 5.19846
-24.3766 14.2852 5.19612
-24.3415 14.3154 5.19386
-24.3063 14.3456 5.19162
-24.2712 14.3758 5.18939
-24.236 14.406 5.18704
-24.2008 14.4362 5.18479
-24.1657 14.4665 5.1827
-24.1307 14.4968 5.18084
-24.0956 14.5271 5.17895
-24.0606 14.5575 5.17738
-24.0258 14.5879 5.17604
-23.9939 14.6217 5.17349
-23.9567 14.6501 5.17342
-23.9244 14.6832 5.17133
-23.8923 14.7163 5.16943
-23.8602 14.7495 5.16776
-23.8281 14.7826 5.16607
-23.796 14.8158 5.16446
-23.764 14.8489 5.16289
-23.732 14.882 5.16127
-23.6999 14.9152 5.1596
-23.6678 14.9482 5.15776
-23.6358 14.9812 5.15585
-23.6037 15.0141 5.15375
-23.5717 15.047 5.1516
-23.5397 15.0798 5.14933
-23.5077 15.1125 5.14695
-23.4757 15.1453 5.14473
-23.4438 15.1782 5.14291
-23.4116 15.2109 5.14116
-23.378 15.242 5.13977
-23.3433 15.272 5.13845
-23.308 15.3012 5.13742
-23.2725 15.3302 5.13579
-23.2368 15.3591 5.13373
-23.2011 15.3878 5.13133
-23.1655 15.4167 5.12937
-23.1299 15.4454 5.12706
-23.0941 15.474 5.1243
-23.0581 15.5025 5.12083
-23.022 15.5309 5.11724
-22.9857 15.5592 5.11307
-22.9493 15.5875 5.10853
-22.911 15.6137 5.10502
-22.8763 15.6443 5.09992
-22.8398 15.6729 5.09587
-22.8031 15.7014 5.09147
-22.7663 15.7298 5.08657
-22.7295 15.7581 5.08163
-22.6925 15.7863 5.07604
-22.6555 15.8143 5.07003
-22.6183 15.8421 5.06349
-22.581 15.8701 5.05703
-22.5439 15.898 5.0502
-22.5067 15.9258 5.04314
-22.4686 15.952 5.03655
-22.4294 15.9768 5.03077
-22.3892 16.0001 5.02563
-22.3489 16.0231 5.02063
-22.3086 16.046 5.01577
-22.2684 16.0691 5.01113
-22.2283 16.0922 5.00667
-22.1883 16.1152 5.00223
-22.1485 16.138 4.99776
-22.1086 16.1609 4.99321
-22.069 16.1836 4.98853
-22.0294 16.2062 4.9838
-21.9899 16.2287 4.97901
-21.9503 16.2513 4.97433
-21.9107 16.2739 4.96956
-21.8713 16.2963 4.96462
-21.832 16.3185 4.95954
-21.7928 16.3407 4.95456
-21.7537 16.3627 4.94932
-21.7127 16.3867 4.9418
-21.6895 16.4282 4.92629
-21.6459 16.4485 4.92007
-21.6134 16.4787 4.90969
-21.5805 16.5091 4.89893
-21.5478 16.5399 4.88791
-21.5162 16.5717 4.87662
-21.4845 16.6038 4.86539
-21.4526 16.6359 4.85422
-21.4208 16.6682 4.84324
-21.389 16.7003 4.83223
-21.3573 16.7326 4.82171
-21.3256 16.7649 4.81153
-21.294 16.7974 4.802
-21.2623 16.83 4.79261
-21.2307 16.8626 4.78371
-21.1991 16.8953 4.77518
-21.1676 16.9278 4.76644
-21.1391 16.9627 4.75579
-21.1105 16.9976 4.74532
-21.082 17.0327 4.73551
-21.0537 17.068 4.72681
-21.0255 17.1032 4.71827
-20.9976 17.1388 4.71121
-20.9698 17.1745 4.7052
-20.9423 17.2103 4.70014
-20.9145 17.2461 4.6942
-20.887 17.282 4.68925
-20.8597 17.318 4.68536
-20.8327 17.3542 4.6831
-20.8071 17.3913 4.68078
-20.7828 17.4294 4.67927
-20.7602 17.4685 4.67798
-20.7367 17.5071 4.67683
-20.7156 17.5469 4.67332
-20.6931 17.5859 4.67008
-20.6707 17.625 4.66755
-20.6486 17.6644 4.66616
-20.6266 17.7039 4.66507
-20.6048 17.7437 4.66556
-20.5833 17.7837 4.66705
-20.5636 17.8243 4.66914
-20.549 17.8669 4.66913
-20.5342 17.9101 4.66976
-20.5196 17.9535 4.67127
-20.5051 17.9976 4.674
-20.4911 18.0418 4.6768
-20.4772 18.0864 4.68056
-20.4634 18.1313 4.68487
-20.4496 18.1763 4.68936
-20.4357 18.2209 4.69317
-20.4218 18.2655 4.69684
-20.4079 18.3103 4.70076
-20.394 18.3552 4.70494
-20.3802 18.4002 4.7092
-20.3663 18.4454 4.71376
-20.3531 18.491 4.71829
-20.3418 18.5374 4.72266
-20.3306 18.5837 4.72722
-20.3193 18.6301 4.73175
-20.308 18.6765 4.73608
-20.2967 18.7229 4.74003
-20.2853 18.7693 4.74398
-20.2738 18.8155 4.74724
-20.2622 18.8616 4.74996
-20.2488 18.9069 4.75252
-20.239 18.9532 4.7546
-20.2274 18.9988 4.7564
-20.2157 19.0441 4.75752
-20.2039 19.089 4.75772
-20.192 19.1341 4.75794
-20.1801 19.1788 4.7574
-20.168 19.2235 4.75636
-20.1559 19.268 4.75496
-20.1436 19.3126 4.75407
-20.1312 19.3572 4.75308
-20.1188 19.4018 4.75184
-20.1063 19.4462 4.75026
-20.0938 19.4906 4.74855
-20.0813 19.535 4.74668
-20.0688 19.5794 4.74479
-20.0564 19.6239 4.74307
-20.0439 19.6684 4.74156
-20.0315 19.713 4.74034
-20.019 19.7577 4.73922
-20.0066 19.8024 4.73821
-19.9942 19.847 4.73714
-19.9818 19.8917 4.73607
-19.9694 19.9363 4.73505
-19.957 19.981 4.73401
-19.9445 20.0256 4.73292
-19.9321 20.0702 4.73178
-19.9235 20.1158 4.72995
-19.9165 20.1618 4.72788
-19.9095 20.2077 4.72582
-19.9025 20.2535 4.72378
-19.8954 20.2994 4.72176
-19.8835 20.3447 4.72069
-19.8813 20.3913 4.71719
-19.8742 20.4372 4.71473
-19.8658 20.483 4.71271
-19.8569 20.5288 4.71095
-19.8482 20.5744 4.70934
-19.8395 20.6201 4.70808
-19.8309 20.6659 4.70699
-19.8223 20.7117 4.70613
-19.8137 20.7575 4.70517
-19.8052 20.8033 4.70444
-19.7967 20.8491 4.70391
-19.7883 20.895 4.70367
-19.7799 20.941 4.70348
-19.7744 20.9874 4.70261
-19.7715 21.034 4.70114
-19.7686 21.0805 4.69943
-19.7656 21.1269 4.69735
-19.7626 21.1732 4.6951
-19.7596 21.2196 4.69294
-19.7566 21.266 4.69102
-19.7537 21.3125 4.68923
-19.7509 21.3591 4.68788
-19.7481 21.4057 4.68683
-19.7454 21.4523 4.686
-19.7426 21.4989 4.6848
-19.7399 21.5455 4.68396
-19.7374 21.5922 4.68359
-19.7349 21.639 4.68389
-19.7324 21.6858 4.68425
-19.7295 21.7327 4.68543
-19.7291 21.7796 4.68653
-19.7249 21.8267 4.68896
-19.7274 21.8739 4.68922
-19.7259 21.9212 4.69089
-19.7242 21.9683 4.69317
-19.7226 22.0156 4.69593
-19.721 22.0628 4.69871
-19.7195 22.11 4.70178
-19.7181 22.1572 4.705
-19.7166 22.2043 4.70825
-19.7152 22.2515 4.71136
-19.7137 22.2985 4.71429
-19.7121 22.3456 4.71716
-19.7105 22.3924 4.71984
-19.7089 22.4393 4.72244
-19.7072 22.486 4.7249
-19.7055 22.5326 4.72721
-19.7039 22.5793 4.72968
-19.7024 22.6261 4.73268
-19.7009 22.6728 4.73559
-19.6993 22.7194 4.73809
-19.6974 22.7659 4.73991
-19.6955 22.8123 4.74162
-19.6934 22.8584 4.74237
-19.691 22.9044 4.74241
-19.6884 22.9501 4.74183
-19.6823 22.9956 4.74304
-19.6758 23.041 4.74362
-19.6691 23.0863 4.74343
-19.662 23.1315 4.74204
-19.6549 23.1766 4.74043
-19.6475 23.2217 4.73788
-19.6399 23.2667 4.73473
-19.6322 23.3119 4.73166
-19.6251 23.3574 4.72961
-19.6178 23.4029 4.72762
-19.6103 23.4484 4.725
-19.6026 23.4937 4.7214
-19.5948 23.539 4.71758
-19.5866 23.5841 4.71249
-19.5783 23.6291 4.70657
-19.5696 23.6742 4.69988
-19.5603 23.7195 4.69409
-19.5488 23.7644 4.68822
-19.5369 23.8092 4.68151
-19.5175 23.852 4.67623
-19.498 23.8943 4.67086
-19.4782 23.9365 4.66464
-19.4583 23.9787 4.65789
-19.4383 24.0207 4.651
-19.4186 24.0626 4.64477
-19.3991 24.1042 4.63865
-19.3795 24.1458 4.63226
-19.3598 24.1873 4.62556
-19.3406 24.2291 4.61862
-19.3213 24.2708 4.61129
-19.3019 24.3125 4.60377
-19.2823 24.3542 4.5959
-19.2628 24.3959 4.58789
-19.2432 24.4376 4.57982
-19.2236 24.4794 4.57185
-19.2041 24.5213 4.5641
-19.1845 24.5632 4.55631
-19.1651 24.6052 4.5491
-19.1458 24.6473 4.54235
-19.1267 24.6897 4.53627
-19.1075 24.7321 4.53006
-19.0885 24.7746 4.52458
-19.0696 24.8172 4.51964
-19.051 24.8599 4.51541
-19.0324 24.9024 4.51111
-19.0139 24.945 4.50724
-18.9956 24.9876 4.50368
-18.9789 25.031 4.49966
-18.9622 25.0747 4.49538
-18.9454 25.1182 4.49094
-18.9234 25.1599 4.48844
-18.8964 25.1986 4.4877
-18.8698 25.2367 4.48689
-18.8433 25.2746 4.48592
-18.8167 25.3127 4.48495
-18.7901 25.3504 4.48357
-18.7692 25.3913 4.48002
-18.7503 25.4331 4.47536
-18.7231 25.4711 4.47418
-18.694 25.5082 4.4734
-18.6654 25.5443 4.4724
-18.6369 25.58 4.47081
-18.6082 25.6157 4.46892
-18.5794 25.6514 4.46669
-18.5526 25.6885 4.46376
-18.5263 25.726 4.46025
-18.497 25.7616 4.45801
-18.4662 25.796 4.45601
-18.4355 25.8302 4.45381
-18.4047 25.8643 4.45133
-18.3743 25.8988 4.44849
-18.3464 25.9355 4.4447
-18.3155 25.9697 4.44292
-18.2863 26.0052 4.44063
-18.2571 26.0407 4.43819
-18.2278 26.0761 4.43547
-18.1983 26.1116 4.43263
-18.1678 26.1462 4.42971
-18.1338 26.1772 4.42819
-18.0998 26.2082 4.4263
-18.0658 26.2393 4.4247
-18.0317 26.2702 4.42266
-17.9974 26.301 4.4202
-17.9633 26.332 4.41695
-17.9292 26.3631 4.41355
-17.8951 26.394 4.40965
-17.8609 26.4248 4.40542
-17.8266 26.4556 4.40114
-17.7925 26.4866 4.39736
-17.7567 26.5159 4.39443
-17.7204 26.5444 4.39149
-17.684 26.573 4.38812
-17.6473 26.6017 4.38461
-17.6084 26.6274 4.38186
-17.5676 26.6503 4.38013
-17.5265 26.6731 4.37799
-17.4856 26.6959 4.37602
-17.4447 26.7187 4.37382
-17.4048 26.7434 4.37048
-17.3649 26.7681 4.36686
-17.325 26.7927 4.36311
-17.2851 26.8173 4.35941
-17.2453 26.8419 4.35583
-17.2056 26.8666 4.35273
-17.1662 26.8915 4.3499
-17.1269 26.9164 4.34758
-17.0877 26.9413 4.34537
-17.0487 26.9661 4.34326
-17.0096 26.9909 4.34107
-16.9706 27.0156 4.33865
-16.9316 27.0402 4.33607
-16.8911 27.0623 4.33427
-16.8501 27.0835 4.33276
-16.8091 27.1047 4.33093
-16.7679 27.1258 4.32887
-16.7267 27.1468 4.32644
-16.6854 27.1678 4.32394
-16.6441 27.1888 4.32124
-16.6027 27.2098 4.31839
-16.5612 27.2308 4.31569
-16.5189 27.2502 4.31406
-16.4763 27.2692 4.31265
-16.4337 27.2882 4.31105
-16.3908 27.3072 4.30902
-16.348 27.3261 4.30684
-16.305 27.3448 4.30406
-16.262 27.3635 4.30088
-16.219 27.3821 4.29746
-16.1761 27.4008 4.29458
-16.1332 27.4194 4.29132
-16.0884 27.4337 4.28874
-16.0425 27.4456 4.28608
-15.9971 27.4582 4.28319
-15.9526 27.4733 4.27852
-15.9082 27.4883 4.27329
-15.867 27.5117 4.26442
-15.8207 27.5223 4.25978
-15.7775 27.5397 4.25352
-15.7344 27.5569 4.24672
-15.6913 27.5739 4.2393
-15.6483 27.5909 4.23179
-15.6054 27.6078 4.22384
-15.5625 27.6246 4.21565
-15.5198 27.6413 4.20739
-15.4775 27.66 4.19863
-15.4385 27.6846 4.1895
-15.3994 27.7093 4.18013
-15.3601 27.734 4.17046
-15.3209 27.7588 4.16086
-15.2818 27.7835 4.15135
-15.2427 27.8082 4.14198
-15.2037 27.8327 4.1328
-15.1649 27.8573 4.12342
-15.1262 27.8817 4.11462
-15.0875 27.906 4.10636
-15.0489 27.9302 4.09897
-15.0104 27.9545 4.09166
-14.9718 27.9787 4.08521
-14.9334 28.0032 4.07943
-14.8953 28.0285 4.07398
-14.857 28.0541 4.06765
-14.8185 28.0797 4.06174
-14.7801 28.1052 4.05658
-14.7388 28.126 4.05247
-14.6972 28.1455 4.04895
-14.6554 28.1652 4.0461
-14.6135 28.1849 4.0434
-14.5671 28.1951 4.04203
-14.5281 28.2218 4.03677
-14.4855 28.24 4.03307
-14.4423 28.2563 4.03064
-14.399 28.2727 4.029
-14.3557 28.2891 4.02747
-14.3123 28.3058 4.02707
-14.269 28.3228 4.02747
-14.2256 28.3399 4.02868
-14.1822 28.3569 4.02932
-14.1389 28.374 4.03077
-14.0957 28.3914 4.033
-14.0526 28.4089 4.03647
-14.0094 28.4266 4.04028
-13.9676 28.4475 4.04408
-13.9268 28.4699 4.04774
-13.886 28.4923 4.05118
-13.845 28.5143 4.05344
-13.8042 28.5365 4.05534
-13.7636 28.5588 4.05772
-13.7233 28.5813 4.06095
-13.6829 28.6039 4.06444
-13.6428 28.6269 4.06915
-13.6029 28.6501 4.07466
-13.5631 28.6735 4.08092
-13.5232 28.6967 4.08654
-13.4834 28.7201 4.09289
-13.4438 28.7437 4.10004
-13.4045 28.7677 4.10832
-13.3653 28.7916 4.11675
-13.3262 28.8158 4.126
-13.2872 28.8401 4.13578
-13.2448 28.8579 4.14809
-13.2079 28.8872 4.15449
-13.1682 28.9103 4.16395
-13.1287 28.9335 4.17369
-13.0893 28.9569 4.18389
-13.0499 28.9803 4.19426
-13.011 29.0043 4.2049
-12.973 29.0297 4.21511
-12.935 29.0553 4.2256
-12.8969 29.0807 4.23587
-12.859 29.1064 4.24622
-12.8218 29.1333 4.25607
-12.7848 29.1602 4.26613
-12.7478 29.1872 4.27613
-12.7109 29.2141 4.28627
-12.674 29.241 4.29647
-12.6372 29.2681 4.30689
-12.6004 29.2953 4.31753
-12.5636 29.3224 4.32809
-12.5267 29.3494 4.33844
-12.4899 29.3763 4.34837
-12.453 29.403 4.35822
-12.416 29.4294 4.36742
-12.3789 29.4556 4.37614
-12.3418 29.4816 4.38448
-12.3048 29.5079 4.39336
-12.2677 29.5339 4.40168
-12.2305 29.5595 4.40933
-12.1928 29.5843 4.41621
-12.1545 29.6078 4.42354
-12.116 29.6311 4.43014
-12.0786 29.6553 4.43538
-12.0319 29.6644 4.44845
-11.9957 29.6955 4.45179
-11.9552 29.7146 4.46096
-11.9144 29.7329 4.47002
-11.8732 29.7509 4.47807
-11.832 29.7688 4.48591
-11.7902 29.7862 4.4924
-11.7481 29.8031 4.498
-11.7054 29.8191 4.50315
-11.663 29.8352 4.50901
-11.6203 29.8511 4.51409
-11.5774 29.8666 4.51833
-11.5336 29.8803 4.52197
-11.4894 29.8925 4.52603
-11.4449 29.9044 4.52928
-11.4003 29.9162 4.53205
-11.3557 29.928 4.53499
-11.3115 29.9401 4.53892
-11.2674 29.9524 4.54312
-11.2232 29.9645 4.54694
-11.1789 29.9763 4.55016
-11.1346 29.9881 4.55317
-11.09 29.9996 4.55525
-11.0452 30.0108 4.55677
-11.0002 30.0218 4.55767
-10.9553 30.033 4.55894
-10.9102 30.044 4.55967
-10.8649 30.0547 4.5599
-10.8198 30.066 4.55908
-10.7752 30.0792 4.55731
-10.7305 30.0923 4.55511
-10.6858 30.1053 4.55268
-10.6412 30.1183 4.55034
-10.5966 30.1315 4.54845
-10.5522 30.1447 4.54682
-10.5078 30.158 4.54514
-10.4634 30.1711 4.54338
-10.419 30.1843 4.54149
-10.3746 30.1976 4.53931
-10.3304 30.211 4.537
-10.2861 30.2244 4.53461
-10.2418 30.2379 4.53228
-10.1975 30.2513 4.5299
-10.1532 30.2646 4.52745
-10.1089 30.278 4.52497
-10.0647 30.2914 4.52259
-10.0205 30.3047 4.52013
-9.97634 30.318 4.51761
-9.93191 30.3313 4.51478
-9.88719 30.3445 4.51165
-9.84239 30.3577 4.50842
-9.79767 30.3709 4.50534
-9.75342 30.3845 4.50249
-9.71136 30.4033 4.49756
-9.66935 30.4222 4.49317
-9.62746 30.4413 4.4892
-9.58558 30.46 4.48568
-9.54196 30.4747 4.48328
-9.49835 30.4896 4.48144
-9.45488 30.5046 4.4802
-9.41163 30.52 4.47992
-9.36843 30.5354 4.47973
-9.32552 30.551 4.48043
-9.28231 30.5696 4.48064
-9.24715 30.6021 4.47588
-9.20257 30.617 4.47688
-9.1635 30.6402 4.47503
-9.1243 30.6637 4.47375
-9.08511 30.6875 4.47335
-9.04587 30.7114 4.47306
-9.00662 30.7357 4.47373
-8.96737 30.7602 4.47501
-8.92812 30.7849 4.47681
-8.88888 30.8094 4.4781
-8.84965 30.834 4.47975
-8.81044 30.8589 4.48184
-8.77129 30.8841 4.4845
-8.73213 30.9094 4.48724
-8.69295 30.9349 4.4904
-8.65377 30.9604 4.49376
-8.61463 30.9859 4.49713
-8.5764 31.0126 4.49971
-8.53901 31.0406 4.50159
-8.50157 31.0686 4.50345
-8.46404 31.0966 4.50525
-8.42651 31.1246 4.50709
-8.38889 31.1527 4.50891
-8.35121 31.1808 4.51066
-8.31347 31.209 4.51245
-8.27577 31.2372 4.51443
-8.23802 31.2654 4.51632
-8.20023 31.2936 4.51804
-8.16181 31.3209 4.51972
-8.12281 31.3473 4.5216
-8.08375 31.3737 4.5231
-8.04466 31.4 4.52434
-8.00545 31.426 4.52549
-7.96655 31.4525 4.52688
-7.92753 31.4788 4.5281
-7.88851 31.5049 4.52896
-7.84947 31.5309 4.52928
-7.81043 31.5569 4.52956
-7.77137 31.5827 4.52927
-7.7323 31.6084 4.52857
-7.6932 31.634 4.52754
-7.6541 31.6597 4.52681
-7.615 31.6853 4.52582
-7.5759 31.7108 4.52452
-7.5368 31.7362 4.52277
-7.49771 31.7616 4.5209
-7.45864 31.7868 4.51877
-7.41959 31.812 4.51651
-7.38058 31.8372 4.5144
-7.34155 31.8626 4.51269
-7.30257 31.888 4.51118
-7.26361 31.9133 4.50957
-7.22444 31.9382 4.50788
-7.18471 31.9622 4.50636
-7.14499 31.9861 4.50449
-7.10528 32.01 4.50239
-7.06564 32.0337 4.50006
-7.02472 32.0552 4.49856
-6.98317 32.0756 4.49711
-6.94155 32.096 4.49543
-6.89982 32.1164 4.4934
-6.85811 32.1367 4.49136
-6.81628 32.1571 4.48906
-6.77436 32.1774 4.48658
-6.73233 32.1978 4.48401
-6.69035 32.2182 4.48161
-6.64829 32.2386 4.47921
-6.60618 32.259 4.47671
-6.56403 32.2795 4.47409
-6.52189 32.2999 4.47143
-6.47976 32.3203 4.46867
-6.43764 32.3406 4.46588
-6.39553 32.361 4.46309
-6.35338 32.3814 4.46036
-6.3113 32.4017 4.45768
-6.26901 32.4215 4.45514
-6.22622 32.4399 4.45301
-6.1828 32.4567 4.45138
-6.13942 32.4734 4.44971
-6.09606 32.4902 4.44802
-6.05265 32.5069 4.4461
-6.00914 32.5235 4.44395
-5.96562 32.5402 4.44172
-5.92216 32.5568 4.4396
-5.87885 32.5735 4.43772
-5.83561 32.5902 4.43593
-5.79253 32.6069 4.43458
-5.74959 32.6236 4.43355
-5.70663 32.6405 4.43278
-5.66311 32.6565 4.4319
-5.61944 32.6721 4.43153
-5.57516 32.6862 4.43215
-5.52979 32.6953 4.43466
-5.48457 32.7043 4.43718
-5.43945 32.7135 4.44044
-5.39435 32.7228 4.44423
-5.34914 32.7311 4.44851
-5.30434 32.7413 4.45178
-5.25946 32.7505 4.45549
-5.21466 32.7598 4.45967
-5.16994 32.7692 4.46452
-5.12524 32.7788 4.46944
-5.08059 32.7885 4.47502
-5.03597 32.7983 4.48101
-4.99137 32.8082 4.48729
-4.94675 32.8179 4.4932
-4.90211 32.8277 4.49925
-4.85746 32.8376 4.50557
-4.81281 32.8475 4.5122
-4.76791 32.8567 4.51904
-4.7225 32.8624 4.52674
-4.67701 32.8681 4.53458
-4.63147 32.8739 4.54257
-4.58606 32.8796 4.55058
-4.54061 32.8854 4.55849
-4.49503 32.8907 4.56636
-4.44931 32.8959 4.574
-4.40358 32.9011 4.5816
-4.35772 32.9063 4.58882
-4.31177 32.9114 4.59574
-4.26574 32.9165 4.60246
-4.21975 32.9217 4.60958
-4.17341 32.9231 4.61692
-4.12706 32.9238 4.62395
-4.08051 32.9242 4.63015
-4.03396 32.9247 4.63627
-3.98731 32.9249 4.64159
-3.9406 32.9251 4.64633
-3.89399 32.9198 4.65193
-3.84726 32.9236 4.6566
-3.80077 32.9227 4.66159
-3.75428 32.9217 4.666
-3.70778 32.9206 4.66957
-3.66124 32.9195 4.67304
-3.61468 32.9183 4.67565
-3.56813 32.917 4.67772
-3.52161 32.9156 4.67941
-3.47514 32.9143 4.68161
-3.4287 32.913 4.68357
-3.38223 32.9116 4.6851
-3.33578 32.9101 4.68609
-3.28939 32.9086 4.68703
-3.24291 32.9071 4.68751
-3.19636 32.9055 4.68774
-3.14956 32.9038 4.68776
-3.10257 32.9022 4.68792
-3.05543 32.9006 4.68812
-3.0083 32.899 4.6883
-2.96135 32.8974 4.68859
-2.91462 32.8958 4.68899
-2.86816 32.8943 4.68954
-2.82186 32.8927 4.69026
-2.77539 32.8926 4.69063
-2.72839 32.8942 4.69013
-2.68136 32.896 4.68984
-2.63443 32.8977 4.69001
-2.58885 32.906 4.69023
-2.54518 32.9208 4.68994
-2.50139 32.938 4.69023
-2.45731 32.9553 4.69113
-2.41175 32.969 4.69294
-2.36894 32.9884 4.69396
-2.32594 33.006 4.69595
-2.28267 33.0237 4.6985
-2.23924 33.0415 4.70184
-2.19564 33.0594 4.70518
-2.15182 33.0773 4.70904
-2.10783 33.0948 4.71322
-2.06389 33.1123 4.71754
-2.02006 33.1298 4.72157
-1.97636 33.1472 4.72541
-1.93267 33.1646 4.72921
-1.88909 33.182 4.73294
-1.84561 33.1993 4.73679
-1.80211 33.2166 4.74044
-1.75858 33.234 4.74393
-1.71473 33.2514 4.74703
-1.6684 33.2639 4.75025
-1.62129 33.2743 4.75322
-1.57613 33.2899 4.75612
-1.53137 33.3051 4.75867
-1.48678 33.3203 4.76125
-1.44303 33.3352 4.76344
-1.39954 33.3496 4.76539
-1.3551 33.358 4.76675
-1.31014 33.3665 4.76814
-1.26451 33.3707 4.76921
-1.2192 33.374 4.77019
-1.17424 33.3773 4.77114
-1.1291 33.3787 4.77174
-1.08444 33.3768 4.77224
-1.04014 33.3748 4.77293
-0.99674 33.3621 4.77336
-0.951303 33.3661 4.77558
-0.909421 33.3565 4.77696
-0.867407 33.3468 4.7784
-0.825267 33.3367 4.77977
-0.78304 33.3261 4.78102
-0.740283 33.3155 4.78178
-0.697167 33.3048 4.78218
-0.653771 33.294 4.78208
-0.611695 33.28 4.78192
-0.569609 33.2637 4.78082
-0.52717 33.2467 4.77913
-0.484361 33.2282 4.7764
-0.441591 33.2097 4.77348
-0.398144 33.191 4.77
-0.354255 33.172 4.76618
-0.310002 33.1529 4.76283
-0.265999 33.1339 4.76067
-0.221965 33.1148 4.75884
-0.176899 33.0977 4.75657
-0.130688 33.0836 4.75331
-0.0845319 33.0693 4.74969
-0.0384042 33.055 4.7448
0.00769336 33.0406 4.73909
0.055147 33.0312 4.73206
0.102566 33.0221 4.72565
0.149807 33.013 4.71838
0.196793 33.0038 4.71016
0.243435 32.9944 4.70054
0.29008 32.9842 4.69087
0.336534 32.9764 4.67975
0.382566 32.9697 4.66776
0.428279 32.9641 4.65525
0.473806 32.9544 4.64415
0.519145 32.9469 4.63258
0.564008 32.9393 4.6205
0.608154 32.9317 4.60769
0.652623 32.9278 4.59419
0.696859 32.9253 4.57983
0.740888 32.9227 4.56513
0.784745 32.9201 4.55023
0.828648 32.9208 4.53519
0.8727 32.9222 4.52013
0.916766 32.9236 4.50488
0.960922 32.925 4.48959
1.00508 32.9264 4.47446
1.04926 32.9278 4.45913
1.0935 32.9292 4.44371
1.13776 32.9286 4.42792
1.18187 32.926 4.41162
1.2261 32.9235 4.39526
1.27046 32.9213 4.37928
1.31503 32.9199 4.36415
1.3596 32.9185 4.34926
1.40438 32.9172 4.33577
1.44932 32.9156 4.32333
1.49435 32.9133 4.31173
1.53921 32.9107 4.29897
1.58418 32.9084 4.28736
1.62932 32.9062 4.27718
1.67471 32.9044 4.26922
1.72015 32.9026 4.26151
1.76581 32.9012 4.25594
1.81162 32.8999 4.25182
1.85744 32.8966 4.24877
1.90312 32.8973 4.24332
1.94881 32.896 4.23888
1.99463 32.8949 4.23586
2.04066 32.8942 4.23489
2.08671 32.8934 4.23419
2.133 32.893 4.23557
2.1794 32.8908 4.23854
2.22595 32.8888 4.24251
2.2724 32.8866 4.24541
2.31903 32.8874 4.24838
2.36568 32.8891 4.25214
2.41248 32.891 4.25707
2.45928 32.8925 4.26222
2.50616 32.894 4.2682
2.55308 32.8957 4.27458
2.60002 32.8973 4.28121
2.64694 32.899 4.28757
2.6938 32.9006 4.29358
2.74062 32.9021 4.2994
2.78735 32.9036 4.30477
2.83407 32.905 4.31014
2.88067 32.9064 4.3149
2.92722 32.9061 4.31935
2.97372 32.9051 4.32368
3.0203 32.9042 4.32887
3.06683 32.9032 4.33338
3.11325 32.902 4.33695
3.15956 32.9005 4.33894
3.20581 32.8968 4.34107
3.25192 32.8921 4.3417
3.29776 32.8853 4.34155
3.34317 32.8758 4.34142
3.38937 32.8718 4.34138
3.43508 32.865 4.34128
3.48068 32.858 4.33989
3.52614 32.8504 4.3366
3.57159 32.8428 4.3331
3.6169 32.8347 4.32767
3.66208 32.8262 4.32098
3.70718 32.8175 4.31329
3.75237 32.8091 4.30667
3.79755 32.801 4.2993
3.84266 32.7928 4.29095
3.88761 32.7844 4.28138
3.93252 32.7759 4.27159
3.97732 32.7672 4.26099
4.02205 32.7583 4.24998
4.0668 32.7495 4.23899
4.11168 32.7409 4.22861
4.15659 32.7323 4.21866
4.20143 32.7238 4.20871
4.24618 32.7153 4.19883
4.29091 32.7067 4.18885
4.3355 32.6982 4.17886
4.38001 32.6897 4.16895
4.42441 32.6812 4.15889
4.46885 32.6726 4.14846
4.51321 32.664 4.13813
4.55751 32.6555 4.12814
4.6017 32.6472 4.11872
4.64583 32.6389 4.10938
4.68995 32.6309 4.10085
4.73396 32.6196 4.09364
4.77645 32.6004 4.0896
4.82198 32.5959 4.08028
4.86592 32.5842 4.07411
4.90984 32.5716 4.06897
4.95269 32.5551 4.06608
4.99526 32.5387 4.0631
5.03803 32.5226 4.06098
5.08109 32.5067 4.05946
5.1243 32.4909 4.0584
5.16736 32.475 4.05684
5.2105 32.4592 4.05551
5.25342 32.4422 4.05491
5.29529 32.4225 4.05566
5.33719 32.4027 4.05657
5.37925 32.383 4.05774
5.4214 32.3633 4.05901
5.46347 32.3435 4.0601
5.50532 32.3237 4.06084
5.54705 32.3039 4.06123
5.58873 32.2839 4.06163
5.63027 32.2635 4.06209
5.67186 32.243 4.06265
5.71358 32.2225 4.06329
5.75538 32.202 4.06395
5.79729 32.1815 4.0647
5.83916 32.161 4.06551
5.88118 32.1405 4.06637
5.92328 32.1201 4.06724
5.96547 32.0997 4.06812
6.00766 32.0792 4.06896
6.04988 32.0587 4.06975
6.09212 32.0382 4.07052
6.13461 32.0183 4.07117
6.17654 31.9973 4.07224
6.21869 31.9769 4.07311
6.26081 31.9564 4.07386
6.30288 31.9359 4.07442
6.34497 31.9154 4.07498
6.38724 31.8954 4.07513
6.42963 31.8756 4.07496
6.47199 31.8559 4.07458
6.51439 31.8361 4.07431
6.55601 31.8148 4.07426
6.59734 31.7929 4.07416
6.6386 31.7711 4.07375
6.67982 31.7492 4.07323
6.721 31.7273 4.07257
6.76216 31.7053 4.07184
6.8034 31.6835 4.07137
6.84477 31.6616 4.07133
6.88618 31.6398 4.07146
6.92752 31.618 4.07144
6.96873 31.5962 4.07112
7.00992 31.5744 4.07065
7.05091 31.5525 4.06964
7.09175 31.5305 4.06827
7.13245 31.5086 4.06661
7.17328 31.4867 4.06537
7.21394 31.4647 4.06371
7.25443 31.4427 4.06152
7.29465 31.4207 4.05856
7.33481 31.3986 4.05559
7.37477 31.3764 4.05184
7.41525 31.3544 4.04633
7.46358 31.349 4.03773
7.50155 31.3191 4.03288
7.54435 31.3029 4.02758
7.58724 31.2867 4.02154
7.63041 31.2713 4.01452
7.67371 31.2566 4.00714
7.71695 31.2417 3.99899
7.76023 31.2268 3.99052
7.80347 31.2118 3.9818
7.84719 31.1986 3.9732
7.89155 31.1875 3.96432
7.93596 31.1765 3.95523
7.98047 31.1654 3.9459
8.02503 31.1543 3.93653
8.06963 31.1432 3.92709
8.11426 31.1321 3.91768
8.15882 31.121 3.90831
8.20328 31.1099 3.89883
8.24768 31.0989 3.88967
8.29208 31.0879 3.88083
8.33651 31.0769 3.87249
8.38097 31.0658 3.86413
8.42551 31.0548 3.85638
8.47011 31.0438 3.84909
8.51477 31.0328 3.8422
8.55939 31.0218 3.83493
8.6041 31.0108 3.82809
8.64889 30.9998 3.82169
8.69375 30.9889 3.81603
8.73858 30.9779 3.81059
8.78348 30.9669 3.80563
8.82843 30.9559 3.80097
8.87498 30.9511 3.79598
8.91857 30.9339 3.79021
8.96369 30.9229 3.78423
9.00898 30.9124 3.77869
9.05486 30.9051 3.77378
9.1005 30.8978 3.76896
9.14616 30.8906 3.76532
9.19192 30.8834 3.76252
9.23788 30.8763 3.76055
9.28402 30.869 3.75793
9.33025 30.8618 3.75619
9.37648 30.8547 3.75534
9.42185 30.8439 3.75608
9.46635 30.8306 3.75726
9.51088 30.8174 3.75936
9.55542 30.8042 3.76202
9.60015 30.7917 3.76442
9.64521 30.7803 3.76548
9.69026 30.7688 3.76636
9.7353 30.7575 3.7678
9.78032 30.7463 3.77013
9.82534 30.7351 3.7727
9.87032 30.724 3.77656
9.91528 30.7131 3.78126
9.96023 30.7023 3.7868
10.0052 30.6914 3.79168
10.0502 30.6807 3.79736
10.0952 30.6701 3.80385
10.1401 30.6597 3.81152
10.185 30.6493 3.81934
10.2298 30.639 3.82796
10.2747 30.6287 3.83706
10.3207 30.623 3.84561
10.3646 30.6081 3.85453
10.4096 30.5977 3.86267
10.4549 30.5884 3.87095
10.5004 30.5806 3.87942
10.5458 30.5729 3.88798
10.5911 30.5653 3.8971
10.6363 30.5578 3.90657
10.6816 30.5503 3.91636
10.7269 30.5428 3.92592
10.7722 30.5354 3.93569
10.8175 30.528 3.94572
10.8623 30.5198 3.95621
10.9067 30.5097 3.96705
10.9509 30.4997 3.97807
10.9951 30.4896 3.98917
11.0392 30.4797 4.00043
11.0834 30.4697 4.01181
11.1275 30.4596 4.02312
11.1716 30.4493 4.03426
11.2156 30.439 4.04504
11.2596 30.4286 4.05581
11.3036 30.4182 4.06604
11.3476 30.4076 4.07585
11.3915 30.397 4.08526
11.4354 30.3865 4.095
11.4788 30.3741 4.10463
11.5215 30.3597 4.11425
11.5643 30.3449 4.12302
11.6071 30.3302 4.13156
11.65 30.3152 4.13951
11.693 30.3001 4.14707
11.7368 30.2865 4.15449
11.7795 30.2701 4.16372
11.8229 30.2551 4.17265
11.8665 30.2403 4.18097
11.9111 30.2277 4.18769
11.9555 30.2152 4.19422
11.9999 30.2022 4.1994
12.0443 30.189 4.20365
12.0886 30.1754 4.20705
12.1321 30.1594 4.21181
12.1755 30.1431 4.21561
12.219 30.1266 4.21846
12.261 30.1069 4.2208
12.3022 30.0856 4.22355
12.3431 30.0634 4.22544
12.3839 30.0409 4.22674
12.4248 30.0184 4.2282
12.4657 29.9964 4.23094
12.5067 29.9745 4.23389
12.5475 29.9524 4.23625
12.5883 29.9301 4.23769
12.629 29.9076 4.23889
12.6695 29.8847 4.23876
12.7084 29.8589 4.23883
12.7471 29.8324 4.23812
12.7858 29.8061 4.23798
12.8244 29.7795 4.23706
12.8628 29.7527 4.23538
12.9011 29.7255 4.23263
12.9393 29.6982 4.22968
12.9773 29.6708 4.22618
13.0151 29.6434 4.22238
13.0518 29.6147 4.21965
13.0908 29.5893 4.21634
13.1287 29.5626 4.21424
13.1664 29.536 4.21201
13.2039 29.5094 4.20951
13.2414 29.4827 4.20679
13.2787 29.4559 4.20345
13.3159 29.429 4.19975
13.3529 29.402 4.19562
13.39 29.375 4.19174
13.4271 29.3478 4.18741
13.4641 29.3205 4.18265
13.501 29.293 4.17733
13.5379 29.2655 4.17201
13.5747 29.2379 4.16627
13.6114 29.2102 4.16027
13.6482 29.1824 4.15414
13.685 29.1547 4.14827
13.7219 29.127 4.14244
13.7587 29.0991 4.13661
13.7952 29.0706 4.13088
13.8317 29.0421 4.1251
13.8683 29.0136 4.11928
13.9049 28.9851 4.1135
13.9416 28.9566 4.10774
13.9782 28.928 4.10193
14.0148 28.8995 4.09625
14.0515 28.871 4.09071
14.0883 28.8426 4.08543
14.1251 28.8141 4.08025
14.162 28.7857 4.0753
14.199 28.7573 4.07052
14.2361 28.7291 4.06557
14.2728 28.7004 4.0603
14.3104 28.6728 4.05464
14.3487 28.6465 4.04897
14.3871 28.6202 4.04385
14.4256 28.5939 4.0388
14.4642 28.5678 4.03453
14.503 28.5418 4.03079
14.5417 28.5159 4.02758
14.58 28.4893 4.02417
14.6184 28.4627 4.02129
14.6568 28.4363 4.01896
14.6954 28.4101 4.01749
14.734 28.3839 4.0162
14.7727 28.3579 4.01549
14.8115 28.3319 4.01513
14.8502 28.3059 4.01459
14.8889 28.2797 4.01322
14.9275 28.2534 4.01168
14.9662 28.2273 4.01054
15.0047 28.201 4.0101
15.0421 28.173 4.01034
15.0802 28.1462 4.0113
15.1192 28.1209 4.01248
15.1582 28.0957 4.01432
15.1972 28.0703 4.01573
15.2363 28.0452 4.01779
15.2754 28.0202 4.02048
15.3145 27.9952 4.02415
15.3534 27.9701 4.02808
15.3923 27.945 4.03258
15.4312 27.9201 4.03743
15.4706 27.8958 4.04187
15.5089 27.87 4.04598
15.5477 27.8448 4.04961
15.5866 27.8196 4.05351
15.6254 27.7946 4.05786
15.6642 27.7697 4.06238
15.7031 27.7449 4.06763
15.7419 27.7203 4.07331
15.7808 27.6958 4.07946
15.8192 27.6705 4.08551
15.8564 27.6436 4.09253
15.8937 27.6168 4.10001
15.9309 27.5901 4.10814
15.9682 27.5635 4.11632
16.0055 27.537 4.12494
16.0428 27.5105 4.13382
16.08 27.4841 4.14274
16.1172 27.4577 4.15129
16.1544 27.4312 4.15972
16.1915 27.4047 4.16825
16.2287 27.3783 4.17692
16.2658 27.352 4.18567
16.303 27.3256 4.19459
16.3402 27.2992 4.20358
16.3775 27.2729 4.21266
16.4144 27.2462 4.22182
16.4512 27.2194 4.23105
16.488 27.1925 4.24026
16.5249 27.1655 4.2494
16.5618 27.1385 4.25849
16.5988 27.1114 4.26748
16.6358 27.0842 4.27638
16.6729 27.0568 4.28538
16.7102 27.0297 4.29454
16.7474 27.0024 4.30364
16.7847 26.975 4.31252
16.8221 26.9475 4.32101
16.8594 26.9199 4.32946
16.897 26.8926 4.33726
16.9347 26.8654 4.34465
16.9723 26.8381 4.35173
17.01 26.8109 4.35912
17.0476 26.7836 4.36615
17.0851 26.7563 4.37281
17.1224 26.7289 4.37885
17.1597 26.7015 4.38477
17.1969 26.6741 4.39024
17.234 26.6466 4.39543
17.271 26.6192 4.4007
17.3082 26.5919 4.40657
17.3453 26.5647 4.41249
17.3824 26.5375 4.41807
17.4192 26.5103 4.42319
17.4559 26.4832 4.42824
17.4925 26.456 4.43258
17.5289 26.4288 4.43644
17.5653 26.4014 4.43973
17.602 26.3738 4.44321
17.6386 26.3462 4.44622
17.675 26.3186 4.44882
17.7089 26.2881 4.4519
17.742 26.2563 4.45563
17.7733 26.2226 4.4596
17.8023 26.1868 4.46422
17.8245 26.1456 4.47048
17.8602 26.1154 4.47426
17.8889 26.0801 4.47954
17.9178 26.0446 4.48473
17.9467 26.0089 4.48971
17.9757 25.9731 4.49462
18.0048 25.9371 4.49908
18.0339 25.901 4.50321
18.063 25.8649 4.507
18.0899 25.8273 4.51148
18.116 25.7892 4.51565
18.1422 25.7509 4.51936
18.1684 25.7125 4.52241
18.1947 25.6737 4.52543
18.2241 25.637 4.52735
18.2543 25.6011 4.52871
18.2841 25.5655 4.52976
18.3084 25.5261 4.53198
18.3311 25.4855 4.53436
18.3539 25.4448 4.53645
18.3766 25.4041 4.53822
18.3994 25.3633 4.53996
18.4219 25.3224 4.54138
18.4438 25.2811 4.54266
18.4658 25.2397 4.54363
18.4877 25.1982 4.54451
18.5097 25.1568 4.54534
18.5317 25.1153 4.54627
18.552 25.0731 4.54744
18.5716 25.0305 4.54852
18.5913 24.9881 4.55013
18.6108 24.9457 4.55216
18.6294 24.9029 4.55503
18.6496 24.861 4.55794
18.6682 24.8184 4.56166
18.6868 24.7761 4.56573
18.7054 24.7338 4.57021
18.7239 24.6915 4.57458
18.7424 24.6494 4.5789
18.7609 24.6073 4.58315
18.7793 24.5652 4.58717
18.7977 24.5231 4.59119
18.8162 24.4809 4.59468
18.8346 24.4388 4.59783
18.853 24.3967 4.6003
18.8668 24.353 4.60273
18.8802 24.3087 4.60492
18.8936 24.2644 4.60682
18.907 24.22 4.60888
18.9204 24.1757 4.61164
18.9337 24.1313 4.61425
18.9463 24.0867 4.61625
18.9589 24.042 4.61734
18.9716 23.9973 4.61828
18.9843 23.9527 4.61799
18.9993 23.9088 4.61699
19.0145 23.865 4.61528
19.0296 23.8212 4.61438
19.0448 23.7776 4.61263
19.06 23.7341 4.6099
19.0752 23.6907 4.60568
19.0905 23.6474 4.60125
19.1057 23.6042 4.59559
19.121 23.5612 4.58912
19.1355 23.5179 4.58239
19.1515 23.475 4.57693
19.1668 23.432 4.5713
19.182 23.389 4.56497
19.1972 23.3463 4.55759
19.2125 23.3036 4.54999
19.2277 23.2611 4.54119
19.243 23.2187 4.53166
19.2564 23.1759 4.52142
19.2683 23.1325 4.51183
19.2801 23.0891 4.5017
19.2919 23.0457 4.49095
19.3037 23.0024 4.47937
19.315 22.959 4.46772
19.3256 22.9154 4.45553
19.3362 22.8718 4.44304
19.3468 22.8283 4.43044
19.3574 22.7847 4.41814
19.368 22.7411 4.40608
19.3786 22.6975 4.39405
19.3892 22.6538 4.38215
19.3998 22.6101 4.3702
19.4105 22.5663 4.35842
19.4213 22.5224 4.34686
19.4318 22.4784 4.33539
19.4413 22.4342 4.32368
19.4509 22.39 4.31221
19.4606 22.3457 4.30111
19.4703 22.3012 4.29065
19.4801 22.2568 4.28033
19.4899 22.2122 4.27067
19.4999 22.1675 4.26146
19.5108 22.123 4.25227
19.5196 22.0782 4.24252
19.5295 22.0336 4.23295
19.5394 21.9889 4.22401
19.5495 21.9441 4.21607
19.5596 21.8993 4.20826
19.5698 21.8543 4.20161
19.5802 21.8092 4.19576
19.5906 21.7641 4.19058
19.6009 21.719 4.18469
19.6113 21.6739 4.17941
19.6218 21.6287 4.17486
19.6324 21.5834 4.17139
19.6431 21.5381 4.16811
19.6538 21.4927 4.16562
19.6646 21.4474 4.16361
19.6754 21.402 4.16159
19.6859 21.3566 4.15878
19.6963 21.3113 4.15583
19.7069 21.266 4.15324
19.7174 21.2207 4.15116
19.728 21.1754 4.14917
19.7387 21.13 4.14792
19.7494 21.0847 4.1471
19.7601 21.0393 4.14687
19.7711 20.994 4.14656
19.7848 20.9495 4.14628
19.7985 20.9049 4.14623
19.8123 20.8603 4.1465
19.826 20.8157 4.14691
19.8398 20.7711 4.14715
19.8535 20.7264 4.14714
19.8621 20.6801 4.14724
19.8809 20.6368 4.14561
19.8938 20.5917 4.144
19.9055 20.5465 4.14196
19.9172 20.5013 4.13971
19.929 20.4561 4.13764
19.9407 20.411 4.13586
19.9564 20.367 4.13403
19.9727 20.3232 4.13251
19.989 20.2794 4.13085
20.0053 20.2358 4.12979
20.0217 20.1921 4.1292
20.0381 20.1484 4.12937
20.0541 20.1046 4.12965
20.07 20.0609 4.13051
20.086 20.0173 4.13181
20.102 19.9737 4.13312
20.1178 19.9301 4.13367
20.1337 19.8865 4.13434
20.1496 19.843 4.13555
20.1656 19.7997 4.13754
20.1824 19.7565 4.1395
20.2017 19.7145 4.14224
20.2211 19.6724 4.14568
20.2406 19.6305 4.14991
20.26 19.5885 4.15377
20.2795 19.5466 4.15826
20.299 19.5047 4.1633
20.3175 19.4624 4.16922
20.3345 19.4195 4.17527
20.3514 19.3765 4.18187
20.3684 19.3335 4.18879
20.3815 19.2888 4.19546
20.4026 19.2471 4.20162
20.4197 19.2038 4.20742
20.4368 19.1605 4.21342
20.4539 19.1172 4.21975
20.4724 19.0744 4.22628
20.4925 19.0325 4.23336
20.5126 18.9906 4.24078
20.5327 18.9488 4.24857
20.5528 18.9069 4.2561
20.5728 18.8651 4.26396
20.5928 18.8235 4.27217
20.6128 18.782 4.28084
20.6347 18.7415 4.28949
20.6572 18.7015 4.29841
20.6797 18.6616 4.30751
20.7022 18.6217 4.31669
20.7248 18.5817 4.32573
20.7473 18.5417 4.33468
20.771 18.5025 4.34363
20.795 18.4636 4.35257
20.819 18.4247 4.36152
20.8434 18.3862 4.37041
20.8686 18.3484 4.37919
20.8938 18.3106 4.38791
20.919 18.2728 4.39676
20.9442 18.235 4.40544
20.9693 18.1972 4.41393
20.9944 18.1596 4.42211
21.0195 18.1219 4.43026
21.0457 18.0851 4.4381
21.0721 18.0486 4.44575
21.1035 18.0157 4.45317
21.1309 17.9796 4.46098
21.1619 17.9468 4.46882
21.1929 17.914 4.47632
21.2235 17.8805 4.48338
21.2532 17.8464 4.49045
21.2829 17.8122 4.49693
21.3127 17.7779 4.50302
21.3425 17.7436 4.50876
21.3723 17.7093 4.51483
21.4032 17.6759 4.52042
21.4353 17.6435 4.52551
21.468 17.6115 4.5299
21.5021 17.5811 4.53393
21.5363 17.5505 4.53758
21.5706 17.5199 4.54104
21.6049 17.4892 4.54464
21.6392 17.4586 4.54878
21.6736 17.428 4.55306
21.708 17.3974 4.5571
21.7424 17.3666 4.56077
21.7768 17.3358 4.56433
21.8113 17.3049 4.56728
21.8458 17.2739 4.56984
21.8803 17.2428 4.57196
21.9161 17.2133 4.57409
21.9531 17.1851 4.57558
21.99 17.1569 4.57669
22.027 17.1285 4.57723
22.0639 17.1002 4.57766
22.1007 17.0718 4.57774
22.1375 17.0435 4.57763
22.1723 17.0127 4.57813
22.211 16.987 4.57826
22.2477 16.9589 4.57901
22.2842 16.9309 4.57959
22.3203 16.9025 4.57991
22.3559 16.8735 4.58015
22.3913 16.8445 4.57991
22.4267 16.8155 4.57939
22.4621 16.7865 4.57859
22.4975 16.7575 4.57803
22.5329 16.7285 4.57719
22.5683 16.6994 4.57603
22.6036 16.6703 4.57444
22.639 16.6413 4.57283
22.6733 16.611 4.571
22.7071 16.5802 4.569
22.7409 16.5494 4.56685
22.7747 16.5186 4.56489
22.8085 16.4879 4.56291
22.8423 16.457 4.56082
22.8761 16.4262 4.55865
22.9099 16.3953 4.55648
22.9438 16.3645 4.55425
22.9777 16.3336 4.55202
23.0115 16.3027 4.5497
23.0454 16.2718 4.54726
23.0792 16.2409 4.5449
23.1132 16.2099 4.5427
23.1471 16.179 4.54079
23.1811 16.148 4.53886
23.2152 16.1171 4.53735
23.2493 16.0861 4.53616
23.2829 16.0544 4.53539
23.3176 16.024 4.53426
23.3518 15.993 4.53357
23.3861 15.962 4.53322
23.4204 15.931 4.53333
23.4548 15.8999 4.53343
23.4891 15.8689 4.53388
23.5235 15.8379 4.53456
23.5579 15.8068 4.53539
23.5916 15.775 4.53612
23.6253 15.7431 4.53687
23.6589 15.7113 4.53772
23.6926 15.6794 4.53867
23.725 15.6464 4.53974
23.756 15.6119 4.54089
23.7871 15.5775 4.54204
23.8181 15.543 4.5431
23.849 15.5087 4.5441
23.8799 15.4744 4.54493
23.9108 15.4401 4.54567
23.9417 15.4058 4.54625
23.9727 15.3714 4.5468
24.0025 15.336 4.54726
24.0308 15.2994 4.54776
24.0592 15.2628 4.54814
24.0876 15.2263 4.54862
24.116 15.1897 4.54903
24.1444 15.1531 4.54938
24.1728 15.1164 4.5496
24.2021 15.0804 4.54963
24.2339 15.0467 4.54939
24.2657 15.0129 4.54916
24.2936 14.9754 4.5496
24.3296 14.9451 4.5497
24.3572 14.9072 4.55071
24.3843 14.8697 4.55141
24.4113 14.8322 4.55204
24.4384 14.7947 4.55259
24.4655 14.7572 4.55286
24.4926 14.7198 4.55295
24.5196 14.6823 4.55282
24.5467 14.6448 4.55282
24.5738 14.6073 4.55253
24.6008 14.5698 4.55198
24.6279 14.5323 4.55102
24.655 14.4949 4.54997
24.682 14.4574 4.54864
24.7091 14.4199 4.54711
24.7361 14.3824 4.54572
24.761 14.3433 4.5449
24.7858 14.3043 4.54404
24.8107 14.2651 4.5429
24.8356 14.226 4.54133
24.8604 14.1868 4.53967
24.8852 14.1477 4.53742
24.91 14.1085 4.53477
24.9347 14.0694 4.53172
24.9595 14.0302 4.52898
24.9842 13.9911 4.52587
25.0089 13.9519 4.52238
25.0335 13.9128 4.51833
25.0576 13.8735 4.51423
25.0814 13.834 4.50978
25.1051 13.7945 4.50513
25.1241 13.752 4.50092
25.1528 13.7154 4.49642
25.1766 13.6759 4.49242
25.1989 13.6354 4.48838
25.219 13.5938 4.48424
25.239 13.5523 4.48007
25.2589 13.511 4.47546
25.2789 13.4695 4.47055
25.2988 13.428 4.46531
25.3187 13.3866 4.46025
25.3366 13.3442 4.45509
25.3545 13.3018 4.44961
25.3725 13.2592 4.44387
25.3905 13.2167 4.43813
25.4085 13.1741 4.43221
25.4265 13.1315 4.42615
25.4445 13.0888 4.42005
25.4625 13.0462 4.4141
25.4805 13.0036 4.40816
25.499 12.9612 4.40218
25.5184 12.9191 4.39616
25.5378 12.8771 4.39015
25.5572 12.835 4.38403
25.5767 12.7929 4.37787
25.5961 12.7507 4.3716
25.6156 12.7085 4.36528
25.6351 12.6663 4.35893
25.6545 12.624 4.35261
25.6731 12.5814 4.34636
25.6901 12.5382 4.34022
25.7072 12.4949 4.33407
25.7242 12.4517 4.32792
25.7378 12.4071 4.32195
25.7582 12.3653 4.31536
25.7751 12.3221 4.30904
25.7921 12.2789 4.30282
25.8091 12.2358 4.29676
25.8261 12.1926 4.29072
25.843 12.1495 4.28495
25.86 12.1064 4.27936
25.877 12.0634 4.27394
25.894 12.0203 4.26836
25.911 11.9772 4.26299
25.9281 11.9341 4.25784
25.9451 11.891 4.25305
25.9621 11.848 4.24834
25.9792 11.805 4.24389
25.9963 11.7619 4.23961
26.0133 11.7189 4.23529
26.0304 11.6758 4.23061
26.0475 11.6327 4.22591
26.0671 11.5907 4.22125
26.0869 11.5486 4.21688
26.1066 11.5067 4.21259
26.1264 11.4648 4.20875
26.1462 11.4228 4.20521
26.166 11.3809 4.20198
26.1858 11.3389 4.19858
26.2055 11.297 4.19546
26.2253 11.2551 4.19259
26.2442 11.2128 4.19016
26.2624 11.1703 4.18789
26.2806 11.1279 4.18579
26.3019 11.0864 4.18335
26.3343 11.0505 4.18081
26.3464 11.0034 4.17568
26.3711 10.9645 4.17342
26.3959 10.9256 4.17099
26.4207 10.8866 4.16864
26.4456 10.8476 4.16634
26.4704 10.8085 4.1643
26.4953 10.7693 4.16244
26.5201 10.7301 4.16079
26.5449 10.6909 4.15901
26.5697 10.6516 4.15753
26.5945 10.6123 4.15632
26.6193 10.5729 4.15552
26.6441 10.5335 4.15477
26.6688 10.494 4.15434
26.6936 10.4544 4.15413
26.7183 10.4149 4.15393
26.7431 10.3754 4.15337
26.7678 10.3359 4.15283
26.7925 10.2964 4.15252
26.8173 10.2568 4.15255
26.8419 10.2172 4.15262
26.8666 10.1776 4.15313
26.8912 10.1378 4.15392
26.9158 10.0981 4.15502
26.9404 10.0584 4.15594
26.965 10.0186 4.15709
26.9896 9.9788 4.15846
27.0141 9.93898 4.16013
27.0386 9.89914 4.1619
27.063 9.8593 4.16378
27.0875 9.81946 4.16572
27.112 9.77966 4.16746
27.1365 9.73988 4.1689
27.1611 9.70014 4.17012
27.1856 9.66042 4.17137
27.2101 9.62072 4.17269
27.2346 9.58101 4.17411
27.2591 9.54129 4.17577
27.2835 9.50157 4.17758
27.3079 9.46185 4.17955
27.3323 9.42212 4.18139
27.3566 9.38235 4.18343
27.3804 9.34223 4.18558
27.404 9.30209 4.18805
27.4277 9.26196 4.19053
27.4513 9.22181 4.19328
27.4749 9.18165 4.19623
27.4985 9.14147 4.1993
27.5221 9.1013 4.20218
27.5457 9.06111 4.20514
27.5693 9.02092 4.20823
27.5929 8.98072 4.21149
27.6164 8.94052 4.21474
27.6399 8.90032 4.21816
27.6634 8.86013 4.22166
27.6869 8.81994 4.2253
27.7104 8.77975 4.22899
27.7338 8.73958 4.23268
27.7571 8.69931 4.2363
27.7804 8.65905 4.23983
27.8036 8.6188 4.2434
27.8269 8.57857 4.24674
27.8503 8.53834 4.24987
27.8737 8.49811 4.25268
27.8971 8.45783 4.25547
27.9206 8.41756 4.25794
27.9442 8.37732 4.26022
27.9677 8.3371 4.26227
27.9913 8.29688 4.26435
28.0149 8.25671 4.26638
28.0403 8.21774 4.2688
28.0667 8.17939 4.27146
28.093 8.14107 4.2742
28.1193 8.10277 4.27707
28.1455 8.06446 4.28003
28.1717 8.02615 4.28314
28.1979 7.98785 4.28623
28.2241 7.94954 4.28951
28.2502 7.91123 4.29294
28.2763 7.87293 4.2965
28.3024 7.83464 4.29989
28.3284 7.79634 4.30345
28.3544 7.75803 4.30721
28.3804 7.71971 4.31125
28.4063 7.68139 4.31526
28.4322 7.64306 4.31956
28.458 7.60471 4.32405
28.4837 7.56632 4.32876
28.5094 7.52794 4.3334
28.5351 7.48954 4.33816
28.5607 7.45115 4.34298
28.5864 7.41271 4.34799
28.612 7.37419 4.3532
28.6376 7.33566 4.3583
28.6615 7.29593 4.3627
28.6827 7.25437 4.36567
28.7097 7.21654 4.37048
28.7339 7.17689 4.37388
28.7582 7.13723 4.37726
28.7824 7.09754 4.38068
28.8066 7.05785 4.38419
28.8307 7.01812 4.38802
28.8548 6.97837 4.39206
28.8787 6.93858 4.39639
28.9028 6.89878 4.40056
28.9267 6.85895 4.40513
28.951 6.81942 4.41019
28.9771 6.78122 4.41661
29.003 6.74306 4.42315
29.0288 6.70489 4.43006
29.0539 6.66622 4.43695
29.077 6.62622 4.44281
29.1004 6.58629 4.4481
29.1238 6.54636 4.45339
29.1471 6.5064 4.459
29.1701 6.46641 4.46513
29.1931 6.42642 4.47138
29.2157 6.3864 4.47834
29.2382 6.34635 4.48579
29.2604 6.30631 4.4937
29.2828 6.26629 4.5012
29.305 6.22627 4.50916
29.3269 6.1862 4.5176
29.3486 6.14612 4.52679
29.3701 6.10611 4.53612
29.3914 6.06602 4.54597
29.4125 6.02591 4.55627
29.4484 5.99487 4.57305
29.4564 5.94474 4.57461
29.4799 5.90465 4.58376
29.5027 5.86523 4.59477
29.5265 5.82686 4.60684
29.5508 5.78903 4.61899
29.5748 5.75126 4.63144
29.5987 5.71342 4.64427
29.6224 5.67557 4.65736
29.6462 5.63773 4.67019
29.67 5.59988 4.68322
29.6936 5.56202 4.6965
29.717 5.52415 4.7101
29.7404 5.48631 4.72371
29.7637 5.44846 4.73756
29.7868 5.4106 4.75155
29.81 5.3727 4.76568
29.8332 5.33474 4.77976
29.8564 5.29677 4.79381
29.8797 5.25871 4.80776
29.8999 5.21854 4.81999
29.9201 5.17841 4.83221
29.9404 5.1383 4.8442
29.9608 5.0982 4.856
29.9813 5.05813 4.86769
30.0016 5.01805 4.87965
30.022 4.97802 4.89136
30.0425 4.93801 4.90274
30.0633 4.89806 4.91359
30.0841 4.8581 4.92436
30.1052 4.81818 4.93457
30.1264 4.77829 4.9444
30.1484 4.73879 4.95432
30.1689 4.69847 4.96415
30.1902 4.65854 4.97403
30.2116 4.61865 4.98348
30.2334 4.57879 4.99228
30.2552 4.53895 5.00101
30.2772 4.49916 5.00907
30.2995 4.4594 5.01666
30.322 4.41966 5.02395
30.3441 4.37992 5.03177
30.3672 4.34063 5.03963
30.3872 4.2992 5.04521
30.4073 4.25761 5.0503
30.4273 4.21617 5.05527
30.4475 4.1748 5.06003
30.4677 4.13341 5.06471
30.4879 4.09201 5.06948
30.508 4.0506 5.07447
30.5279 4.00918 5.07963
30.5478 3.96776 5.08479
30.5678 3.92633 5.08994
30.5877 3.8849 5.09503
30.6078 3.84347 5.10003
30.6278 3.80204 5.10501
30.648 3.7606 5.10993
30.6681 3.71916 5.11486
30.6882 3.67772 5.11975
30.7084 3.63627 5.1246
30.7286 3.59483 5.12941
30.7487 3.55339 5.13427
30.7689 3.51196 5.13911
30.7891 3.47054 5.14392
30.8073 3.42795 5.14718
30.8278 3.38656 5.15187
30.8466 3.34432 5.15543
30.8653 3.30192 5.15887
30.8818 3.25859 5.1612
30.8983 3.21528 5.16358
30.9147 3.17192 5.16616
30.931 3.1285 5.16889
30.9473 3.08506 5.17175
30.9636 3.04165 5.17445
30.9799 2.99821 5.17736
30.996 2.95475 5.18047
31.0119 2.91125 5.18395
31.0287 2.8681 5.18796
31.0466 2.82546 5.19312
31.0644 2.7828 5.1984
31.0821 2.74013 5.2037
31.1003 2.69765 5.20903
31.1182 2.65514 5.21434
31.1358 2.61247 5.21957
31.1532 2.56976 5.22503
31.1706 2.52708 5.23062
31.1885 2.48471 5.23712
31.2062 2.4423 5.24385
31.2237 2.39985 5.25081
31.2413 2.35741 5.25765
31.2588 2.31494 5.26469
31.2761 2.27245 5.2719
31.2932 2.22992 5.27937
31.3103 2.18739 5.28691
31.3272 2.14486 5.29455
31.3441 2.10234 5.30224
31.3614 2.05998 5.30995
31.3784 2.01741 5.31699
31.3958 1.97502 5.32406
31.4132 1.93264 5.33116
31.4304 1.89027 5.33836
31.4476 1.84788 5.34565
31.4646 1.80548 5.35318
31.4815 1.76307 5.36088
31.4982 1.72064 5.36875
31.515 1.67822 5.37648
31.5316 1.63576 5.38443
31.548 1.59325 5.39257
31.5641 1.55069 5.40103
31.5802 1.50815 5.40949
31.5961 1.46556 5.41824
31.6118 1.42294 5.42718
31.6277 1.38037 5.43638
31.6451 1.33867 5.44678
31.6626 1.29693 5.4572
31.68 1.25515 5.46775
31.6964 1.21293 5.47773
31.7111 1.16984 5.48614
31.7257 1.1267 5.49479
31.7402 1.08353 5.50358
31.7545 1.04033 5.51255
31.7688 0.997139 5.52149
31.783 0.953931 5.53052
31.7972 0.910704 5.53959
31.8116 0.867561 5.54891
31.8261 0.824492 5.55841
31.8406 0.781416 5.56782
31.8553 0.738337 5.57715
31.8707 0.695588 5.58677
31.8851 0.652232 5.59521
31.9002 0.60921 5.60395
31.9155 0.566191 5.61259
31.9308 0.523173 5.62113
31.9461 0.480149 5.62973
31.9614 0.437116 5.63836
31.9766 0.394077 5.64702
31.9918 0.351032 5.65575
32.007 0.307991 5.66447
32.0221 0.26494 5.67333
32.037 0.221877 5.68232
32.0518 0.1788 5.69151
32.0666 0.135725 5.7007
32.0812 0.0926348 5.71007
32.0957 0.0495339 5.71956
32.1101 0.00642036 5.7291
32.1248 -0.0366898 5.73845
32.1393 -0.0798076 5.74787
32.1538 -0.122932 5.75744
32.168 -0.16606 5.76724
32.1822 -0.209183 5.77705
32.1962 -0.252307 5.78712
32.21 -0.295429 5.79737
32.2236 -0.33856 5.8078
32.2373 -0.381706 5.81812
32.2511 -0.424761 5.82872
32.2648 -0.46778 5.83947
32.2783 -0.510781 5.85041
32.2917 -0.553795 5.8614
32.305 -0.596765 5.87246
32.3183 -0.639679 5.88355
32.3289 -0.684124 5.89179
32.3438 -0.726836 5.90327
32.3539 -0.771312 5.91073
32.3641 -0.815823 5.91819
32.3743 -0.860376 5.92569
32.3848 -0.904813 5.93347
32.396 -0.948984 5.94211
32.4069 -0.993171 5.95089
32.4177 -1.03737 5.95981
32.4286 -1.08154 5.96864
32.4393 -1.12573 5.97766
32.4499 -1.16993 5.98684
32.4602 -1.21416 5.99626
32.4705 -1.25841 6.00569
32.4805 -1.30271 6.01522
32.49 -1.34723 6.02442
32.4994 -1.39175 6.03366
32.5089 -1.43624 6.04273
32.5185 -1.48074 6.05181
32.5279 -1.52525 6.06099
32.5373 -1.56979 6.0703
32.5466 -1.61434 6.07965
32.5556 -1.65899 6.08896
32.5637 -1.70395 6.09761
32.5718 -1.74893 6.10639
32.5799 -1.7939 6.11513
32.5879 -1.83888 6.12394
32.5959 -1.88387 6.13277
32.6039 -1.92889 6.14164
32.6118 -1.97391 6.15054
32.6198 -2.01894 6.15938
32.6279 -2.06396 6.16816
32.6382 -2.10816 6.17899
32.6444 -2.15396 6.18537
32.6528 -2.19893 6.19378
32.6613 -2.24389 6.20212
32.6699 -2.28885 6.21037
32.6784 -2.33383 6.21866
32.687 -2.37881 6.22695
32.6956 -2.42379 6.23524
32.7041 -2.46879 6.24356
32.7121 -2.51396 6.25135
32.7197 -2.55928 6.25882
32.7273 -2.60463 6.26636
32.7347 -2.65001 6.27399
32.7421 -2.69537 6.28162
32.7495 -2.74076 6.28936
32.7567 -2.78618 6.29715
32.7638 -2.83164 6.30496
32.771 -2.8771 6.3127
32.7782 -2.92257 6.32051
32.7852 -2.96805 6.32841
32.7922 -3.01353 6.33644
32.7991 -3.05902 6.34449
32.8059 -3.10449 6.35264
32.8126 -3.14995 6.36088
32.8202 -3.19511 6.36998
32.8282 -3.24016 6.3792
32.8361 -3.2852 6.38849
32.844 -3.33022 6.39789
32.8518 -3.37522 6.40744
32.8595 -3.42022 6.417
32.8672 -3.46519 6.42668
32.8748 -3.51015 6.43642
32.8847 -3.55434 6.44786
32.89 -3.60007 6.45585
32.8977 -3.64504 6.46552
32.9053 -3.68998 6.47521
32.9121 -3.73517 6.48436
32.9187 -3.7804 6.49348
32.9247 -3.82576 6.50228
32.93 -3.87132 6.5105
32.9352 -3.91688 6.51872
32.9405 -3.96245 6.52688
32.9457 -4.00801 6.53503
32.9507 -4.05365 6.54301
32.9548 -4.09947 6.55041
32.959 -4.1453 6.55778
32.963 -4.19111 6.56521
32.9671 -4.23693 6.57269
32.971 -4.28271 6.58032
32.9749 -4.32847 6.58807
32.9787 -4.37421 6.59589
32.9825 -4.41994 6.6037
32.9864 -4.46569 6.61142
32.9903 -4.51145 6.61907
32.9944 -4.55723 6.62654
32.9985 -4.60304 6.63386
33.0027 -4.64885 6.64111
33.0068 -4.69461 6.6486
33.011 -4.7404 6.6559
33.0153 -4.78624 6.66292
33.02 -4.83215 6.66954
33.0247 -4.87804 6.67616
33.0297 -4.92403 6.68229
33.0349 -4.97009 6.68808
33.044 -5.01553 6.69593
33.0458 -5.06237 6.69915
33.0514 -5.10858 6.7045
33.0572 -5.15485 6.70957
33.0633 -5.20115 6.71425
33.07 -5.24731 6.71941
33.0783 -5.29315 6.72508
33.0866 -5.339 6.73063
33.0906 -5.38583 6.73373
33.0937 -5.43262 6.73622
33.0981 -5.47922 6.73951
33.1025 -5.52577 6.74286
33.1069 -5.57225 6.74632
33.1112 -5.61874 6.74976
