-22.453451 -21.917328 12.832152
-22.685436 -21.900841 13.038683
-22.928596 -21.862791 13.223141
-23.188721 -21.809847 13.396351
-23.456928 -21.763443 13.572101
-23.746468 -21.706415 13.743960
-24.056572 -21.634661 13.905324
-24.390532 -21.551960 14.059331
-24.744305 -21.456324 14.197849
-25.091818 -21.350267 14.300962
-25.426826 -21.235605 14.368042
-25.751390 -21.119862 14.407347
-26.066154 -21.001139 14.415997
-26.372044 -20.867298 14.382350
-26.666410 -20.714722 14.304491
-26.924084 -20.529190 14.172883
-27.128096 -20.292597 13.981620
-27.323132 -20.050535 13.758354
-27.502838 -19.810749 13.512753
-27.676094 -19.595860 13.266864
-27.828127 -19.393940 13.016883
-27.958792 -19.203253 12.763704
-28.072723 -19.022381 12.507913
-28.175329 -18.852236 12.252240
-28.268948 -18.689575 11.995114
-28.351847 -18.532087 11.738881
-28.423698 -18.376593 11.482460
-28.469822 -18.214159 11.223901
-28.505539 -18.050562 10.967975
-28.494251 -17.870144 10.709405
-28.457590 -17.682522 10.454235
-28.372051 -17.476774 10.195504
-28.272734 -17.268230 9.937486
-28.141922 -17.041563 9.674311
-28.041128 -16.820621 9.403232
-28.158649 -16.609203 9.153436
-28.435160 -16.403170 8.912726
-28.949221 -16.183878 8.732566
-29.269415 -15.910161 8.546749
-29.419138 -15.598153 8.381743
-29.446535 -15.283962 8.269712
-29.437984 -14.972959 8.211952
-29.412184 -14.662020 8.202789
-29.388254 -14.349003 8.236297
-29.352720 -14.030484 8.294729
-29.294424 -13.705248 8.359813
-29.301027 -13.363312 8.444273
-29.272415 -13.006470 8.503397
-29.214056 -12.634412 8.525960
-29.121611 -12.253677 8.503824
-29.033043 -11.887870 8.476372
-28.955048 -11.538202 8.450975
-28.867193 -11.206705 8.422151
-28.752268 -10.894131 8.385461
-28.689644 -10.583433 8.362677
-28.649691 -10.276731 8.345431
-28.638618 -9.968694 8.335346
-28.587976 -9.674224 8.314836
-28.527248 -9.383579 8.291880
-28.465223 -9.093242 8.268953
-28.406267 -8.798855 8.247314
-28.344343 -8.500323 8.225629
-28.282038 -8.194077 8.204760
-28.210878 -7.880572 8.182802
-28.153231 -7.550458 8.165515
-28.076488 -7.211742 8.145139
-27.946062 -6.873281 8.112976
-27.805641 -6.519315 8.080085
-27.652723 -6.159771 8.045984
-27.482124 -5.825625 8.009410
-27.320316 -5.508571 7.976655
-27.149189 -5.210811 7.942529
-27.006014 -4.918449 7.916639
-26.884050 -4.628916 7.898118
-26.778482 -4.339370 7.885209
-26.679781 -4.054123 7.875574
-26.570148 -3.776122 7.862942
-26.431564 -3.513119 7.840241
-26.297522 -3.246803 7.818533
-26.165365 -2.976577 7.796751
-26.059212 -2.689194 7.784053
-25.944977 -2.397095 7.767737
-25.903009 -2.063896 7.779667
-25.752113 -1.765909 7.746205
-25.688444 -1.416247 7.747245
-25.596491 -1.063246 7.735020
-25.509007 -0.689970 7.722360
-25.408699 -0.311052 7.701425
-25.311039 0.050021 7.678303
-25.231838 0.399411 7.660137
-25.147972 0.730234 7.636905
-25.078852 1.053065 7.617559
-24.998337 1.360243 7.590558
-24.909300 1.656418 7.557702
-24.822403 1.946645 7.523736
-24.732620 2.232096 7.487055
-24.657650 2.520021 7.455489
-24.579615 2.807755 7.421631
-24.475780 3.088102 7.375677
-24.375542 3.374764 7.330952
-24.258501 3.660690 7.278847
-24.142258 3.956129 7.227293
-24.019909 4.259636 7.173548
-23.887436 4.572711 7.116165
-23.749861 4.899736 7.057485
-23.599365 5.239597 6.994458
-23.446150 5.593211 6.931082
-23.298769 5.927516 6.868516
-23.144629 6.233422 6.801537
-22.972389 6.506440 6.726180
-22.816252 6.773026 6.656356
-22.669163 7.034473 6.589282
-22.534338 7.298791 6.526122
-22.403822 7.565042 6.463999
-22.257381 7.820215 6.396235
-22.094833 8.068735 6.323331
-21.916550 8.315025 6.246053
-21.720623 8.561850 6.164029
-21.517132 8.823522 6.080877
-21.297787 9.097394 5.993896
-21.068960 9.394432 5.905229
-20.844273 9.694570 5.820641
-20.636568 9.978950 5.745018
-20.456345 10.259710 5.682102
-20.294708 10.535241 5.629396
-20.154709 10.812580 5.589451
-20.029715 11.091846 5.560800
-19.889296 11.354590 5.526050
-19.725830 11.599058 5.477286
-19.566788 11.850699 5.430705
-19.387863 12.095011 5.368642
-19.185257 12.332587 5.286670
-18.978626 12.584006 5.200100
-18.783905 12.867819 5.123005
-18.613863 13.199873 5.065878
-18.426556 13.533272 4.991785
-18.252987 13.847024 4.916751
-18.089212 14.139521 4.838297
-17.910379 14.396480 4.746530
-17.729668 14.635925 4.655027
-17.538342 14.858476 4.566007
-17.357277 15.085584 4.482619
-17.182886 15.319350 4.398611
-17.004192 15.556825 4.313881
-16.810497 15.797183 4.227217
-16.635319 16.060226 4.141388
-16.469826 16.343317 4.054843
-16.330448 16.657593 3.968674
-16.237541 17.015484 3.884244
-16.097639 17.352697 3.792585
-15.958283 17.666018 3.697380
-15.859757 17.977962 3.603950
-15.760059 18.276161 3.510832
-15.618477 18.552158 3.417320
-15.486055 18.826414 3.328358
-15.332508 19.089468 3.243011
-15.161691 19.339470 3.161910
-14.971550 19.581360 3.086922
-14.782783 19.825008 3.023563
-14.554645 20.052713 2.964770
-14.334804 20.302021 2.920215
-14.103191 20.570473 2.891903
-13.811670 20.815645 2.866257
-13.481127 21.014626 2.850188
-13.183727 21.184320 2.866484
-12.911117 21.347122 2.910947
-12.651500 21.490124 2.971259
-12.404033 21.651337 3.052560
-12.150126 21.797535 3.145464
-11.880239 21.919170 3.244128
-11.603262 22.043732 3.349878
-11.308293 22.151968 3.454991
-11.003928 22.281828 3.562831
-10.684132 22.429558 3.668680
-10.338372 22.575134 3.765932
-10.012496 22.704458 3.858423
-9.712977 22.824146 3.949035
-9.464750 22.993664 4.049332
-9.237420 23.171354 4.151223
-9.019767 23.355616 4.254401
-8.795485 23.538681 4.357370
-8.556241 23.724745 4.460945
-8.283037 23.903107 4.563231
-7.951430 24.045908 4.658472
-7.601537 24.177427 4.747439
-7.291817 24.314924 4.831514
-7.010215 24.452169 4.908190
-6.753060 24.604065 4.982423
-6.492321 24.734766 5.048528
-6.223315 24.854908 5.109864
-5.936082 24.959846 5.166817
-5.628019 25.066916 5.224041
-5.289907 25.179523 5.283486
-4.922688 25.280130 5.340774
-4.578749 25.341812 5.381814
-4.263867 25.404696 5.415414
-3.962120 25.447941 5.439919
-3.666275 25.499689 5.463198
-3.364969 25.539099 5.483592
-3.047938 25.557638 5.504612
-2.707628 25.587658 5.531106
-2.324335 25.580816 5.549461
-1.947765 25.579849 5.575035
-1.609215 25.599245 5.613706
-1.298801 25.638733 5.663241
-1.007449 25.696018 5.712968
-0.721941 25.757524 5.757650
-0.423337 25.808842 5.795121
-0.108170 25.878426 5.828738
0.244776 25.961340 5.855357
0.626886 26.027632 5.866622
0.972849 26.012516 5.848886
1.282234 25.936079 5.808712
1.574049 25.873194 5.763497
1.867011 25.824881 5.716289
2.172490 25.773388 5.666483
2.505967 25.724499 5.618049
2.885393 25.711874 5.580468
3.258475 25.727760 5.560168
3.596138 25.726221 5.547485
3.911810 25.704006 5.535541
4.215397 25.669394 5.519709
4.519661 25.605890 5.490540
4.817061 25.484001 5.436065
5.123586 25.315886 5.352406
5.455472 25.150040 5.244017
5.726226 24.927483 5.109082
5.935127 24.694315 4.962605
6.134501 24.504848 4.818478
6.354054 24.378004 4.683695
6.637007 24.310646 4.560991
6.925384 24.220552 4.437705
7.184465 24.066879 4.311369
7.421633 23.851839 4.184799
7.669712 23.587696 4.053123
7.926729 23.326868 3.935139
8.168278 23.084606 3.835310
8.395416 22.852438 3.750880
8.589668 22.598537 3.664885
8.779709 22.350548 3.587367
8.984774 22.124563 3.520859
9.224449 21.944687 3.469457
9.496525 21.797792 3.430014
9.784663 21.657446 3.396800
10.089867 21.510792 3.366719
10.453494 21.414495 3.350199
10.914112 21.416698 3.355968
11.316844 21.352898 3.348347
11.670559 21.253801 3.331898
11.976887 21.115982 3.307150
12.271207 20.974224 3.282065
12.542797 20.811287 3.254485
12.811898 20.654688 3.230954
13.064977 20.473001 3.206566
13.310713 20.285107 3.186177
13.556669 20.098137 3.172380
13.800473 19.907675 3.165511
14.053564 19.724560 3.168868
14.310651 19.535072 3.180985
14.584058 19.343267 3.202117
14.876184 19.147203 3.236390
15.170900 18.914213 3.278687
15.427273 18.631342 3.320046
15.627458 18.340973 3.365075
15.784288 18.056276 3.414866
15.908854 17.777130 3.472314
15.996554 17.488285 3.533220
16.061836 17.202477 3.601298
16.123110 16.913168 3.681754
16.172476 16.614405 3.770123
16.228741 16.308792 3.869295
16.357283 16.011093 3.985303
16.557487 15.739442 4.090723
16.881290 15.504837 4.206883
17.213882 15.268173 4.326749
17.521746 15.036192 4.443195
17.798775 14.825879 4.554939
18.040144 14.619382 4.660150
18.240524 14.409024 4.759010
18.417793 14.189372 4.852093
18.576504 13.960535 4.941080
18.723570 13.715734 5.026320
18.872002 13.459423 5.113996
19.023249 13.189357 5.202325
19.181711 12.901355 5.287717
19.355984 12.599995 5.373727
19.536100 12.270851 5.457789
19.715191 11.942102 5.537767
19.891661 11.648919 5.613708
20.072355 11.388609 5.688777
20.254251 11.148107 5.761820
20.428909 10.913178 5.829596
20.593451 10.672716 5.891290
20.760801 10.428891 5.951610
20.934696 10.175950 6.011895
21.117229 9.907440 6.073267
21.310661 9.617064 6.136916
21.521761 9.302889 6.205276
21.728106 8.990676 6.271639
21.926771 8.698852 6.334631
22.120037 8.425218 6.394872
22.310658 8.167802 6.453111
22.492466 7.917953 6.507870
22.669092 7.674332 6.560134
22.838881 7.431561 6.609518
23.005405 7.188368 6.656999
23.164852 6.938308 6.701574
23.313309 6.674944 6.742188
23.461189 6.402009 6.781542
23.615866 6.120851 6.821677
23.797705 5.838802 6.868477
23.982424 5.536727 6.915363
24.162447 5.206219 6.960097
24.340485 4.862927 7.003528
24.501755 4.532541 7.041561
24.648733 4.214807 7.074918
24.797421 3.914444 7.108647
24.943821 3.626473 7.141599
25.088640 3.347589 7.174040
25.219481 3.070858 7.201953
25.342960 2.795590 7.227368
25.453466 2.518464 7.248386
25.553268 2.237026 7.265498
25.654263 1.954063 7.282743
25.747940 1.663233 7.296899
25.834898 1.362210 7.307814
25.926165 1.051829 7.319168
26.026371 0.731720 7.332541
26.139854 0.400538 7.349487
26.270912 0.057836 7.371787
26.430302 -0.293739 7.404431
26.622280 -0.627802 7.448267
26.785011 -0.956658 7.474064
26.938250 -1.272956 7.491118
27.092085 -1.574450 7.505997
27.264381 -1.853357 7.530451
27.433939 -2.122860 7.554830
27.589981 -2.391416 7.572509
27.738171 -2.657733 7.587680
27.884382 -2.921175 7.605124
28.040131 -3.177461 7.635234
28.185820 -3.439347 7.663688
28.324863 -3.707018 7.694449
28.447859 -3.988092 7.717443
28.556192 -4.283688 7.736535
28.639196 -4.602710 7.737276
28.735760 -4.925030 7.762321
28.844759 -5.253807 7.810211
28.952593 -5.598570 7.870751
29.032907 -5.976867 7.916175
29.159021 -6.328644 8.024274
29.244144 -6.683372 8.099839
29.334581 -7.015831 8.191933
29.421272 -7.333215 8.290380
29.492094 -7.644578 8.381480
29.571615 -7.937295 8.491370
29.629738 -8.231135 8.586747
29.684958 -8.517020 8.687238
29.726273 -8.803429 8.780466
29.771194 -9.081838 8.884719
29.804581 -9.363149 8.983435
29.824726 -9.650175 9.074557
29.844275 -9.937407 9.171119
29.852335 -10.232787 9.261776
29.891058 -10.513943 9.388330
29.919176 -10.806448 9.508743
29.926672 -11.118263 9.613602
29.980019 -11.413057 9.765704
30.038040 -11.716271 9.924349
30.140059 -12.009039 10.123035
30.197149 -12.341612 10.282949
30.316648 -12.658402 10.494758
30.350916 -13.020479 10.631018
30.382999 -13.369658 10.758082
30.433977 -13.695429 10.892859
30.537848 -13.982979 11.056667
30.649811 -14.256640 11.217185
30.744497 -14.530239 11.361637
30.814556 -14.807810 11.490877
30.862188 -15.088028 11.611315
30.917036 -15.359109 11.738273
30.983698 -15.621282 11.873283
30.941292 -15.916140 11.982021
30.916323 -16.198212 12.108595
30.984253 -16.451996 12.265808
31.016478 -16.718428 12.423956
31.047625 -16.988430 12.590601
31.075993 -17.265770 12.768160
31.127085 -17.551771 12.961881
31.108028 -17.853434 13.158957
31.056271 -18.165941 13.366787
31.015182 -18.482368 13.590909
30.949808 -18.768196 13.814424
30.866146 -19.023026 14.035791
30.767582 -19.250698 14.254655
30.674656 -19.460888 14.476385
30.584951 -19.656483 14.700626
30.500282 -19.845198 14.930999
30.421190 -20.031382 15.169061
30.348808 -20.219482 15.416525
30.244633 -20.407490 15.658639
30.091499 -20.590202 15.877769
29.908670 -20.782438 16.084557
29.706757 -20.986261 16.281542
29.484434 -21.206879 16.462868
29.209539 -21.440945 16.608627
28.895611 -21.683628 16.713427
28.592377 -21.909479 16.786301
28.327707 -22.130213 16.856901
28.114523 -22.333382 16.928926
27.928179 -22.526972 16.991728
27.730906 -22.734814 17.050632
27.549768 -22.938421 17.098362
27.336416 -23.183414 17.138309
27.091694 -23.429792 17.144859
26.788780 -23.676279 17.103249
26.455818 -23.844238 16.998478
26.124134 -23.955069 16.863497
25.803778 -24.041414 16.719763
25.500233 -24.107895 16.570494
25.210375 -24.168600 16.418146
24.943386 -24.191330 16.250282
24.702553 -24.181980 16.067596
24.467646 -24.166630 15.872076
24.258734 -24.164129 15.683590
24.030270 -24.192669 15.472213
23.798891 -24.244871 15.250180
23.548161 -24.297440 14.977366
23.296448 -24.325790 14.663136
23.076929 -24.314501 14.332119
22.900637 -24.271364 14.002219
22.757730 -24.205420 13.670901
22.651789 -24.118740 13.345446
22.577116 -24.015602 13.019882
22.521961 -23.910547 12.702809
22.494093 -23.793476 12.388547
22.489460 -23.669230 12.082121
22.493134 -23.547924 11.781778
22.518106 -23.419020 11.487600
22.564045 -23.282784 11.197114
22.698547 -23.117085 10.914881
22.745464 -22.985159 10.628429
22.711851 -22.867680 10.339607
22.650690 -22.727720 10.052627
22.610153 -22.564756 9.766749
22.462980 -22.383682 9.497069
22.295439 -22.180901 9.244402
22.223959 -21.943193 8.988943
22.138739 -21.683588 8.740986
22.024536 -21.400862 8.503337
21.907331 -21.104073 8.285084
21.780855 -20.811216 8.108970
21.672932 -20.518499 7.963399
21.576231 -20.226692 7.848107
21.509153 -19.931480 7.750929
21.432220 -19.638187 7.684228
21.360775 -19.342600 7.635533
21.299465 -19.044306 7.604558
21.243769 -18.742172 7.585151
21.192455 -18.434301 7.577226
21.145891 -18.121315 7.575628
21.099787 -17.801815 7.579278
21.049234 -17.477016 7.586107
21.003431 -17.143188 7.589666
20.942791 -16.804585 7.593159
20.847300 -16.465857 7.600051
20.742149 -16.119715 7.598450
20.637728 -15.762430 7.581276
20.526159 -15.395107 7.547798
20.408976 -15.025596 7.501210
20.299641 -14.673443 7.454280
20.189323 -14.339933 7.410959
20.070518 -14.025107 7.373862
19.941410 -13.727210 7.343480
19.824196 -13.436568 7.311028
19.708288 -13.154061 7.280212
19.602688 -12.873506 7.247036
19.499891 -12.594972 7.214114
19.389946 -12.319339 7.185046
19.269283 -12.045663 7.161026
19.149891 -11.766660 7.136860
19.022171 -11.483546 7.116128
18.886246 -11.193712 7.098431
18.746983 -10.892491 7.081443
18.608484 -10.575431 7.063140
18.464853 -10.242380 7.045628
18.315712 -9.890841 7.028738
18.164059 -9.532417 7.013537
18.020071 -9.190579 7.000568
17.881041 -8.865007 6.990633
17.743855 -8.554491 6.984365
17.610392 -8.255828 6.980666
17.478224 -7.968082 6.979909
17.347990 -7.687997 6.981416
17.229664 -7.408620 6.981170
17.108402 -7.134408 6.984125
16.980511 -6.865333 6.991002
16.849310 -6.596898 7.000060
16.716215 -6.326216 7.010397
16.575397 -6.053696 7.023316
16.429264 -5.775475 7.037573
16.273796 -5.491300 7.053854
16.110607 -5.197651 7.071182
15.940655 -4.891246 7.088811
15.768654 -4.567593 7.105049
15.582210 -4.229995 7.122963
15.386080 -3.895796 7.143293
15.194113 -3.582314 7.164918
15.010878 -3.284945 7.186437
14.837157 -2.999197 7.207307
14.670346 -2.724206 7.228169
14.512957 -2.454745 7.247925
14.368326 -2.186286 7.265705
14.231450 -1.918080 7.282361
14.106976 -1.646154 7.296678
13.984432 -1.371531 7.310945
13.864442 -1.093454 7.324944
13.747879 -0.806261 7.338003
13.641241 -0.507095 7.348234
13.536333 -0.194865 7.357408
13.416780 0.124422 7.369853
13.310547 0.466855 7.377512
13.205215 0.828874 7.383515
13.098515 1.205094 7.388661
13.029035 1.572370 7.383760
12.950843 1.915546 7.382395
12.884742 2.242642 7.378479
12.826538 2.558840 7.373016
12.751852 2.859884 7.374404
12.709602 3.161290 7.365825
12.655830 3.455667 7.362331
12.598247 3.748914 7.361451
12.547767 4.044994 7.358627
12.499928 4.346455 7.355118
12.453294 4.654849 7.351006
12.381227 4.969702 7.357588
12.305141 5.295251 7.365372
12.208202 5.632836 7.381452
12.093018 5.982834 7.404384
11.936004 6.340503 7.444956
11.777199 6.674306 7.490213
11.631845 6.973821 7.533859
11.502383 7.257912 7.572489
11.381546 7.529912 7.609251
11.262318 7.800594 7.645999
11.146220 8.078652 7.681151
11.029630 8.370392 7.714619
10.903488 8.678346 7.746632
10.784880 9.020802 7.770152
10.670840 9.390713 7.783109
10.569241 9.732701 7.781229
10.480993 10.048900 7.766564
10.399702 10.346607 7.744701
10.299496 10.630420 7.727800
10.215547 10.919294 7.706243
10.113189 11.214281 7.696514
9.980607 11.516599 7.709056
9.823568 11.838649 7.744452
9.656116 12.179399 7.799160
9.495882 12.471002 7.880057
9.330629 12.714706 7.985814
9.180067 12.950595 8.089797
9.034215 13.202315 8.187799
8.880188 13.481550 8.274966
8.702535 13.796426 8.347827
8.530025 14.131311 8.392878
8.388220 14.447503 8.408726
8.236968 14.729711 8.428720
8.077088 14.988882 8.454926
7.909987 15.236800 8.486552
7.735721 15.485142 8.517457
7.543613 15.732586 8.561747
7.330167 15.990152 8.615051
7.086744 16.257513 8.690423
6.824932 16.518394 8.789250
6.582362 16.738537 8.880253
6.349632 16.928545 8.952220
6.115335 17.107191 8.998963
5.864635 17.283928 9.023421
5.589077 17.468584 9.035890
5.277013 17.665728 9.053569
4.956581 17.843473 9.106106
4.667409 17.973928 9.173542
4.389818 18.075123 9.239324
4.101462 18.166365 9.286308
3.779978 18.274145 9.273915
3.413881 18.382406 9.264905
3.082450 18.439949 9.285769
2.781413 18.459831 9.321891
2.477583 18.472960 9.353169
2.139806 18.495865 9.398125
1.766467 18.551081 9.429566
1.438098 18.613472 9.465707
1.138407 18.681522 9.484503
0.846244 18.744160 9.502055
0.537013 18.794481 9.521581
0.187014 18.821020 9.566063
-0.190572 18.833080 9.591904
-0.523305 18.841194 9.574234
-0.827423 18.839666 9.537020
-1.123407 18.826698 9.486635
-1.433955 18.800961 9.436834
-1.779686 18.763063 9.386263
-2.153712 18.716496 9.334838
-2.485573 18.669027 9.293139
-2.789307 18.610706 9.295038
-3.080446 18.549335 9.262877
-3.380482 18.475597 9.227627
-3.708823 18.383612 9.186831
-4.069699 18.273130 9.140283
-4.387562 18.173656 9.089565
-4.669320 18.077375 9.022915
-4.940997 17.960600 8.946849
-5.227426 17.805269 8.854362
-5.532733 17.602545 8.764868
-5.781021 17.396317 8.692889
-5.988294 17.188688 8.617780
-6.186507 16.972908 8.532128
-6.409121 16.746529 8.420726
-6.678765 16.508574 8.287337
-6.953795 16.313364 8.130806
-7.219800 16.153444 7.975754
-7.482121 16.016289 7.822292
-7.743421 15.895548 7.670390
-7.999093 15.759499 7.540284
-8.243298 15.563340 7.451117
-8.454168 15.320284 7.401413
-8.630850 15.010859 7.390433
-8.792534 14.700236 7.378649
-8.962496 14.376773 7.359212
-9.183684 14.060086 7.309506
-9.348393 13.730882 7.302792
-9.465892 13.409577 7.324654
-9.558275 13.100120 7.360579
-9.637762 12.801323 7.404359
-9.719888 12.510173 7.449537
-9.796211 12.219356 7.499851
-9.867322 11.926258 7.553522
-9.955471 11.630509 7.600564
-10.033889 11.325876 7.649700
-10.077900 11.005956 7.708066
-10.139029 10.669428 7.756166
-10.229224 10.317785 7.787726
-10.314910 9.938354 7.813362
-10.415164 9.583437 7.820363
-10.522430 9.259474 7.812551
-10.644191 8.966306 7.788954
-10.753780 8.680445 7.761935
-10.877417 8.409818 7.724408
-11.007873 8.142881 7.681108
-11.146769 7.867682 7.633272
-11.294775 7.577693 7.582331
-11.439026 7.252210 7.534702
-11.586056 6.893749 7.489599
-11.720972 6.543530 7.448542
-11.829412 6.204628 7.416001
-11.911801 5.875897 7.392001
-11.973104 5.557686 7.375041
-12.027468 5.248508 7.359791
-12.069519 4.945960 7.348615
-12.110999 4.648265 7.336925
-12.147675 4.352079 7.326615
-12.185102 4.055161 7.315526
-12.227655 3.755030 7.301903
-12.267510 3.447295 7.289288
-12.324203 3.132521 7.269264
-12.399238 2.808864 7.241175
-12.470599 2.467793 7.215009
-12.547142 2.107580 7.187054
-12.638527 1.730304 7.153017
-12.735361 1.364923 7.115715
-12.816972 1.014126 7.083961
-12.892633 0.678330 7.053559
-12.973688 0.358557 7.019639
-13.060183 0.052976 6.982533
-13.146397 -0.243497 6.944829
-13.234105 -0.532394 6.906054
-13.313042 -0.819829 6.870215
-13.407890 -1.099570 6.828219
-13.505443 -1.378565 6.785368
-13.597033 -1.663220 6.744777
-13.690041 -1.952928 6.703917
-13.786880 -2.249496 6.662155
-13.887436 -2.555471 6.619651
-14.003094 -2.868934 6.572939
-14.141276 -3.189817 6.519440
-14.289777 -3.525340 6.463071
-14.441694 -3.880234 6.405740
-14.588009 -4.230542 6.350158
-14.734523 -4.560572 6.293468
-14.879219 -4.873475 6.235618
-15.015757 -5.174177 6.178802
-15.135087 -5.468767 6.127588
-15.255066 -5.752654 6.073795
-15.364371 -6.033175 6.023722
-15.459486 -6.314039 5.980778
-15.545771 -6.596082 5.943896
-15.622350 -6.883136 5.915447
-15.698527 -7.173098 5.890563
-15.769041 -7.472125 5.874810
-15.843532 -7.777806 5.861469
-15.928341 -8.090463 5.845008
-16.017323 -8.415122 5.831243
-16.133257 -8.743117 5.796304
-16.257723 -9.085855 5.758431
-16.390759 -9.446049 5.718078
-16.554943 -9.787096 5.640189
-16.673273 -10.130962 5.608278
-16.798203 -10.451451 5.562168
-16.933077 -10.748144 5.498921
-17.080692 -11.021257 5.417356
-17.207878 -11.298628 5.358593
-17.326006 -11.575623 5.309881
-17.438755 -11.852349 5.267893
-17.546740 -12.131420 5.232954
-17.648645 -12.415094 5.207541
-17.736795 -12.710063 5.198949
-17.833109 -13.009076 5.190310
-17.953220 -13.303755 5.167914
-18.113182 -13.603112 5.127189
-18.291553 -13.916112 5.085884
-18.480453 -14.256207 5.054451
-18.643778 -14.611958 5.042793
-18.787861 -14.957706 5.028681
-18.920042 -15.294827 5.010205
-19.034725 -15.623495 4.995469
-19.130121 -15.949781 4.992569
-19.206804 -16.268085 5.006408
-19.261341 -16.586124 5.048158
-19.300766 -16.893353 5.118282
-19.341570 -17.197277 5.203506
-19.390446 -17.493874 5.303564
-19.438555 -17.782007 5.426647
-19.495651 -18.067532 5.572032
-19.553492 -18.346893 5.747993
-19.626459 -18.626795 5.945322
-19.715576 -18.909195 6.167271
-19.866350 -19.210735 6.373595
-20.013729 -19.494057 6.587746
-20.173567 -19.764320 6.801504
-20.375305 -20.020473 7.000042
-20.586292 -20.250919 7.227759
-20.818911 -20.432884 7.468213
-21.065084 -20.569126 7.741894
-21.151134 -20.624653 8.068795
-20.999195 -20.683523 8.419149
-20.560011 -20.836920 8.768318
-20.491943 -20.977497 9.064672
-20.519596 -21.097490 9.355249
-20.597216 -21.195606 9.648407
-20.701056 -21.277279 9.945266
-20.814558 -21.356598 10.247619
-20.928434 -21.448025 10.554877
-21.058165 -21.546835 10.868778
-21.199709 -21.662397 11.189009
-21.377476 -21.770353 11.514134
-21.585836 -21.846760 11.828403
-21.802492 -21.884359 12.113019
-22.020754 -21.903412 12.373672
-22.233614 -21.918474 12.612667
