-24.143085 -24.383503 8.661413
-24.419010 -24.346205 8.487799
-24.707596 -24.307198 8.299461
-25.012453 -24.258854 8.106293
-25.323713 -24.176184 7.910673
-25.605381 -24.018625 7.706079
-25.862112 -23.800049 7.491093
-26.147589 -23.605795 7.294928
-26.441898 -23.457615 7.132924
-26.727421 -23.325413 6.992656
-26.999168 -23.193661 6.864773
-27.262808 -23.064243 6.745759
-27.444931 -22.839842 6.616532
-27.639225 -22.641260 6.498948
-27.845190 -22.457062 6.380084
-28.055073 -22.266464 6.256109
-28.269613 -22.070513 6.124168
-28.491112 -21.861750 5.980291
-28.715643 -21.635151 5.820714
-28.946754 -21.388519 5.641916
-29.143929 -21.121809 5.442292
-29.297102 -20.860729 5.228446
-29.410728 -20.606625 5.003905
-29.436850 -20.339972 4.763304
-29.303450 -20.041994 4.482790
-29.275774 -19.848883 4.208447
-29.374302 -19.694595 3.960905
-29.562204 -19.521776 3.746933
-29.808298 -19.299732 3.605595
-30.025742 -19.026798 3.522763
-30.221548 -18.709415 3.493546
-30.359802 -18.363302 3.489854
-30.455894 -17.984453 3.498853
-30.516510 -17.617182 3.514474
-30.559668 -17.270441 3.549057
-30.592115 -16.942963 3.604316
-30.613352 -16.630337 3.677673
-30.578360 -16.317888 3.731394
-30.536158 -16.016487 3.807008
-30.506512 -15.728476 3.913021
-30.451897 -15.443203 4.022610
-30.397743 -15.163194 4.146075
-30.338882 -14.885269 4.278845
-30.317820 -14.608302 4.433448
-30.340012 -14.327174 4.602027
-30.394686 -14.032277 4.772986
-30.418560 -13.719509 4.924750
-30.401648 -13.388434 5.057058
-30.373762 -13.038193 5.177372
-30.350933 -12.666030 5.286494
-30.368015 -12.294414 5.388400
-30.393917 -11.941525 5.480585
-30.420818 -11.604690 5.564036
-30.448353 -11.280970 5.640045
-30.445238 -10.968586 5.708732
-30.431259 -10.665285 5.771958
-30.408752 -10.366439 5.832012
-30.362240 -10.073404 5.887910
-30.320204 -9.778529 5.943162
-30.262917 -9.484322 5.996672
-30.198334 -9.184274 6.050528
-30.137798 -8.875887 6.106423
-30.074625 -8.558038 6.164805
-29.966488 -8.233231 6.223112
-29.853203 -7.894064 6.285891
-29.748220 -7.533190 6.356053
-29.628609 -7.170691 6.428891
-29.477808 -6.839068 6.497384
-29.256178 -6.551778 6.558178
-29.125656 -6.254074 6.626665
-29.066977 -5.948337 6.698693
-29.005789 -5.648850 6.768700
-28.939888 -5.357733 6.835548
-28.905617 -5.054730 6.901690
-28.769968 -4.793961 6.959840
-28.655203 -4.522524 7.017072
-28.587971 -4.224768 7.073723
-28.483536 -3.935792 7.126553
-28.343758 -3.652203 7.176486
-28.187128 -3.362770 7.223842
-28.043083 -3.051160 7.269549
-27.889866 -2.723734 7.312810
-27.725863 -2.378265 7.353425
-27.564575 -2.031435 7.388487
-27.393723 -1.717062 7.412911
-27.230633 -1.422534 7.427133
-27.091059 -1.136550 7.434601
-26.960924 -0.858975 7.434765
-26.849846 -0.579849 7.432610
-26.748981 -0.298200 7.428509
-26.644384 -0.014634 7.420371
-26.536572 0.276232 7.409125
-26.434347 0.583432 7.399261
-26.320728 0.904685 7.384900
-26.188789 1.242142 7.362765
-26.036900 1.598195 7.332064
-25.934704 1.961478 7.320934
-25.823452 2.295892 7.298710
-25.736511 2.618602 7.281829
-25.647882 2.924888 7.258671
-25.577641 3.225852 7.238245
-25.513708 3.522189 7.215548
-25.456652 3.817750 7.190121
-25.405540 4.119104 7.161525
-25.333841 4.417295 7.121131
-25.233751 4.718349 7.068047
-25.075483 5.008660 6.997716
-24.889744 5.299696 6.919993
-24.685450 5.604780 6.836813
-24.438562 5.905626 6.743284
-24.235773 6.204691 6.654555
-24.060431 6.492166 6.566614
-23.896927 6.762243 6.478271
-23.731716 7.013367 6.386890
-23.614742 7.288645 6.300974
-23.505655 7.563881 6.215238
-23.417780 7.854747 6.132781
-23.226864 8.068357 6.033801
-23.064251 8.310253 5.939927
-22.908199 8.568221 5.848788
-22.733149 8.826733 5.755631
-22.523859 9.082669 5.657905
-22.284525 9.343755 5.556793
-22.057720 9.645631 5.461714
-21.843216 9.944654 5.375716
-21.633322 10.220641 5.298152
-21.444305 10.489276 5.230737
-21.265135 10.747720 5.171099
-21.087517 10.994887 5.116725
-20.912590 11.236816 5.067289
-20.746977 11.481439 5.022149
-20.585239 11.729803 4.979356
-20.425217 11.986176 4.937207
-20.283596 12.263761 4.894725
-20.150896 12.563006 4.848754
-20.067129 12.914986 4.796447
-19.909023 13.247623 4.736314
-19.741596 13.595685 4.668328
-19.594913 13.932067 4.596677
-19.447239 14.239691 4.525080
-19.305485 14.531301 4.453735
-19.166258 14.808032 4.383981
-19.033274 15.077288 4.316600
-18.894814 15.336876 4.253220
-18.742477 15.588118 4.195158
-18.570885 15.829812 4.143954
-18.375723 16.073437 4.100038
-18.134922 16.305283 4.066040
-17.795368 16.509701 4.044768
-17.529121 16.798498 4.027876
-17.355408 17.133724 4.019693
-17.136524 17.421753 4.027171
-16.913977 17.693750 4.045779
-16.671944 17.942043 4.074387
-16.519945 18.217251 4.106758
-16.424784 18.500263 4.142760
-16.442440 18.829418 4.177238
-16.431454 19.149427 4.213224
-16.354349 19.452930 4.249560
-16.266064 19.767401 4.282032
-16.113728 20.069174 4.310909
-15.918686 20.370560 4.333313
-15.648475 20.647243 4.349365
-15.374356 20.889694 4.351966
-15.124862 21.102711 4.340674
-14.910847 21.345829 4.314839
-14.658876 21.523977 4.287349
-14.385286 21.666107 4.260229
-14.102429 21.798683 4.239250
-13.811000 21.939110 4.224214
-13.497175 22.079697 4.216276
-13.152783 22.223503 4.217868
-12.784227 22.367775 4.229924
-12.452924 22.527882 4.250747
-12.186253 22.747906 4.281415
-11.971038 23.011013 4.316741
-11.701898 23.173092 4.352145
-11.461766 23.360350 4.389607
-11.230720 23.550976 4.426986
-10.990473 23.725164 4.464053
-10.736793 23.882374 4.500686
-10.480089 24.044704 4.534901
-10.216972 24.213522 4.564871
-9.934603 24.375708 4.590685
-9.643294 24.554787 4.609242
-9.335493 24.746075 4.619908
-9.000767 24.938662 4.622544
-8.670101 25.121756 4.613412
-8.359256 25.285629 4.592450
-8.074873 25.451496 4.560200
-7.799457 25.600279 4.520721
-7.532605 25.741938 4.475544
-7.279144 25.895632 4.425388
-6.998425 25.997717 4.378212
-6.721498 26.119902 4.330141
-6.433706 26.243755 4.285184
-6.126154 26.370239 4.245653
-5.794992 26.501722 4.213736
-5.434425 26.640806 4.191369
-5.072195 26.763004 4.176203
-4.730497 26.891396 4.163398
-4.401667 27.008003 4.154219
-4.084517 27.118418 4.147871
-3.774956 27.213575 4.144838
-3.477517 27.323008 4.142231
-3.185653 27.432783 4.140960
-2.892623 27.515789 4.143093
-2.596345 27.584621 4.147216
-2.297044 27.628044 4.154009
-1.990234 27.648819 4.162922
-1.677991 27.651390 4.173256
-1.358365 27.629019 4.185298
-1.032765 27.621397 4.195267
-0.695376 27.606493 4.204782
-0.346774 27.609541 4.211329
0.017209 27.682787 4.210027
0.401915 27.756262 4.206694
0.784385 27.753603 4.207159
1.141220 27.702173 4.208872
1.476145 27.662628 4.207112
1.797959 27.644129 4.201670
2.109974 27.635672 4.194094
2.418079 27.626358 4.185925
2.719726 27.591438 4.179919
3.019697 27.536062 4.176210
3.321671 27.473671 4.174214
3.629045 27.395329 4.179702
3.939811 27.293646 4.189496
4.251530 27.145636 4.200798
4.584146 27.004950 4.213778
4.934106 26.846994 4.228822
5.288682 26.698349 4.249176
5.615544 26.552158 4.274638
5.915014 26.400547 4.303450
6.210104 26.281067 4.340754
6.489693 26.157652 4.380091
6.757436 26.025587 4.420391
7.027928 25.903479 4.463087
7.294086 25.769499 4.504177
7.563588 25.629107 4.543559
7.833984 25.469660 4.579145
8.121327 25.311211 4.612252
8.424846 25.143654 4.640987
8.750702 24.969271 4.664727
9.093881 24.786251 4.682387
9.428044 24.634018 4.697086
9.740013 24.491007 4.707405
10.038478 24.363260 4.714807
10.319338 24.229311 4.716921
10.586284 24.086103 4.712818
10.853486 23.950056 4.706855
11.118932 23.806938 4.697070
11.388950 23.655821 4.684626
11.667499 23.494173 4.670300
11.951125 23.304949 4.649975
12.243296 23.086706 4.624170
12.541889 22.838717 4.593157
12.825823 22.603710 4.565428
13.086099 22.378355 4.538548
13.332263 22.167377 4.514414
13.559894 21.957258 4.488616
13.774607 21.745863 4.461076
13.980765 21.533022 4.431673
14.172037 21.303722 4.397511
14.368900 21.073259 4.361641
14.586544 20.845402 4.322982
14.827175 20.616934 4.279764
15.081057 20.371824 4.229624
15.345760 20.102436 4.172357
15.611294 19.834337 4.101332
15.849202 19.581453 4.012934
16.059744 19.335297 3.912461
16.260967 19.103006 3.808169
16.448492 18.871580 3.704302
16.623632 18.636276 3.606515
16.778278 18.386961 3.517210
16.941948 18.132698 3.448659
17.091112 17.853323 3.396422
17.237570 17.547281 3.369770
17.406721 17.220186 3.383283
17.553799 16.860138 3.420063
17.682165 16.517864 3.471678
17.815701 16.204590 3.544186
17.942520 15.910129 3.630569
18.061953 15.629284 3.728475
18.179508 15.361531 3.836683
18.281809 15.096259 3.949948
18.383785 14.837405 4.070189
18.482000 14.579881 4.195373
18.576315 14.320347 4.323413
18.674198 14.058482 4.455033
18.770252 13.788840 4.587263
18.882284 13.515532 4.722871
19.006092 13.234336 4.858173
19.149794 12.944740 4.994183
19.333666 12.655271 5.129181
19.551907 12.361574 5.260385
19.769899 12.074604 5.383441
19.980947 11.818040 5.497792
20.171984 11.575840 5.604473
20.356590 11.344019 5.706339
20.537231 11.119700 5.803255
20.720125 10.899103 5.896117
20.901381 10.672990 5.985119
21.086418 10.440460 6.070145
21.279285 10.197639 6.151673
21.487001 9.943501 6.230193
21.709238 9.666450 6.307438
21.922323 9.350969 6.382584
22.119579 9.045135 6.444816
22.288254 8.748569 6.493467
22.431513 8.458237 6.530622
22.559263 8.174873 6.558739
22.656958 7.886555 6.578076
22.757662 7.603716 6.593493
22.874212 7.326599 6.609290
23.005745 7.049220 6.628025
23.149052 6.766600 6.651465
23.305099 6.472502 6.681693
23.528118 6.195437 6.731808
23.715235 5.870617 6.781842
23.938725 5.560904 6.846776
24.164406 5.284623 6.917007
24.389111 5.035192 6.989736
24.536741 4.743125 7.051914
24.715488 4.490983 7.121836
24.895805 4.250650 7.193066
25.061749 4.005023 7.262680
25.230198 3.764114 7.331337
25.399424 3.522700 7.397345
25.574354 3.279496 7.459384
25.756540 3.028391 7.516625
25.923559 2.751307 7.566377
26.065659 2.438362 7.607063
26.175072 2.087965 7.636927
26.408110 1.769492 7.664685
26.494686 1.400590 7.674705
26.569395 1.052884 7.675977
26.649382 0.725030 7.670848
26.738815 0.419484 7.661264
26.776814 0.106890 7.640156
26.831438 -0.186847 7.617541
26.912891 -0.468877 7.594062
27.074244 -0.735828 7.579667
27.168816 -1.018747 7.554928
27.209749 -1.318096 7.520195
27.276102 -1.618349 7.488673
27.382902 -1.921564 7.464717
27.458805 -2.242348 7.435410
27.578684 -2.569871 7.416722
27.695499 -2.914341 7.399510
27.783966 -3.283570 7.377495
27.862595 -3.664904 7.354946
27.989880 -4.016313 7.348510
28.097925 -4.352989 7.340456
28.202520 -4.674356 7.334604
28.301664 -4.984230 7.329798
28.424082 -5.279337 7.334649
28.492647 -5.578438 7.324550
28.534725 -5.876637 7.306882
28.597343 -6.170727 7.296347
28.670359 -6.464774 7.289600
28.729036 -6.763453 7.278069
28.751799 -7.075115 7.252971
28.753986 -7.396286 7.219267
28.732395 -7.732297 7.174849
28.727345 -8.079397 7.134342
28.705080 -8.445120 7.084879
28.737930 -8.826095 7.053280
28.841007 -9.205773 7.048963
28.942308 -9.566011 7.048905
28.977751 -9.910064 7.028243
28.989775 -10.240659 7.002007
29.004963 -10.557268 6.979168
29.033543 -10.866323 6.962111
29.056919 -11.169599 6.943221
29.064304 -11.468311 6.918234
29.068342 -11.768156 6.890512
29.060741 -12.069795 6.857049
29.045097 -12.377833 6.817763
29.016670 -12.694446 6.771378
28.986059 -13.023879 6.719247
28.949751 -13.369066 6.660271
28.900597 -13.733678 6.590756
28.829830 -14.116851 6.505700
28.834730 -14.487566 6.419301
28.864326 -14.838381 6.319862
28.894962 -15.171515 6.204886
28.927872 -15.490462 6.080897
28.971872 -15.798750 5.956221
29.022852 -16.099731 5.835285
29.057848 -16.395168 5.714913
29.099899 -16.689638 5.609204
29.131031 -16.985542 5.517358
29.146992 -17.285246 5.441818
29.145451 -17.592102 5.389837
29.115345 -17.908237 5.360222
29.059227 -18.236908 5.361382
28.958153 -18.579506 5.391901
28.898985 -18.946836 5.488441
28.592175 -19.269585 5.541427
28.306274 -19.549875 5.654048
28.067722 -19.791849 5.807955
27.918240 -19.988766 6.022193
27.879658 -20.174007 6.272738
27.943970 -20.360220 6.540692
28.069523 -20.574825 6.828839
28.064905 -20.756723 7.096684
28.006603 -20.925936 7.364356
27.913694 -21.092468 7.633317
27.788101 -21.254753 7.896118
27.649527 -21.433372 8.155890
27.499212 -21.632143 8.407910
27.336456 -21.861826 8.647810
27.159525 -22.125568 8.872371
26.835686 -22.268171 9.045943
26.595974 -22.468035 9.171788
26.389950 -22.685404 9.257781
26.173044 -22.897228 9.313248
25.935575 -23.102547 9.349439
25.671392 -23.288912 9.376612
25.370304 -23.435587 9.404287
25.035032 -23.551226 9.444567
24.662571 -23.615505 9.507015
24.276133 -23.615166 9.587318
23.922565 -23.624371 9.677079
23.599421 -23.674191 9.773873
23.299068 -23.705328 9.867377
23.013107 -23.600157 9.929215
22.730146 -23.569309 9.983615
22.466436 -23.559809 10.024908
22.153366 -23.533476 10.057694
21.784891 -23.547091 10.090548
21.338154 -23.554888 10.102796
20.918957 -23.530554 10.095523
20.552361 -23.432053 10.060325
20.207399 -23.327595 10.018339
19.903662 -23.162367 9.949690
19.633293 -22.963104 9.866498
19.437193 -22.704556 9.754483
19.271790 -22.418919 9.625551
19.116905 -22.150057 9.498552
18.961849 -21.889786 9.373277
18.793621 -21.647760 9.258595
18.622280 -21.407120 9.149967
18.416443 -21.182770 9.061256
18.262497 -20.908361 8.955412
18.076235 -20.641060 8.869984
17.880411 -20.356136 8.794989
17.634388 -20.076054 8.746154
17.436338 -19.748341 8.689240
17.381729 -19.384146 8.613081
17.363348 -19.061087 8.561704
17.293243 -18.761793 8.549612
17.259859 -18.475937 8.543293
17.246080 -18.185337 8.547827
17.240246 -17.881613 8.561176
17.202320 -17.570217 8.592997
17.158899 -17.245815 8.631654
17.121721 -16.912764 8.668819
17.080647 -16.572353 8.703347
17.083546 -16.220688 8.715049
17.107916 -15.852625 8.706923
17.143904 -15.457983 8.675575
17.173429 -15.078102 8.640118
17.164003 -14.724847 8.618440
17.138561 -14.391637 8.602615
17.107964 -14.073839 8.588363
17.085176 -13.765445 8.570091
17.049250 -13.465194 8.556525
16.980286 -13.172916 8.557993
16.870802 -12.885080 8.579179
16.787315 -12.590289 8.587361
16.716505 -12.285375 8.587714
16.643452 -11.968822 8.587187
16.581484 -11.634262 8.577784
16.507250 -11.281583 8.571745
16.440762 -10.903303 8.557282
16.351984 -10.531432 8.555131
16.265186 -10.184751 8.554360
16.186323 -9.857813 8.550711
16.097977 -9.549485 8.553594
16.011868 -9.253373 8.555342
15.958179 -8.957059 8.537786
15.903929 -8.663538 8.519486
15.835870 -8.372161 8.507509
15.764465 -8.075858 8.495060
15.676807 -7.773620 8.488589
15.587071 -7.457331 8.479393
15.501628 -7.120827 8.463465
15.398516 -6.765418 8.451855
15.289890 -6.391101 8.437713
15.177262 -6.037067 8.422356
15.066968 -5.704716 8.403557
14.983407 -5.383760 8.370412
14.895690 -5.078447 8.338876
14.787388 -4.789631 8.317085
14.686597 -4.505840 8.292540
14.591456 -4.223698 8.267018
14.507897 -3.937691 8.238853
14.423344 -3.647576 8.214458
14.340027 -3.348909 8.193666
14.252579 -3.039395 8.179412
14.166839 -2.713636 8.170140
14.080282 -2.368508 8.167628
13.989036 -2.001223 8.174111
13.887413 -1.627592 8.193681
13.874968 -1.257789 8.191848
13.820119 -0.921408 8.215763
13.730321 -0.610809 8.260864
13.658794 -0.309651 8.305849
13.623191 -0.009976 8.343998
13.596386 0.286410 8.383291
13.574871 0.583061 8.423777
13.554601 0.883363 8.465339
13.535392 1.192079 8.506865
13.443520 1.496526 8.569539
13.353209 1.817533 8.628883
13.260623 2.158025 8.684093
13.140126 2.515759 8.742117
13.058370 2.891224 8.783359
13.001920 3.247377 8.814859
12.965415 3.587564 8.838511
12.903725 3.903186 8.867681
12.837700 4.205181 8.896352
12.756748 4.494274 8.927446
12.663969 4.776114 8.960361
12.588449 5.064246 8.986376
12.483240 5.349947 9.019805
12.383434 5.648138 9.050304
12.270041 5.958877 9.084000
12.184247 6.297897 9.107834
12.099081 6.662337 9.130244
12.021129 7.039913 9.149426
12.000915 7.397946 9.147234
11.884089 7.712036 9.182413
11.796195 8.014859 9.207579
11.724425 8.309832 9.226119
11.677800 8.604592 9.231072
11.642751 8.903985 9.226210
11.593483 9.212483 9.222382
11.550251 9.540173 9.206854
11.494688 9.893227 9.187243
11.409136 10.269638 9.173408
11.306532 10.619197 9.163393
11.197608 10.934482 9.153365
11.087714 11.226756 9.140330
10.978610 11.506808 9.123340
10.872098 11.785303 9.101451
10.767952 12.072348 9.075081
10.647313 12.370920 9.059251
10.516288 12.693174 9.050056
10.371804 13.046934 9.050955
10.233507 13.391711 9.065414
10.120961 13.711112 9.081770
10.034843 14.014950 9.089289
9.946612 14.304534 9.103121
9.853516 14.587952 9.116151
9.753651 14.877953 9.120462
9.639917 15.182247 9.111254
9.494581 15.508522 9.095010
9.290180 15.831394 9.096364
9.069921 16.088825 9.103774
8.841600 16.297485 9.109072
8.598846 16.474743 9.117772
8.353380 16.667961 9.102023
8.080059 16.873749 9.092525
7.830032 17.165409 9.020935
7.586452 17.424179 8.973395
7.339496 17.628008 8.964833
7.101361 17.814682 8.958957
6.859285 17.997017 8.949127
6.591241 18.176058 8.944379
6.286795 18.369980 8.930391
5.959483 18.563547 8.922626
5.660947 18.735151 8.925082
5.377636 18.879705 8.942003
5.104794 19.012192 8.953209
4.833419 19.138300 8.953104
4.548868 19.262236 8.938806
4.238136 19.382095 8.912809
3.883694 19.487045 8.884017
3.515105 19.584070 8.843099
3.171893 19.663624 8.798309
2.848976 19.730278 8.749531
2.535554 19.764872 8.713947
2.233464 19.793951 8.673623
1.934039 19.808298 8.638402
1.637496 19.840652 8.587487
1.332049 19.871532 8.538699
1.010931 19.862625 8.522573
0.671320 19.850981 8.514787
0.308503 19.836031 8.519390
-0.079136 19.820818 8.536596
-0.448876 19.811726 8.559280
-0.792671 19.801821 8.589745
-1.116601 19.797867 8.621250
-1.425613 19.788221 8.660358
-1.724851 19.772724 8.705453
-2.021311 19.758156 8.749521
-2.316056 19.724556 8.806341
-2.612380 19.669212 8.877070
-2.926081 19.626560 8.931938
-3.257661 19.577955 8.983902
-3.610308 19.516205 9.037342
-3.980967 19.425348 9.104881
-4.323611 19.320766 9.174845
-4.630593 19.214525 9.236472
-4.913227 19.104797 9.291922
-5.187891 18.995092 9.336102
-5.460783 18.879677 9.375998
-5.750399 18.765957 9.403875
-6.065113 18.650970 9.422908
-6.415378 18.533941 9.432753
-6.775174 18.403761 9.446367
-7.086152 18.265175 9.469286
-7.366814 18.127447 9.489940
-7.630801 17.983318 9.508822
-7.890532 17.825897 9.526860
-8.157413 17.643740 9.548397
-8.445804 17.431061 9.571351
-8.745028 17.196920 9.596987
-9.001877 16.975853 9.629700
-9.229056 16.764021 9.659615
-9.434438 16.546669 9.689343
-9.633532 16.315397 9.710978
-9.845034 16.064623 9.714623
-10.072012 15.776708 9.706748
-10.282611 15.468459 9.697138
-10.457575 15.190546 9.670951
-10.600634 14.922628 9.639804
-10.738173 14.658846 9.589683
-10.859791 14.368573 9.548851
-10.992893 14.043361 9.500932
-11.125854 13.683265 9.464945
-11.218343 13.336243 9.465242
-11.306072 13.014761 9.456691
-11.387316 12.711593 9.444186
-11.474975 12.422788 9.416308
-11.561558 12.139102 9.385122
-11.653889 11.854262 9.346839
-11.731394 11.555845 9.325713
-11.809247 11.241750 9.307379
-11.874606 10.902798 9.306086
-11.939708 10.535301 9.311245
-11.979813 10.151351 9.343524
-11.991825 9.798204 9.397107
-11.978081 9.468375 9.469367
-12.033069 9.165449 9.479170
-12.074746 8.868348 9.498989
-12.109702 8.571922 9.522323
-12.167416 8.270827 9.524246
-12.237684 7.961472 9.512130
-12.326165 7.636814 9.480541
-12.394873 7.287354 9.461250
-12.471210 6.910139 9.430655
-12.546492 6.542620 9.393250
-12.630686 6.201719 9.340239
-12.685146 5.873615 9.306231
-12.749707 5.564008 9.258053
-12.828445 5.271544 9.193452
-12.912507 4.989432 9.121032
-12.994277 4.709933 9.049091
-13.067212 4.427622 8.984723
-13.115211 4.130854 8.944124
-13.153381 3.821415 8.915140
-13.203671 3.503008 8.879750
-13.252094 3.166575 8.851105
-13.301532 2.809416 8.828433
-13.357171 2.429680 8.807560
-13.414476 2.046703 8.787533
-13.476460 1.689232 8.759422
-13.540877 1.352777 8.726457
-13.618586 1.037660 8.681577
-13.710687 0.740242 8.626508
-13.783201 0.445470 8.587772
-13.882757 0.165379 8.532928
-13.938987 -0.127439 8.510684
-13.987813 -0.424421 8.495627
-14.049316 -0.722671 8.476173
-14.121751 -1.026388 8.454567
-14.201489 -1.340625 8.434900
-14.313107 -1.660914 8.404063
-14.455929 -1.991307 8.364607
-14.604689 -2.343668 8.330059
-14.751266 -2.701748 8.304355
-14.876054 -3.041583 8.296425
-14.992952 -3.362484 8.298316
-15.105009 -3.667569 8.306645
-15.205582 -3.963110 8.325583
-15.296656 -4.252551 8.353391
-15.428364 -4.523733 8.356014
-15.555149 -4.795636 8.360765
-15.690600 -5.067732 8.356788
-15.798384 -5.355885 8.371880
-15.890565 -5.659618 8.400121
-15.978049 -5.980155 8.432328
-16.025372 -6.334116 8.505155
-16.131254 -6.692731 8.521168
-16.290350 -7.049383 8.476833
-16.416285 -7.393081 8.456385
-16.514160 -7.723275 8.456654
-16.585682 -8.045146 8.477658
-16.666725 -8.348913 8.479974
-16.748621 -8.642122 8.473639
-16.842749 -8.924716 8.447063
-16.951262 -9.200360 8.399446
-17.056427 -9.481627 8.351501
-17.158377 -9.773578 8.304382
-17.250326 -10.083699 8.265827
-17.340794 -10.413127 8.227597
-17.420143 -10.769945 8.200039
-17.525883 -11.140928 8.145705
-17.611132 -11.499467 8.101357
-17.685036 -11.835313 8.057046
-17.745239 -12.154257 8.016526
-17.779367 -12.464870 7.992691
-17.815763 -12.764256 7.961028
-17.860785 -13.056390 7.918290
-17.891945 -13.352313 7.885605
-17.951948 -13.646589 7.828915
-18.032215 -13.946395 7.757977
-18.065300 -14.273767 7.728186
-18.061474 -14.632516 7.730926
-18.142597 -14.995543 7.672789
-18.216421 -15.373591 7.618289
-18.222322 -15.746761 7.598865
-18.211376 -16.104099 7.582056
-18.184662 -16.449377 7.573152
-18.199341 -16.771526 7.526464
-18.230717 -17.080050 7.466136
-18.271776 -17.380835 7.402770
-18.382019 -17.657534 7.278525
-18.428198 -17.957697 7.242332
-18.483479 -18.261806 7.223313
-18.588245 -18.560720 7.184575
-18.725384 -18.864075 7.145375
-18.906517 -19.172663 7.104868
-19.072567 -19.510979 7.141109
-19.268112 -19.846205 7.182037
-19.465389 -20.163378 7.233163
-19.720564 -20.448957 7.240776
-19.931709 -20.730659 7.314505
-20.115490 -20.995918 7.428391
-20.291178 -21.248362 7.557508
-20.407471 -21.499063 7.733908
-20.509958 -21.749613 7.915608
-20.524200 -22.035707 8.137741
-20.660448 -22.278116 8.289827
-20.813454 -22.517469 8.433570
-20.987890 -22.752144 8.567128
-21.186460 -22.974588 8.684944
-21.413952 -23.190184 8.790241
-21.659229 -23.397331 8.879992
-21.937710 -23.594973 8.951334
-22.254091 -23.765457 8.999682
-22.589495 -23.931772 9.027629
-22.956228 -24.076601 9.030327
-23.279545 -24.220562 8.997993
-23.570753 -24.353060 8.927960
-23.862913 -24.387863 8.810256
