-24.145039 -24.383224 8.660263
-24.420649 -24.345993 8.486732
-24.709021 -24.306915 8.298511
-25.013674 -24.258615 8.105403
-25.325188 -24.175556 7.909911
-25.606476 -24.017761 7.704664
-25.863340 -23.798998 7.490111
-26.148462 -23.605230 7.294348
-26.443033 -23.457029 7.132330
-26.728397 -23.324934 6.992153
-27.000029 -23.193310 6.864408
-27.263409 -23.063841 6.745461
-27.445419 -22.839224 6.616202
-27.639744 -22.640779 6.498649
-27.845629 -22.456661 6.379869
-28.055416 -22.266146 6.255930
-28.269865 -22.070276 6.124025
-28.491274 -21.861591 5.980188
-28.715723 -21.635071 5.820656
-28.946754 -21.388517 5.641916
-29.143854 -21.121920 5.442382
-29.296978 -20.860964 5.228628
-29.410627 -20.606918 5.004235
-29.436834 -20.340599 4.763824
-29.363527 -20.067083 4.494207
-29.416203 -19.888109 4.242523
-29.482971 -19.711771 3.996955
-29.610558 -19.526482 3.767067
-29.807112 -19.299273 3.606915
-30.026255 -19.027779 3.521838
-30.220888 -18.710041 3.493855
-30.359518 -18.364744 3.489673
-30.455534 -17.986185 3.498765
-30.516294 -17.618498 3.514473
-30.559467 -17.272285 3.548830
-30.591955 -16.944231 3.603775
-30.613476 -16.632277 3.677449
-30.578609 -16.319805 3.731120
-30.536469 -16.018265 3.806216
-30.506624 -15.730477 3.912411
-30.452320 -15.445060 4.021257
-30.398167 -15.165475 4.145096
-30.339079 -14.886608 4.278047
-30.317926 -14.610922 4.432075
-30.339722 -14.329697 4.600188
-30.394251 -14.035161 4.771649
-30.418617 -13.722468 4.923435
-30.401920 -13.391697 5.055864
-30.374033 -13.041768 5.176233
-30.351009 -12.669967 5.285411
-30.367733 -12.298302 5.387335
-30.393631 -11.945255 5.479767
-30.420446 -11.608373 5.563010
-30.448383 -11.284495 5.639407
-30.445282 -10.972770 5.707653
-30.431452 -10.668540 5.771335
-30.409344 -10.371134 5.831094
-30.362741 -10.076554 5.887291
-30.321142 -9.783489 5.942297
-30.263660 -9.487688 5.996054
-30.199100 -9.187924 6.049863
-30.138720 -8.881150 6.105475
-30.075577 -8.562246 6.164028
-29.968586 -8.238505 6.222161
-29.854706 -7.899357 6.284888
-29.749933 -7.539029 6.354895
-29.630650 -7.176155 6.427745
-29.483276 -6.843990 6.496492
-29.258142 -6.555553 6.557256
-29.128191 -6.260549 6.625173
-29.067854 -5.952487 6.697711
-29.006977 -5.654937 6.767313
-28.940716 -5.362687 6.834394
-28.907816 -5.059661 6.900588
-28.772818 -4.798777 6.958760
-28.656414 -4.528181 7.015963
-28.590042 -4.230253 7.072667
-28.486105 -3.941370 7.125583
-28.346794 -3.658028 7.175395
-28.190407 -3.368759 7.222956
-28.046211 -3.057710 7.268585
-27.893263 -2.730902 7.311950
-27.729492 -2.385907 7.352582
-27.568027 -2.038789 7.387812
-27.397661 -1.723591 7.412491
-27.234318 -1.429287 7.427057
-27.094107 -1.142813 7.434395
-26.963661 -0.865337 7.434983
-26.852150 -0.586416 7.432444
-26.751324 -0.304955 7.428679
-26.647003 -0.021522 7.420590
-26.538940 0.268777 7.409301
-26.437157 0.575739 7.399642
-26.323511 0.896264 7.385214
-26.191944 1.233113 7.363214
-26.041273 1.589090 7.333089
-25.937038 1.952189 7.321134
-25.826677 2.287163 7.299539
-25.738153 2.609933 7.282038
-25.649937 2.916420 7.259189
-25.578766 3.217344 7.238560
-25.515139 3.513713 7.216040
-25.458469 3.809273 7.191057
-25.406485 4.109874 7.162215
-25.336424 4.408305 7.122660
-25.238350 4.709579 7.070115
-25.080828 4.999822 6.999940
-24.895647 5.290551 6.922438
-24.692953 5.595812 6.839614
-24.445965 5.896555 6.746155
-24.241236 6.195139 6.657474
-24.065674 6.482975 6.569896
-23.902645 6.753845 6.482206
-23.735384 7.004175 6.391086
-23.617954 7.280231 6.305627
-23.507374 7.555677 6.220207
-23.420935 7.848868 6.138599
-23.230476 8.062327 6.040151
-23.068058 8.303832 5.946615
-22.912241 8.560414 5.855662
-22.739206 8.818137 5.762568
-22.531532 9.073645 5.664278
-22.293867 9.334579 5.561967
-22.066402 9.635441 5.464929
-21.852238 9.935700 5.378332
-21.644030 10.213773 5.302186
-21.455343 10.483975 5.237422
-21.278759 10.744560 5.181994
-21.103821 10.996259 5.132221
-20.934574 11.244402 5.088192
-20.777485 11.496298 5.048087
-20.624763 11.752747 5.009431
-20.480366 12.021369 4.969914
-20.361950 12.314331 4.927143
-20.263657 12.636861 4.876122
-20.214808 13.007956 4.812136
-20.086048 13.365284 4.737348
-19.973337 13.728577 4.653170
-19.862919 14.061309 4.564487
-19.751137 14.366143 4.473480
-19.638567 14.652382 4.381750
-19.531052 14.928153 4.291001
-19.411188 15.191350 4.203827
-19.273659 15.445203 4.122358
-19.109293 15.691092 4.048893
-18.919306 15.937132 3.985129
-18.678513 16.181995 3.933598
-18.343235 16.406981 3.898351
-18.107624 16.720039 3.871838
-17.922743 17.042727 3.858023
-17.714603 17.333185 3.858353
-17.482887 17.599182 3.870541
-17.255562 17.851576 3.892013
-17.114000 18.127522 3.917903
-17.036938 18.416933 3.947484
-17.051691 18.746483 3.976800
-17.028339 19.062094 4.008969
-16.952339 19.365366 4.042235
-16.857244 19.672922 4.073528
-16.722256 19.978161 4.101808
-16.540958 20.279850 4.125569
-16.305487 20.572065 4.143707
-16.018826 20.831350 4.154922
-15.765733 21.065714 4.154511
-15.537376 21.294443 4.143723
-15.323854 21.528687 4.124852
-15.065916 21.695425 4.107554
-14.798772 21.846169 4.090590
-14.522053 21.996902 4.078792
-14.230515 22.148699 4.072393
-13.913727 22.294920 4.071754
-13.563860 22.447201 4.077738
-13.199776 22.592735 4.090709
-12.864372 22.742689 4.109938
-12.606527 22.975893 4.136158
-12.385424 23.236202 4.165050
-12.101707 23.378382 4.194262
-11.865771 23.576643 4.224343
-11.627548 23.760721 4.254177
-11.383154 23.930593 4.283627
-11.124493 24.078308 4.313608
-10.864394 24.230740 4.342114
-10.603442 24.394892 4.366997
-10.319536 24.539679 4.390292
-10.029528 24.700188 4.408223
-9.727479 24.872999 4.420401
-9.407052 25.053797 4.426511
-9.062511 25.234468 4.426319
-8.730343 25.407623 4.415853
-8.416362 25.562714 4.395957
-8.127778 25.721375 4.366638
-7.848875 25.865458 4.331382
-7.578579 26.003023 4.291388
-7.319727 26.147964 4.247342
-7.043475 26.259037 4.204753
-6.770818 26.382711 4.161455
-6.486700 26.503607 4.120692
-6.187697 26.631580 4.083509
-5.866888 26.758417 4.052524
-5.519397 26.891983 4.028946
-5.152354 27.025671 4.013422
-4.797616 27.142345 4.002873
-4.463010 27.268087 3.994357
-4.136823 27.371168 3.990311
-3.823291 27.472486 3.988563
-3.518210 27.569916 3.988963
-3.222990 27.673128 3.990320
-2.927997 27.762421 3.994020
-2.634465 27.838285 3.999678
-2.334005 27.884237 4.008396
-2.029050 27.905909 4.019342
-1.720665 27.908537 4.031713
-1.404799 27.890205 4.045339
-1.083052 27.877514 4.057554
-0.751979 27.858961 4.069021
-0.407822 27.848042 4.078219
-0.050515 27.885984 4.081200
0.327080 27.953926 4.079275
0.717029 28.007780 4.075585
1.081628 27.948921 4.077701
1.423824 27.901527 4.075377
1.748606 27.869062 4.069034
2.064187 27.852339 4.059328
2.373750 27.837950 4.048155
2.679011 27.807301 4.037869
2.977171 27.749811 4.030123
3.277651 27.680403 4.024333
3.581318 27.603504 4.022429
3.886084 27.494349 4.030161
4.195274 27.361698 4.040029
4.513721 27.204760 4.051295
4.843683 27.019783 4.062783
5.202945 26.868328 4.081308
5.533131 26.705170 4.103867
5.839282 26.546701 4.131757
6.129503 26.404045 4.165853
6.409171 26.269285 4.205030
6.680377 26.140429 4.247344
6.943098 26.004311 4.290499
7.206405 25.868958 4.334420
7.475081 25.735632 4.378007
7.742571 25.583849 4.418012
8.021610 25.427868 4.455240
8.320974 25.275705 4.489281
8.642175 25.121374 4.518726
8.985498 24.956785 4.542008
9.339692 24.809807 4.560813
9.672190 24.679878 4.575471
9.989067 24.566782 4.586750
10.290616 24.459885 4.594362
10.577036 24.344267 4.596248
10.853261 24.219732 4.592286
11.127917 24.097876 4.585458
11.402265 23.967285 4.574589
11.682166 23.830841 4.561986
11.970330 23.683624 4.548137
12.261744 23.503714 4.527725
12.561010 23.294346 4.503000
12.866597 23.054714 4.474487
13.154794 22.824673 4.448979
13.417911 22.603270 4.424684
13.665845 22.393885 4.402981
13.895089 22.183514 4.379728
14.107440 21.969921 4.354412
14.313538 21.754688 4.327636
14.500403 21.522203 4.296249
14.692636 21.286173 4.262781
14.902087 21.052229 4.226726
15.132983 20.815557 4.185590
15.375628 20.562561 4.137939
15.625426 20.284597 4.083439
15.884441 20.004457 4.017398
16.112152 19.735811 3.932824
16.317066 19.479914 3.835957
16.510761 19.236534 3.732671
16.692625 18.997749 3.629319
16.861662 18.757450 3.531513
17.012094 18.505167 3.441356
17.159592 18.244564 3.367126
17.310839 17.971582 3.315983
17.450302 17.671127 3.284693
17.596800 17.345530 3.286802
17.729650 16.980427 3.316586
17.856520 16.629808 3.369344
17.964422 16.297871 3.435523
18.086670 15.996310 3.524020
18.188908 15.704618 3.620357
18.299747 15.432196 3.732391
18.392353 15.162628 3.848324
18.483610 14.900567 3.972683
18.567028 14.639006 4.100771
18.656261 14.380901 4.235405
18.742100 14.119038 4.371779
18.827253 13.849957 4.509829
18.924637 13.577427 4.650179
19.034985 13.296429 4.791876
19.163231 13.007953 4.932799
19.325079 12.714552 5.073973
19.530621 12.421273 5.211836
19.744205 12.124692 5.342325
19.955812 11.864579 5.462020
20.148632 11.618300 5.573811
20.331627 11.385928 5.678620
20.510054 11.158233 5.778913
20.691814 10.937528 5.874163
20.872269 10.712044 5.965374
21.056074 10.480453 6.052356
21.247194 10.239510 6.135394
21.450718 9.987109 6.215239
21.671728 9.716475 6.293310
21.887072 9.405050 6.370514
22.088150 9.096835 6.436029
22.261786 8.799269 6.487446
22.407782 8.507355 6.526659
22.539062 8.223713 6.556390
22.644732 7.937911 6.577432
22.738382 7.651582 6.592444
22.848497 7.372199 6.607158
22.980293 7.096598 6.625235
23.121023 6.815158 6.647261
23.280060 6.526125 6.676830
23.485832 6.243352 6.721960
23.679741 5.927797 6.771943
23.899290 5.612394 6.834964
24.122435 5.329118 6.903984
24.356096 5.082338 6.978001
24.504662 4.788252 7.039752
24.684425 4.534863 7.109486
24.866425 4.294453 7.180800
25.031981 4.047726 7.250401
25.200346 3.806745 7.319360
25.369209 3.565757 7.385899
25.541739 3.322481 7.448575
25.725393 3.075088 7.506987
25.898632 2.805182 7.558256
26.038458 2.494954 7.600389
26.148977 2.149845 7.631905
26.391937 1.837795 7.662025
26.479908 1.465451 7.673591
26.556791 1.114694 7.676163
26.629864 0.781290 7.671924
26.727413 0.476111 7.663813
26.776165 0.164830 7.645348
26.824358 -0.132210 7.622453
26.893135 -0.421629 7.597450
27.007322 -0.695136 7.577011
27.156183 -0.965485 7.560240
27.200756 -1.263138 7.526443
27.264240 -1.562494 7.494569
27.343782 -1.868550 7.465251
27.437004 -2.183836 7.439107
27.555613 -2.508417 7.419833
27.669174 -2.850311 7.401396
27.828970 -3.201209 7.396532
27.834087 -3.598545 7.355309
27.970125 -3.951868 7.350431
28.079700 -4.291256 7.342250
28.184237 -4.615437 7.335808
28.282312 -4.927169 7.330273
28.391516 -5.226827 7.330534
28.484138 -5.521470 7.327757
28.530218 -5.820712 7.311261
28.584892 -6.116225 7.297976
28.654190 -6.408705 7.290130
28.724211 -6.706416 7.282393
28.747911 -7.014761 7.258039
28.756094 -7.334899 7.226637
28.737829 -7.667099 7.183982
28.728054 -8.012462 7.142101
28.701464 -8.374844 7.091569
28.727755 -8.752048 7.058056
28.816135 -9.135455 7.047362
28.929077 -9.497696 7.050945
28.979172 -9.845769 7.034960
28.986742 -10.177714 7.006575
29.002125 -10.497751 6.983457
29.029078 -10.808213 6.965661
29.052385 -11.110883 6.946920
29.063673 -11.411232 6.923388
29.067339 -11.709624 6.896022
29.062325 -12.011136 6.863649
29.050671 -12.317407 6.826581
29.022125 -12.631943 6.780491
28.992565 -12.958624 6.730183
28.957439 -13.300310 6.672363
28.916410 -13.660722 6.606798
28.837610 -14.041636 6.522061
28.828257 -14.416430 6.436553
28.861086 -14.770926 6.341602
28.887819 -15.107107 6.228249
28.921606 -15.428490 6.105948
28.960983 -15.738403 5.980158
29.013342 -16.040592 5.859111
29.049429 -16.336645 5.737455
29.088863 -16.630959 5.628000
29.126743 -16.926407 5.534610
29.145763 -17.225147 5.456059
29.146418 -17.529875 5.397456
29.124113 -17.844101 5.364523
29.072256 -18.169983 5.357755
28.985397 -18.509821 5.384380
28.917133 -18.872709 5.467242
28.661253 -19.207621 5.529844
28.379053 -19.500265 5.628562
28.167145 -19.750971 5.787545
28.022804 -19.965555 5.991138
27.905418 -20.140665 6.228170
27.919636 -20.320683 6.484163
28.043562 -20.525654 6.765978
28.070900 -20.721075 7.042199
28.021591 -20.891891 7.309834
27.935287 -21.059164 7.578997
27.814962 -21.220510 7.842552
27.679068 -21.395878 8.103122
27.531033 -21.588854 8.356932
27.371080 -21.811844 8.599559
27.197536 -22.068319 8.827565
26.916592 -22.255445 9.016245
26.638222 -22.421820 9.149092
26.433245 -22.640205 9.242788
26.219711 -22.853617 9.303678
25.989288 -23.065695 9.343407
25.728235 -23.250254 9.371014
25.434301 -23.403601 9.397504
25.110086 -23.537287 9.435219
24.743198 -23.605589 9.491485
24.355085 -23.616661 9.569724
23.993507 -23.616772 9.657278
23.664824 -23.660358 9.753189
23.363749 -23.710781 9.849122
23.054653 -23.612709 9.922601
22.789686 -23.569868 9.972828
22.528612 -23.565266 10.015609
22.223669 -23.536394 10.051727
21.874422 -23.543064 10.084801
21.433500 -23.554771 10.101646
21.000856 -23.546011 10.100199
20.625559 -23.456713 10.070423
20.280807 -23.348448 10.026388
19.963215 -23.199780 9.965522
19.692101 -23.015753 9.888620
19.475918 -22.761473 9.779391
19.303646 -22.479155 9.653224
19.149652 -22.207037 9.525866
18.977186 -21.960604 9.407409
18.768291 -21.751919 9.310037
18.595558 -21.507954 9.200305
18.411999 -21.266048 9.100302
18.248070 -21.000036 8.997552
18.096569 -20.713373 8.896921
17.919971 -20.422318 8.811553
17.685471 -20.141371 8.757423
17.450945 -19.832636 8.710019
17.389746 -19.463366 8.627985
17.370598 -19.119284 8.570067
17.303946 -18.830513 8.550859
17.267450 -18.543758 8.543797
17.245880 -18.245731 8.546661
17.243246 -17.950403 8.556603
17.210802 -17.639286 8.585575
17.172106 -17.318666 8.621815
17.125807 -16.986990 8.662099
17.090298 -16.647678 8.695877
17.079853 -16.301041 8.714531
17.098930 -15.935849 8.711275
17.138229 -15.545978 8.682925
17.167593 -15.160748 8.647877
17.165791 -14.802069 8.623492
17.153450 -14.463961 8.602377
17.115057 -14.143871 8.591572
17.090548 -13.833633 8.574075
17.058962 -13.532426 8.558991
16.998594 -13.238008 8.556296
16.896400 -12.950225 8.573916
16.804262 -12.657630 8.586561
16.731852 -12.355421 8.588152
16.660313 -12.041765 8.587352
16.594290 -11.712039 8.580907
16.526445 -11.363309 8.572128
16.455648 -10.991794 8.561107
16.373304 -10.613563 8.554739
16.283760 -10.262228 8.555094
16.206192 -9.930491 8.550352
16.121037 -9.618351 8.551231
16.029907 -9.320723 8.555966
15.970500 -9.024675 8.541861
15.916656 -8.730911 8.523672
15.851600 -8.439627 8.510423
15.782559 -8.144529 8.497264
15.697440 -7.844501 8.490196
15.606521 -7.532396 8.482611
15.521924 -7.200594 8.467305
15.421164 -6.850551 8.455712
15.314679 -6.477348 8.441592
15.204891 -6.116970 8.425443
15.090470 -5.781001 8.409233
14.999910 -5.458042 8.379641
14.921916 -5.147162 8.343553
14.810940 -4.856960 8.322989
14.710398 -4.571900 8.298117
14.611623 -4.290463 8.273776
14.527386 -4.005249 8.245284
14.442945 -3.716588 8.219970
14.359694 -3.420267 8.198152
14.273257 -3.113770 8.182289
14.187716 -2.792135 8.171545
14.100359 -2.452333 8.167756
14.011940 -2.090323 8.171402
13.907723 -1.715019 8.189415
13.884534 -1.341831 8.188907
13.835291 -0.999229 8.208424
13.758046 -0.682271 8.247284
13.667247 -0.382512 8.297559
13.632512 -0.080869 8.334162
13.600406 0.215152 8.374377
13.581336 0.512011 8.413445
13.562243 0.811225 8.454387
13.545250 1.117997 8.495283
13.463671 1.421386 8.555270
13.374647 1.738379 8.615108
13.282730 2.073673 8.671279
13.176683 2.428555 8.726480
13.077703 2.802577 8.773723
13.015187 3.163068 8.807530
12.973102 3.506472 8.833297
12.920015 3.828303 8.860399
12.853584 4.132860 8.889640
12.780068 4.425573 8.918953
12.686596 4.707621 8.952543
12.609991 4.994517 8.979257
12.509678 5.279512 9.011582
12.409580 5.574152 9.042446
12.297512 5.880682 9.075941
12.204926 6.212111 9.102230
12.120961 6.569967 9.124528
12.039143 6.949129 9.145085
12.001931 7.312183 9.149428
11.919847 7.639241 9.170639
11.815322 7.943604 9.202146
11.742943 8.240982 9.220994
11.689464 8.535459 9.230247
11.659577 8.833903 9.225099
11.610859 9.136687 9.224360
11.573050 9.455991 9.211401
11.527017 9.797071 9.193734
11.463912 10.164607 9.175423
11.378743 10.538022 9.161194
11.282866 10.874759 9.149997
11.184017 11.183854 9.137713
11.086927 11.475427 9.121414
10.990617 11.758184 9.102052
10.897825 12.041835 9.077843
10.807188 12.334908 9.049996
10.699627 12.640367 9.033389
10.583528 12.969648 9.022321
10.455969 13.330009 9.020009
10.335020 13.681667 9.032293
10.241421 14.007174 9.046455
10.174353 14.315812 9.052209
10.104495 14.609401 9.063938
10.027402 14.899098 9.073638
9.944407 15.194076 9.070578
9.844761 15.509789 9.049307
9.702861 15.846993 9.023970
9.491380 16.154705 9.029958
9.286417 16.406837 9.013838
9.036021 16.584949 9.037163
8.790682 16.762829 9.028721
8.521689 16.946707 9.016003
8.255083 17.194365 8.955465
7.989136 17.463280 8.888025
7.729418 17.676224 8.857469
7.473293 17.852951 8.848602
7.223173 18.018454 8.838287
6.963049 18.179573 8.827834
6.677718 18.341509 8.820225
6.356665 18.519136 8.805029
6.020327 18.694061 8.798669
5.713411 18.851221 8.799136
5.422664 18.985695 8.812638
5.145585 19.110672 8.821010
4.871500 19.227411 8.824836
4.590718 19.343163 8.817004
4.295969 19.464615 8.792988
3.971209 19.584412 8.761092
3.605193 19.691532 8.730800
3.245626 19.789480 8.691728
2.911717 19.876564 8.645367
2.595336 19.946299 8.599853
2.287652 19.991314 8.564734
1.987733 20.028503 8.527757
1.688896 20.049873 8.498887
1.389884 20.093933 8.451095
1.079822 20.125460 8.415124
0.749432 20.118267 8.413246
0.399999 20.108570 8.421055
0.023866 20.097404 8.440847
-0.360354 20.091997 8.468237
-0.715761 20.088848 8.502186
-1.048177 20.093676 8.536036
-1.364306 20.102945 8.570391
-1.666878 20.096226 8.618761
-1.963870 20.089638 8.666588
-2.260141 20.076460 8.717011
-2.554063 20.031271 8.789304
-2.860474 19.989859 8.851902
-3.185145 19.949537 8.904326
-3.530896 19.900053 8.953135
-3.897868 19.823681 9.012214
-4.257792 19.723564 9.078382
-4.579194 19.617918 9.136862
-4.875271 19.510532 9.183734
-5.152122 19.397194 9.224845
-5.426149 19.283504 9.254807
-5.703533 19.165695 9.278649
-5.999605 19.049669 9.291591
-6.323600 18.936317 9.293743
-6.678591 18.813650 9.295730
-7.035326 18.685617 9.301070
-7.346405 18.551630 9.317759
-7.630198 18.419641 9.333671
-7.898752 18.283407 9.348536
-8.162108 18.135576 9.363513
-8.431627 17.967728 9.379952
-8.715007 17.768909 9.403252
-9.021845 17.540682 9.426832
-9.297910 17.319071 9.455631
-9.537997 17.108299 9.485016
-9.751259 16.895565 9.515819
-9.956023 16.675039 9.536119
-10.163847 16.436468 9.544244
-10.387180 16.169329 9.536503
-10.615499 15.862203 9.526134
-10.809072 15.573794 9.505629
-10.965795 15.301416 9.479476
-11.103910 15.035997 9.441095
-11.226755 14.758267 9.399492
-11.343174 14.448400 9.360381
-11.467470 14.091361 9.319149
-11.561445 13.731768 9.309243
-11.626988 13.393107 9.318985
-11.687457 13.076273 9.320923
-11.749990 12.774612 9.310180
-11.812970 12.481339 9.292476
-11.872787 12.188496 9.275273
-11.929579 11.890215 9.260846
-11.982444 11.580667 9.252113
-12.026480 11.253244 9.255367
-12.057053 10.901579 9.275929
-12.091102 10.521203 9.298844
-12.094005 10.143312 9.350857
-12.072489 9.795356 9.420450
-12.046673 9.474294 9.489708
-12.091034 9.167769 9.496906
-12.118943 8.869023 9.516545
-12.142876 8.569408 9.538359
-12.193652 8.266542 9.534934
-12.256845 7.951962 9.519121
-12.340155 7.625367 9.482986
-12.401477 7.272573 9.462670
-12.475822 6.894017 9.428054
-12.548263 6.527368 9.388677
-12.630129 6.187726 9.334317
-12.682651 5.860019 9.299996
-12.746356 5.551838 9.251439
-12.825890 5.259908 9.185765
-12.910047 4.978628 9.113687
-12.992784 4.699773 9.041775
-13.065906 4.417691 8.978561
-13.113805 4.120476 8.939878
-13.152870 3.810233 8.911789
-13.204353 3.490899 8.877026
-13.253392 3.153705 8.849485
-13.303219 2.795454 8.827537
-13.358967 2.414704 8.807201
-13.416566 2.032873 8.786680
-13.478873 1.676470 8.758141
-13.543107 1.340759 8.725204
-13.621484 1.026381 8.679781
-13.713278 0.729498 8.624981
-13.785697 0.435055 8.586395
-13.884478 0.154937 8.532188
-13.941180 -0.137614 8.509731
-13.990073 -0.434598 8.494720
-14.051353 -0.733073 8.475580
-14.124365 -1.036892 8.453787
-14.204255 -1.351442 8.434274
-14.317825 -1.671597 8.402638
-14.460649 -2.002584 8.363433
-14.607674 -2.356225 8.330057
-14.755970 -2.712884 8.303639
-14.879955 -3.052095 8.296315
-14.996537 -3.372364 8.298464
-15.108175 -3.676987 8.307166
-15.208380 -3.972184 8.326439
-15.300301 -4.261028 8.353727
-15.432206 -4.531946 8.356184
-15.558941 -4.803789 8.360890
-15.693791 -5.076101 8.357225
-15.801579 -5.364387 8.372405
-15.893017 -5.668621 8.401109
-15.980477 -5.989557 8.433101
-16.026148 -6.344630 8.507810
-16.135853 -6.702560 8.519947
-16.294474 -7.058949 8.475720
-16.418905 -7.402318 8.456531
-16.516167 -7.732218 8.457281
-16.587675 -8.053460 8.478003
-16.668947 -8.356482 8.479831
-16.751026 -8.649517 8.473014
-16.845652 -8.931675 8.445873
-16.953764 -9.207396 8.398360
-17.059044 -9.488678 8.350283
-17.160604 -9.781019 8.303473
-17.252567 -10.091382 8.264854
-17.342558 -10.421369 8.227074
-17.422577 -10.778396 8.198811
-17.528090 -11.149495 8.144554
-17.612827 -11.507423 8.100494
-17.686449 -11.842703 8.056117
-17.745996 -12.161264 8.016159
-17.780128 -12.471496 7.992080
-17.816422 -12.770638 7.960403
-17.861187 -13.062672 7.917833
-17.893251 -13.358326 7.884365
-17.953560 -13.652579 7.827449
-18.033838 -13.952474 7.756675
-18.065056 -14.280755 7.728242
-18.062675 -14.639453 7.729992
-18.144585 -15.002595 7.671438
-18.217096 -15.380626 7.617620
-18.222298 -15.753601 7.598673
-18.210535 -16.110357 7.581841
-18.184723 -16.455389 7.573081
-18.199888 -16.776827 7.525419
-18.230867 -17.085478 7.465109
-18.273424 -17.385365 7.401250
-18.382759 -17.662531 7.277800
-18.428812 -17.962420 7.241564
-18.484976 -18.266619 7.224160
-18.589413 -18.565489 7.182911
-18.728405 -18.868401 7.145470
-18.909563 -19.177214 7.104144
-19.074982 -19.515989 7.142024
-19.270996 -19.851118 7.182874
-19.468462 -20.166855 7.233058
-19.725191 -20.454491 7.240938
-19.920942 -20.735600 7.327251
-20.103216 -21.004166 7.440662
-20.296700 -21.249842 7.558009
-20.422728 -21.498928 7.726820
-20.503260 -21.753639 7.921594
-20.525597 -22.038416 8.139488
-20.662426 -22.281425 8.291846
-20.814692 -22.519312 8.434681
-20.989096 -22.753662 8.567679
-21.187536 -22.975628 8.685933
-21.415178 -23.191296 8.790503
-21.664518 -23.401320 8.881676
-21.939240 -23.595972 8.951867
-22.256220 -23.766672 8.999328
-22.592058 -23.932905 9.028020
-22.959381 -24.077829 9.030313
-23.279835 -24.220703 8.997895
-23.572548 -24.353796 8.927445
-23.864752 -24.387877 8.809351
