-22.454798 -21.917120 12.833442
-22.683578 -21.901005 13.037125
-22.926783 -21.863186 13.221809
-23.186899 -21.810181 13.395206
-23.455256 -21.763739 13.570996
-23.744829 -21.706736 13.743065
-24.055004 -21.635040 13.904560
-24.389025 -21.552374 14.058699
-24.742935 -21.456722 14.197380
-25.090639 -21.350637 14.300669
-25.425837 -21.235952 14.367878
-25.750584 -21.120159 14.407291
-26.065552 -21.001432 14.416020
-26.371603 -20.867533 14.382442
-26.666096 -20.714872 14.304624
-26.923908 -20.529345 14.172985
-27.128006 -20.292692 13.981705
-27.323133 -20.050535 13.758354
-27.502966 -19.810587 13.512575
-27.676260 -19.595631 13.266603
-27.828346 -19.393644 13.016492
-27.959032 -19.202883 12.763211
-28.072973 -19.021971 12.507289
-28.175611 -18.851748 12.251496
-28.269234 -18.689060 11.994246
-28.352146 -18.531475 11.737886
-28.424002 -18.375925 11.481363
-28.470047 -18.213362 11.222631
-28.505716 -18.049704 10.966581
-28.494207 -17.869017 10.707915
-28.457214 -17.681370 10.452511
-28.371546 -17.474949 10.193889
-28.271559 -17.266718 9.935433
-28.140989 -17.038694 9.673285
-28.036324 -16.818186 9.400866
-28.170206 -16.609200 9.149862
-28.449909 -16.402803 8.912832
-28.954500 -16.182428 8.730732
-29.271229 -15.907290 8.544934
-29.419828 -15.594914 8.380930
-29.446608 -15.280892 8.268476
-29.437716 -14.969662 8.211665
-29.411934 -14.658567 8.203074
-29.387949 -14.345345 8.236843
-29.352266 -14.027256 8.295399
-29.293894 -13.701001 8.360717
-29.300983 -13.358823 8.445294
-29.271757 -13.001700 8.503969
-29.212967 -12.629281 8.525870
-29.120218 -12.248410 8.503398
-29.031996 -11.882640 8.476037
-28.953827 -11.533062 8.450553
-28.865290 -11.201754 8.421550
-28.750822 -10.889953 8.385009
-28.689156 -10.578182 8.362437
-28.649748 -10.271356 8.345334
-28.638063 -9.963446 8.335074
-28.586983 -9.669021 8.314445
-28.526110 -9.378285 8.291461
-28.464132 -9.087785 8.268543
-28.405190 -8.793503 8.246939
-28.343122 -8.494473 8.225211
-28.280802 -8.188010 8.204356
-28.208357 -7.874468 8.182102
-28.152092 -7.543530 8.165210
-28.074356 -7.204651 8.144582
-27.943001 -6.865924 8.112255
-27.802429 -6.511390 8.079346
-27.648428 -6.152197 8.045007
-27.478930 -5.818650 8.008858
-27.316370 -5.501215 7.975849
-27.145552 -5.205138 7.941773
-27.003420 -4.910791 7.916331
-26.880716 -4.621642 7.897448
-26.775835 -4.331929 7.884966
-26.677017 -4.046778 7.875230
-26.566833 -3.769020 7.862483
-26.428040 -3.506046 7.839694
-26.293331 -3.240062 7.817627
-26.162012 -2.969091 7.796256
-26.055452 -2.681144 7.783385
-25.946218 -2.387033 7.768994
-25.900970 -2.054203 7.779806
-25.749239 -1.756761 7.745709
-25.686117 -1.406140 7.747215
-25.593554 -1.052695 7.734458
-25.506214 -0.678496 7.721893
-25.405607 -0.299682 7.700743
-25.308002 0.060991 7.677511
-25.229111 0.409602 7.659459
-25.145741 0.740896 7.636302
-25.076298 1.062758 7.616755
-24.995705 1.370303 7.589652
-24.906370 1.665970 7.556537
-24.819368 1.956285 7.522547
-24.729614 2.241652 7.485738
-24.655134 2.529812 7.454448
-24.577238 2.817688 7.420559
-24.472179 3.098679 7.374094
-24.371689 3.384727 7.329229
-24.253794 3.671451 7.276758
-24.138025 3.966973 7.225422
-24.015060 4.271250 7.171436
-23.882374 4.584682 7.113986
-23.744352 4.912317 7.055159
-23.594080 5.253328 6.992265
-23.441141 5.607049 6.928980
-23.293282 5.940506 6.866152
-23.137444 6.244320 6.798420
-22.965868 6.517169 6.723290
-22.810301 6.783892 6.653645
-22.662840 7.044890 6.586396
-22.529156 7.309759 6.523633
-22.398319 7.575884 6.461387
-22.250864 7.830640 6.393205
-22.087284 8.079110 6.320047
-21.908897 8.325645 6.242701
-21.711935 8.573236 6.160426
-21.507883 8.834921 6.077147
-21.287748 9.110243 5.989950
-21.058411 9.408237 5.901190
-20.834517 9.707846 5.816958
-20.628550 9.992494 5.741688
-20.448462 10.272512 5.678599
-20.288200 10.548266 5.625857
-20.149685 10.826078 5.586095
-20.024725 11.104794 5.556789
-19.883081 11.366470 5.520553
-19.718611 11.610210 5.470359
-19.561392 11.863876 5.424562
-19.381979 12.108339 5.362000
-19.178135 12.345941 5.279365
-18.970282 12.597612 5.192713
-18.776169 12.883471 5.117989
-18.604818 13.217083 5.062160
-18.416069 13.549698 4.989518
-18.241545 13.862572 4.916364
-18.076204 14.153444 4.838998
-17.895517 14.408568 4.748116
-17.712299 14.645199 4.656868
-17.519459 14.865335 4.567982
-17.336214 15.089617 4.484434
-17.156620 15.318718 4.400833
-16.971649 15.551506 4.316467
-16.772234 15.787505 4.230179
-16.588091 16.045826 4.144590
-16.412647 16.325731 4.058486
-16.265745 16.638880 3.973067
-16.155018 16.993658 3.888945
-15.998797 17.321449 3.797056
-15.848655 17.629866 3.702535
-15.745851 17.937634 3.609994
-15.631353 18.230341 3.517571
-15.482058 18.500292 3.424742
-15.339642 18.768480 3.336525
-15.181909 19.024759 3.251923
-15.002281 19.269905 3.172022
-14.812821 19.507307 3.098452
-14.618609 19.749846 3.036936
-14.384145 19.970861 2.978670
-14.171061 20.230558 2.939924
-13.930505 20.495651 2.912987
-13.628087 20.734482 2.888816
-13.299276 20.923361 2.877419
-13.011451 21.105267 2.901661
-12.739678 21.256348 2.948665
-12.484183 21.412632 3.015563
-12.238299 21.569889 3.099464
-11.982435 21.712358 3.194353
-11.713486 21.836769 3.295576
-11.436081 21.962042 3.402810
-11.139202 22.072495 3.508982
-10.836621 22.214945 3.619182
-10.511983 22.367043 3.725057
-10.170259 22.515726 3.823113
-9.854503 22.646301 3.917212
-9.565612 22.775160 4.011042
-9.333595 22.959612 4.115729
-9.109859 23.137648 4.219235
-8.900006 23.331972 4.325966
-8.667952 23.507879 4.429183
-8.423182 23.696287 4.534893
-8.136895 23.869503 4.638131
-7.786752 24.002439 4.732298
-7.450728 24.135565 4.820985
-7.150643 24.270033 4.903486
-6.881601 24.417614 4.981468
-6.623515 24.559725 5.053427
-6.359973 24.684620 5.118412
-6.084587 24.798334 5.178953
-5.787199 24.894478 5.235141
-5.469604 25.007196 5.294965
-5.115759 25.116343 5.355848
-4.752050 25.195452 5.407408
-4.420995 25.254179 5.445706
-4.112427 25.309109 5.476400
-3.813277 25.345362 5.499048
-3.516623 25.400337 5.523372
-3.209643 25.429764 5.544870
-2.883462 25.448055 5.567861
-2.526563 25.469774 5.594326
-2.135303 25.453018 5.612277
-1.776546 25.455687 5.642837
-1.450098 25.481724 5.687043
-1.151543 25.535984 5.741222
-0.863218 25.590984 5.786910
-0.575157 25.649866 5.829168
-0.268917 25.709929 5.865275
0.062615 25.786425 5.896012
0.438803 25.863508 5.916076
0.805019 25.892563 5.913355
1.131255 25.846336 5.883917
1.429166 25.767735 5.838961
1.721223 25.724976 5.794611
2.016464 25.658833 5.742211
2.336597 25.615686 5.693645
2.693644 25.586765 5.650061
3.079900 25.588583 5.619777
3.432698 25.599716 5.604542
3.755638 25.585566 5.591972
4.062574 25.557489 5.577881
4.366906 25.509628 5.554733
4.669588 25.412750 5.510451
4.968289 25.258625 5.437036
5.291511 25.089939 5.336392
5.596646 24.898214 5.210482
5.821235 24.654881 5.063966
6.015971 24.451120 4.917850
6.223333 24.295088 4.777017
6.485939 24.214952 4.650222
6.780462 24.141409 4.527295
7.044856 24.005808 4.399132
7.292817 23.815739 4.273488
7.527945 23.561346 4.138849
7.791471 23.299294 4.014106
8.030286 23.044119 3.903379
8.269613 22.820345 3.815781
8.468725 22.568703 3.727289
8.658315 22.316845 3.644578
8.856299 22.082581 3.572309
9.087431 21.889698 3.514525
9.354589 21.741398 3.471285
9.640040 21.600203 3.434725
9.940521 21.456369 3.402387
10.282202 21.334663 3.378505
10.737179 21.339243 3.382760
11.153658 21.283104 3.375986
11.517313 21.191420 3.360497
11.827213 21.054838 3.335598
12.121232 20.914953 3.310524
12.396946 20.754255 3.283011
12.665030 20.594952 3.258521
12.918924 20.417082 3.234323
13.167234 20.231974 3.213758
13.410716 20.042862 3.198604
13.656168 19.854816 3.190986
13.907171 19.668655 3.192213
14.164668 19.480766 3.202723
14.437627 19.294476 3.222598
14.730146 19.100792 3.254485
15.025780 18.874846 3.294549
15.297209 18.601997 3.335981
15.506680 18.313608 3.377584
15.674483 18.031338 3.426071
15.814093 17.751936 3.481702
15.911675 17.469349 3.540297
15.988862 17.181540 3.606891
16.056719 16.896219 3.683511
16.117146 16.601336 3.770293
16.178820 16.294069 3.867496
16.309189 16.007982 3.978985
16.512363 15.732581 4.083263
16.834755 15.511435 4.199926
17.174358 15.280617 4.319062
17.488628 15.051830 4.435676
17.770794 14.839972 4.546836
18.015024 14.636430 4.652497
18.223810 14.426100 4.751319
18.401522 14.208055 4.844753
18.563322 13.979118 4.933762
18.711237 13.735266 5.019212
18.859369 13.480733 5.107250
19.011534 13.211233 5.195825
19.168652 12.924388 5.281495
19.341492 12.625490 5.366938
19.521378 12.298224 5.451112
19.700581 11.965990 5.531168
19.878231 11.671371 5.607550
20.058830 11.408240 5.682695
20.240360 11.166746 5.755826
20.415861 10.931383 5.824104
20.580976 10.691603 5.886329
20.747766 10.447903 5.946697
20.921200 10.195741 6.007129
21.103670 9.928967 6.068638
21.295385 9.639717 6.131920
21.506310 9.327469 6.200247
21.712776 9.013046 6.266755
21.912722 8.720195 6.330180
22.105953 8.444832 6.390519
22.296022 8.185618 6.448719
22.479403 7.935917 6.503973
22.656744 7.692006 6.556493
22.826727 7.448923 6.606024
22.994013 7.206255 6.653763
23.153467 6.956151 6.698429
23.303194 6.694025 6.739455
23.449871 6.421042 6.778562
23.603994 6.139952 6.818604
23.785347 5.859315 6.865330
23.969166 5.558087 6.912003
24.149845 5.229591 6.956981
24.329197 4.886076 7.000835
24.491093 4.554364 7.039072
24.638540 4.235458 7.072586
24.787592 3.934204 7.106433
24.934219 3.645164 7.139443
25.078983 3.366075 7.171891
25.211304 3.088756 7.200237
25.334700 2.813087 7.225642
25.446547 2.536293 7.247092
25.547110 2.255152 7.264494
25.647598 1.972103 7.281569
25.742508 1.682134 7.296209
25.829451 1.381231 7.307155
25.920286 1.071586 7.318436
26.019569 0.751650 7.331516
26.132389 0.421259 7.348303
26.261881 0.078942 7.370045
26.419703 -0.272252 7.402099
26.610813 -0.608118 7.445894
26.775650 -0.937229 7.472731
26.929543 -1.254342 7.490470
27.082901 -1.557051 7.505015
27.253685 -1.837593 7.528666
27.424606 -2.107379 7.553610
27.581238 -2.375944 7.571611
27.729828 -2.642630 7.586720
27.875538 -2.906570 7.603682
28.031506 -3.162964 7.633126
28.177742 -3.424576 7.662304
28.317638 -3.691865 7.692507
28.441425 -3.972208 7.716949
28.551456 -4.266693 7.736171
28.633305 -4.585863 7.736111
28.729378 -4.908071 7.759494
28.837885 -5.236578 7.806121
28.947981 -5.579249 7.868432
29.028662 -5.956558 7.913350
29.150650 -6.311979 8.016448
29.240335 -6.665191 8.096303
29.329611 -6.999468 8.186584
29.417347 -7.317223 8.285655
29.487799 -7.629717 8.375859
29.568514 -7.922471 8.486609
29.626682 -8.216977 8.581638
29.682890 -8.502837 8.682821
29.723989 -8.789808 8.775499
29.769106 -9.068507 8.879615
29.803600 -9.349411 8.979276
29.823698 -9.636721 9.069992
29.844006 -9.923553 9.167212
29.851326 -10.219471 9.256743
29.889240 -10.500948 9.382413
29.919676 -10.792002 9.504874
29.925535 -11.104513 9.608045
29.977880 -11.399309 9.759007
30.035067 -11.702867 9.916962
30.138798 -11.994218 10.117117
30.189863 -12.329427 10.271963
30.314772 -12.642779 10.488377
30.349613 -13.005311 10.625551
30.382786 -13.354747 10.753664
30.428612 -13.683806 10.885202
30.533352 -13.971499 11.049961
30.645924 -14.245352 11.211187
30.740746 -14.519343 11.355935
30.811865 -14.796866 11.485770
30.857758 -15.078187 11.605440
30.916752 -15.347947 11.733918
30.982536 -15.610720 11.868477
30.942661 -15.905124 11.977583
30.908100 -16.190231 12.101295
30.953901 -16.448853 12.253776
31.020109 -16.707602 12.418817
31.066145 -16.975527 12.587749
31.087791 -17.254347 12.763676
31.137627 -17.540602 12.956717
31.116673 -17.842552 13.153055
31.055994 -18.154934 13.358993
31.016687 -18.471979 13.583168
30.952461 -18.759071 13.806913
30.869505 -19.014996 14.028499
30.770416 -19.244358 14.248249
30.677588 -19.454317 14.469140
30.587828 -19.650347 14.693369
30.502760 -19.839281 14.923573
30.423679 -20.025581 15.161540
30.351027 -20.213600 15.408741
30.248775 -20.401905 15.651706
30.096416 -20.584524 15.871301
29.914444 -20.776625 16.078650
29.713060 -20.980207 16.276030
29.491318 -21.200298 16.458017
29.217863 -21.434134 16.604980
28.904488 -21.677208 16.711143
28.599657 -21.903536 16.784370
28.333647 -22.124987 16.854733
28.119381 -22.328779 16.927441
27.931873 -22.522602 16.990519
27.734972 -22.731054 17.049690
27.553934 -22.934271 17.097921
27.341337 -23.178366 17.137680
27.097956 -23.423882 17.145123
26.796700 -23.671562 17.105373
26.463617 -23.840935 17.001265
26.131573 -23.952843 16.866680
25.810656 -24.039637 16.722900
25.506392 -24.106562 16.573652
25.216030 -24.168201 16.421379
24.948057 -24.191021 16.253345
24.705853 -24.181828 16.070774
24.470703 -24.167130 15.874364
24.260908 -24.163904 15.686203
24.033659 -24.192430 15.474212
23.802368 -24.244087 15.253779
23.555557 -24.296354 14.986607
23.300558 -24.326069 14.669245
23.080864 -24.315216 14.338062
22.903130 -24.272356 14.008508
22.760410 -24.206741 13.676866
22.653009 -24.120193 13.351545
22.578316 -24.017418 13.025527
22.522322 -23.911486 12.705183
22.494276 -23.795473 12.393525
22.489504 -23.671019 12.086661
22.493010 -23.549622 11.785969
22.517794 -23.420778 11.491634
22.561720 -23.284775 11.200938
22.713282 -23.113163 10.919694
22.778927 -22.977217 10.633856
22.746349 -22.861591 10.344475
22.651537 -22.730295 10.054051
22.611977 -22.566383 9.770699
22.464861 -22.386930 9.499621
22.296749 -22.183178 9.247314
22.224739 -21.945963 8.991422
22.139732 -21.686165 8.743490
22.025658 -21.403517 8.505424
21.908411 -21.106695 8.286592
21.781879 -20.813416 8.110373
21.673658 -20.521482 7.964135
21.576851 -20.228584 7.848850
21.509834 -19.934145 7.751791
21.432554 -19.639853 7.684424
21.361712 -19.345030 7.636506
21.299601 -19.045759 7.604438
21.244225 -18.743439 7.585595
21.192541 -18.435574 7.577052
21.146118 -18.122517 7.575720
21.099937 -17.802948 7.579215
21.049397 -17.478064 7.586085
21.003557 -17.144203 7.589671
20.943016 -16.805452 7.593137
20.847517 -16.466530 7.600048
20.742298 -16.120300 7.598474
20.637867 -15.762852 7.581293
20.526253 -15.395393 7.547829
20.409021 -15.025724 7.501225
20.299635 -14.673427 7.454275
20.189276 -14.339785 7.410941
20.070379 -14.024780 7.373827
19.941236 -13.726771 7.343431
19.824015 -13.436123 7.310978
19.708010 -13.153382 7.280138
19.602436 -12.872828 7.246956
19.499569 -12.594093 7.214011
19.389528 -12.318371 7.184955
19.268778 -12.044562 7.160937
19.149351 -11.765409 7.136758
19.021503 -11.482141 7.116037
18.885519 -11.192138 7.098343
18.746168 -10.890737 7.081338
18.607611 -10.573432 7.063036
18.463884 -10.240118 7.045512
18.314621 -9.888307 7.028632
18.162958 -9.529770 7.013424
18.018955 -9.187977 7.000488
17.879887 -8.862267 6.990534
17.742725 -8.551870 6.984329
17.609209 -8.253205 6.980614
17.477030 -7.965403 6.979937
17.346771 -7.685258 6.981398
17.228443 -7.405552 6.981188
17.107059 -7.131526 6.984169
16.978960 -6.862209 6.991117
16.847792 -6.593736 7.000168
16.714573 -6.322880 7.010520
16.573568 -6.050172 7.023500
16.427294 -5.771875 7.037769
16.271624 -5.487327 7.054083
16.108234 -5.193397 7.071434
15.938286 -4.886742 7.089032
15.765969 -4.562655 7.105308
15.579230 -4.224717 7.123253
15.383005 -3.890617 7.143624
15.191241 -3.577540 7.165243
15.007814 -3.279929 7.186788
14.834409 -2.994615 7.207669
14.667494 -2.719322 7.228483
14.510161 -2.450015 7.248350
14.365785 -2.181495 7.265956
14.229247 -1.913251 7.282650
14.104363 -1.640500 7.296957
13.982285 -1.366595 7.311206
13.861772 -1.087249 7.325255
13.745894 -0.800762 7.338195
13.638786 -0.500230 7.348476
13.534437 -0.188326 7.357521
13.413896 0.131830 7.370173
13.308318 0.474934 7.377619
13.202798 0.837254 7.383644
13.096490 1.213643 7.388666
13.026996 1.581187 7.383739
12.949165 1.922932 7.382359
12.883826 2.251447 7.378132
12.824476 2.565695 7.373125
12.750718 2.868147 7.374202
12.708319 3.168524 7.365668
12.654232 3.463171 7.362376
12.597065 3.756766 7.361291
12.546299 4.053224 7.358609
12.499112 4.354491 7.354846
12.451220 4.663981 7.351201
12.379471 4.978139 7.357697
12.302483 5.305348 7.365770
12.205439 5.642294 7.381909
12.088405 5.993522 7.405587
11.930751 6.351278 7.446411
11.773112 6.683276 7.491519
11.628263 6.982044 7.535004
11.498945 7.265778 7.573889
11.377947 7.538016 7.610727
11.258776 7.809500 7.647419
11.142675 8.087908 7.682542
11.025786 8.379483 7.715878
10.898993 8.689115 7.747783
10.780768 9.032722 7.770886
10.666500 9.402744 7.783377
10.564868 9.743530 7.780651
10.475143 10.058586 7.766019
10.392695 10.356027 7.743546
10.290061 10.638989 7.726727
10.201041 10.927978 7.706126
10.093904 11.220995 7.697560
9.951876 11.522924 7.713353
9.786486 11.842517 7.751813
9.606578 12.174996 7.812965
9.433391 12.454556 7.900051
9.259453 12.685741 8.007762
9.099172 12.916309 8.113336
8.942343 13.162718 8.213034
8.780322 13.442026 8.300493
8.592930 13.755630 8.374850
8.421162 14.087502 8.418342
8.277589 14.400735 8.434761
8.124204 14.677530 8.457228
7.962988 14.934461 8.485581
7.796012 15.182775 8.517861
7.620084 15.429702 8.552361
7.425978 15.680146 8.599314
7.208398 15.938748 8.658228
6.959873 16.207949 8.740554
6.701046 16.460653 8.843280
6.461095 16.673504 8.932458
6.229774 16.859945 9.002577
5.991980 17.036572 9.048030
5.737848 17.215706 9.068821
5.454888 17.404987 9.078898
5.133184 17.602713 9.111157
4.823487 17.769764 9.162123
4.539690 17.887672 9.238807
4.261807 17.983900 9.303933
3.965295 18.079683 9.331450
3.627568 18.189938 9.319377
3.264889 18.285406 9.321950
2.947619 18.326868 9.347754
2.649330 18.341305 9.383365
2.336496 18.353542 9.425179
1.975490 18.390285 9.463449
1.618382 18.448685 9.500985
1.303947 18.516108 9.522696
1.010022 18.581593 9.543350
0.713848 18.639486 9.559886
0.389615 18.681278 9.586020
0.014739 18.695528 9.640105
-0.341495 18.709059 9.633142
-0.658996 18.712250 9.609563
-0.956919 18.705809 9.567143
-1.256908 18.687904 9.512724
-1.582015 18.657139 9.463752
-1.950807 18.615150 9.409590
-2.305365 18.569748 9.360504
-2.620888 18.520132 9.336120
-2.916101 18.461077 9.322580
-3.209528 18.397259 9.280556
-3.522541 18.315790 9.240551
-3.874964 18.210928 9.195739
-4.215923 18.106525 9.143011
-4.510057 18.011400 9.081657
-4.781800 17.905943 9.004032
-5.058168 17.766973 8.915414
-5.363012 17.575556 8.819465
-5.629418 17.366800 8.736487
-5.844076 17.154285 8.668808
-6.037483 16.939404 8.583077
-6.245021 16.713928 8.479403
-6.499630 16.471634 8.355081
-6.774252 16.261435 8.202193
-7.041596 16.088615 8.046264
-7.301046 15.942066 7.895336
-7.562344 15.823980 7.735201
-7.821217 15.690913 7.596930
-8.062292 15.514646 7.499523
-8.292437 15.284721 7.430193
-8.473135 14.996476 7.412190
-8.624619 14.665847 7.416812
-8.799419 14.354911 7.392488
-9.019878 14.041954 7.343331
-9.218186 13.725660 7.317226
-9.356783 13.404376 7.331303
-9.471860 13.097912 7.359565
-9.562856 12.798105 7.402221
-9.659559 12.509221 7.444866
-9.746672 12.220536 7.494473
-9.828856 11.930507 7.547349
-9.923879 11.638531 7.595188
-10.010837 11.339060 7.643813
-10.064529 11.020784 7.702212
-10.127085 10.687924 7.752410
-10.219169 10.337411 7.785952
-10.307342 9.958867 7.812934
-10.408749 9.602511 7.821527
-10.514905 9.276144 7.814835
-10.638384 8.980868 7.791779
-10.747338 8.695251 7.765038
-10.870273 8.424806 7.727875
-11.001002 8.157064 7.684325
-11.138371 7.884546 7.636751
-11.286846 7.593655 7.585234
-11.431496 7.271449 7.537144
-11.578402 6.913279 7.491913
-11.715155 6.561729 7.450302
-11.823973 6.221674 7.417671
-11.907777 5.893448 7.393237
-11.970143 5.573616 7.375899
-12.024886 5.264683 7.360578
-12.067301 4.961149 7.349284
-12.109002 4.663444 7.337549
-12.145841 4.367045 7.327196
-12.183009 4.069964 7.316227
-12.225551 3.770148 7.302625
-12.265067 3.462443 7.290148
-12.321050 3.148112 7.270432
-12.395467 2.824926 7.242602
-12.467326 2.484421 7.216195
-12.543194 2.125111 7.188509
-12.633152 1.747710 7.155110
-12.731685 1.381720 7.117107
-12.813208 1.029943 7.085457
-12.889353 0.693282 7.054892
-12.969657 0.372765 7.021368
-13.056442 0.066344 6.984140
-13.142677 -0.230634 6.946481
-13.230130 -0.519695 6.907807
-13.309714 -0.807489 6.871744
-13.403678 -1.087447 6.830076
-13.501594 -1.366593 6.787082
-13.593114 -1.651075 6.746500
-13.686199 -1.940710 6.705613
-13.782631 -2.237152 6.663921
-13.883185 -2.542763 6.621453
-13.997823 -2.856150 6.574970
-14.135538 -3.176700 6.521676
-14.283564 -3.511794 6.465402
-14.435555 -3.866249 6.408051
-14.582493 -4.217345 6.352269
-14.728970 -4.548260 6.295649
-14.873651 -4.861983 6.237881
-15.011234 -5.162974 6.180739
-15.130648 -5.458071 6.129505
-15.250734 -5.742369 6.075840
-15.360585 -6.023009 6.025401
-15.456466 -6.303803 5.982110
-15.543218 -6.586269 5.944812
-15.619693 -6.872971 5.916381
-15.696247 -7.163233 5.891120
-15.766418 -7.461846 5.875429
-15.840901 -7.767683 5.861988
-15.925143 -8.080060 5.845816
-16.013264 -8.404843 5.832765
-16.129839 -8.732113 5.796993
-16.253225 -9.074946 5.760142
-16.385437 -9.435046 5.720562
-16.550037 -9.776672 5.642480
-16.669788 -10.120814 5.609231
-16.794439 -10.442167 5.563669
-16.928358 -10.740029 5.501703
-17.076887 -11.013088 5.419160
-17.204363 -11.290691 5.360144
-17.322685 -11.567858 5.311236
-17.435579 -11.844635 5.269036
-17.543718 -12.123652 5.233988
-17.645884 -12.406963 5.208004
-17.735220 -12.703586 5.199174
-17.829985 -13.000422 5.190629
-17.951029 -13.299166 5.168689
-18.108713 -13.594662 5.128170
-18.287575 -13.909323 5.086687
-18.475710 -14.247617 5.055119
-18.639977 -14.603249 5.042939
-18.784672 -14.949921 5.029178
-18.917274 -15.287545 5.010508
-19.032660 -15.616597 4.995566
-19.128330 -15.943333 4.992710
-19.205282 -16.262056 5.005768
-19.260778 -16.580267 5.047118
-19.299889 -16.887875 5.116276
-19.340670 -17.191793 5.202109
-19.389053 -17.485832 5.300097
-19.437565 -17.776768 5.424282
-19.494370 -18.061039 5.568345
-19.552361 -18.341782 5.744485
-19.624994 -18.621744 5.941547
-19.713608 -18.903976 6.163276
-19.863483 -19.205593 6.370360
-20.011683 -19.490025 6.584143
-20.171019 -19.760269 6.799018
-20.369993 -20.017260 6.998603
-20.571480 -20.244118 7.231372
-20.797691 -20.429192 7.470894
-21.047031 -20.564760 7.743446
-21.134178 -20.626738 8.065727
-21.010082 -20.680740 8.413116
-20.561457 -20.836426 8.766006
-20.492098 -20.975723 9.060781
-20.518925 -21.096087 9.351562
-20.596046 -21.194538 9.644795
-20.699678 -21.276396 9.941667
-20.813131 -21.355633 10.244078
-20.927122 -21.446951 10.551380
-21.056704 -21.545607 10.865437
-21.198153 -21.661209 11.185760
-21.375614 -21.769350 11.511004
-21.583757 -21.846397 11.825637
-21.800533 -21.884050 12.110483
-22.018721 -21.903309 12.371420
-22.231754 -21.918312 12.610578
