-22.455446 -21.917070 12.833981
-22.684175 -21.900955 13.037623
-22.927357 -21.863050 13.222243
-23.187487 -21.810078 13.395570
-23.455770 -21.763641 13.571343
-23.745333 -21.706642 13.743337
-24.055479 -21.634926 13.904790
-24.389471 -21.552252 14.058886
-24.743341 -21.456606 14.197517
-25.090990 -21.350531 14.300754
-25.426128 -21.235849 14.367927
-25.750816 -21.120073 14.407308
-26.065720 -21.001345 14.416018
-26.371721 -20.867470 14.382417
-26.666178 -20.714842 14.304582
-26.923952 -20.529303 14.172960
-27.128033 -20.292664 13.981680
-27.323133 -20.050535 13.758354
-27.502867 -19.810713 13.512712
-27.676172 -19.595753 13.266746
-27.828243 -19.393782 13.016678
-27.958933 -19.203037 12.763418
-28.072872 -19.022139 12.507549
-28.175505 -18.851934 12.251781
-28.269133 -18.689243 11.994556
-28.352036 -18.531702 11.738256
-28.423885 -18.376183 11.481784
-28.469963 -18.213659 11.223103
-28.505659 -18.049994 10.967067
-28.494219 -17.869431 10.708447
-28.457348 -17.681742 10.453095
-28.371685 -17.475622 10.194415
-28.271952 -17.267195 9.936109
-28.140762 -17.039787 9.673420
-28.188934 -16.844908 9.412805
-28.320307 -16.632467 9.165367
-28.527290 -16.413679 8.923145
-28.952736 -16.182810 8.731396
-29.270645 -15.908213 8.545505
-29.419630 -15.595968 8.381116
-29.446573 -15.281854 8.268957
-29.437801 -14.970707 8.211747
-29.411686 -14.659659 8.202847
-29.382776 -14.346493 8.234874
-29.350565 -14.028571 8.294587
-29.294064 -13.702377 8.360430
-29.300999 -13.360240 8.444966
-29.271965 -13.003198 8.503781
-29.213308 -12.630889 8.525904
-29.120651 -12.250050 8.503531
-29.032330 -11.884301 8.476143
-28.954210 -11.534687 8.450689
-28.865896 -11.203333 8.421743
-28.751373 -10.891531 8.385170
-28.689314 -10.579890 8.362516
-28.649731 -10.273082 8.345365
-28.638241 -9.965111 8.335160
-28.587299 -9.670669 8.314569
-28.526466 -9.379945 8.291592
-28.464478 -9.089516 8.268674
-28.405495 -8.795009 8.247042
-28.343506 -8.496305 8.225342
-28.281189 -8.189909 8.204485
-28.209137 -7.876357 8.182320
-28.152449 -7.545696 8.165303
-28.075022 -7.206875 8.144762
-27.943943 -6.868187 8.112476
-27.803431 -6.513861 8.079576
-27.649763 -6.154551 8.045310
-27.479719 -5.820351 8.008966
-27.317612 -5.503527 7.976097
-27.146952 -5.207396 7.942155
-27.004255 -4.913240 7.916413
-26.881769 -4.623949 7.897675
-26.776676 -4.334272 7.885025
-26.677879 -4.049076 7.875342
-26.567863 -3.771223 7.862617
-26.429136 -3.508249 7.839868
-26.294579 -3.242076 7.817913
-26.163029 -2.971372 7.796417
-26.056799 -2.683872 7.783532
-25.945810 -2.390128 7.768631
-25.901569 -2.056990 7.779710
-25.750097 -1.759542 7.745897
-25.686825 -1.409197 7.747210
-25.594440 -1.055907 7.734650
-25.507069 -0.682005 7.722035
-25.406557 -0.303161 7.700947
-25.308939 0.057612 7.677754
-25.230124 0.406920 7.659754
-25.146429 0.737615 7.636482
-25.076973 1.060156 7.617024
-24.996519 1.367207 7.589917
-24.907270 1.663007 7.556932
-24.820290 1.953366 7.522893
-24.730522 2.238761 7.486140
-24.655897 2.526853 7.454751
-24.577948 2.814720 7.420879
-24.473436 3.094986 7.374641
-24.372843 3.381741 7.329746
-24.255383 3.667824 7.277460
-24.139303 3.963700 7.225987
-24.016493 4.267818 7.172056
-23.883904 4.581062 7.114646
-23.745998 4.908504 7.055854
-23.595690 5.249148 6.992932
-23.442659 5.602854 6.929618
-23.295004 5.936386 6.866894
-23.139614 6.241029 6.799359
-22.967812 6.513973 6.724147
-22.812113 6.780586 6.654468
-22.664732 7.041776 6.587255
-22.530712 7.306470 6.524376
-22.399965 7.572642 6.462165
-22.252819 7.827510 6.394125
-22.089561 8.075980 6.321039
-21.911083 8.322618 6.243641
-21.714594 8.569750 6.161538
-21.510489 8.831733 6.078141
-21.290825 9.106302 5.991166
-21.061596 9.404072 5.902409
-20.837502 9.703806 5.818035
-20.630819 9.988204 5.742548
-20.450953 10.268556 5.679477
-20.290279 10.544230 5.626701
-20.151314 10.821925 5.586831
-20.026300 11.100855 5.557700
-19.885065 11.362841 5.521967
-19.720888 11.606828 5.472249
-19.563076 11.859891 5.426338
-19.383854 12.104276 5.363943
-19.180344 12.341879 5.281568
-18.972780 12.593540 5.194969
-18.778521 12.878858 5.119522
-18.607616 13.212025 5.063340
-18.419510 13.544881 4.990468
-18.245565 13.857842 4.917228
-18.080929 14.149223 4.840213
-17.901360 14.405352 4.750411
-17.719591 14.643819 4.660635
-17.528030 14.866040 4.573652
-17.346369 15.092808 4.491905
-17.169962 15.325574 4.409832
-16.988466 15.562195 4.327005
-16.792660 15.802427 4.242273
-16.614462 16.065910 4.158379
-16.447189 16.350683 4.073818
-16.310516 16.669859 3.990056
-16.208065 17.027903 3.906977
-16.060369 17.358507 3.816262
-15.919774 17.670570 3.723189
-15.827309 17.981676 3.632104
-15.718699 18.277159 3.541062
-15.575519 18.551413 3.449926
-15.437406 18.821743 3.362982
-15.282662 19.083334 3.280223
-15.105809 19.329227 3.201233
-14.917668 19.572639 3.129486
-14.722811 19.816347 3.068358
-14.487312 20.038023 3.011140
-14.279937 20.304180 2.974017
-14.037086 20.567833 2.946989
-13.730469 20.805351 2.921616
-13.400044 20.992165 2.910395
-13.121424 21.176743 2.935290
-12.849137 21.324905 2.980757
-12.594905 21.485126 3.045015
-12.346638 21.641266 3.125741
-12.088058 21.782591 3.216982
-11.817363 21.906487 3.314362
-11.537529 22.030346 3.417397
-11.238738 22.138517 3.519186
-10.933506 22.278431 3.625075
-10.607267 22.426500 3.726619
-10.261818 22.570910 3.820313
-9.940946 22.697971 3.910178
-9.646184 22.819927 3.999241
-9.407431 22.998444 4.099514
-9.180103 23.174240 4.199497
-8.964027 23.362671 4.302207
-8.733385 23.540283 4.403102
-8.488671 23.726149 4.505922
-8.207437 23.902809 4.607618
-7.862271 24.036997 4.700701
-7.520302 24.169491 4.789008
-7.217399 24.306753 4.872471
-6.942633 24.448559 4.950155
-6.685839 24.595150 5.024023
-6.423544 24.722488 5.090586
-6.151465 24.838598 5.152597
-5.858641 24.939791 5.210533
-5.545776 25.051577 5.270534
-5.198166 25.162485 5.331567
-4.833008 25.253641 5.386480
-4.498082 25.314482 5.425952
-4.187813 25.374298 5.457908
-3.888143 25.413500 5.481022
-3.592873 25.473192 5.505768
-3.287770 25.505230 5.526363
-2.963990 25.525290 5.548673
-2.612622 25.551100 5.575070
-2.222358 25.538506 5.593075
-1.857428 25.537638 5.620986
-1.528673 25.565617 5.664587
-1.227838 25.616800 5.717447
-0.939501 25.671059 5.763386
-0.649672 25.730595 5.805939
-0.348569 25.786379 5.841689
-0.018939 25.860138 5.872668
0.351163 25.936836 5.893765
0.723573 25.975492 5.894255
1.054056 25.935621 5.867045
1.353366 25.852324 5.821861
1.645747 25.806023 5.777242
1.938834 25.741486 5.725348
2.254755 25.696684 5.676468
2.604717 25.660196 5.631284
2.991794 25.655567 5.598620
3.349789 25.669847 5.583075
3.676387 25.657526 5.571103
3.986227 25.631054 5.558842
4.291440 25.587336 5.539404
4.590666 25.506203 5.502589
4.892139 25.362244 5.437171
5.205323 25.187407 5.343075
5.530125 25.017731 5.226449
5.774965 24.779785 5.084496
5.975240 24.560047 4.937803
6.181714 24.405994 4.798935
6.427437 24.303638 4.668513
6.718382 24.237091 4.546784
6.994119 24.121832 4.420650
7.251321 23.954691 4.298369
7.484858 23.712566 4.165750
7.752411 23.455814 4.041031
7.991745 23.188135 3.924918
8.237303 22.963100 3.834120
8.448808 22.719212 3.748509
8.641191 22.467516 3.665370
8.837158 22.227280 3.591586
9.053263 22.017014 3.530173
9.313067 21.860601 3.485193
9.592194 21.720144 3.448695
9.890157 21.582008 3.417450
10.208927 21.442671 3.390191
10.627176 21.408297 3.386971
11.076302 21.387285 3.388578
11.448701 21.297546 3.375079
11.780623 21.185898 3.356106
12.084174 21.046959 3.331764
12.367983 20.899782 3.306906
12.634632 20.731236 3.280127
12.894961 20.561365 3.256475
13.143657 20.377693 3.234673
13.386449 20.184187 3.216640
13.632777 20.000093 3.207268
13.874609 19.802992 3.203347
14.131321 19.621252 3.211541
14.397086 19.430923 3.227676
14.677266 19.236311 3.253643
14.971195 19.022240 3.290833
15.260228 18.767365 3.333509
15.481323 18.470236 3.371384
15.661991 18.184439 3.416416
15.812151 17.908360 3.470475
15.918374 17.620403 3.525726
15.996145 17.335485 3.587137
16.058800 17.044638 3.658091
16.127764 16.758062 3.741726
16.167866 16.449724 3.830193
16.262356 16.146698 3.936593
16.426027 15.865947 4.043826
16.714890 15.621829 4.153524
17.040478 15.389657 4.270134
17.366932 15.152033 4.387692
17.654099 14.928488 4.499931
17.917080 14.722072 4.607741
18.145401 14.522149 4.710676
18.328398 14.301157 4.804956
18.497005 14.079675 4.896205
18.647661 13.840669 4.982693
18.797001 13.592554 5.068019
18.946405 13.329953 5.158204
19.098621 13.048319 5.244366
19.264303 12.754110 5.329865
19.445742 12.444035 5.415966
19.625540 12.104770 5.497968
19.804399 11.795165 5.576010
19.981796 11.518518 5.650946
20.162914 11.268530 5.724957
20.340956 11.031798 5.795343
20.510794 10.794968 5.860165
20.675415 10.552980 5.920850
20.846083 10.305560 5.981213
21.023882 10.045556 6.041973
21.210228 9.766003 6.104031
21.414021 9.465188 6.170420
21.623068 9.143990 6.238101
21.828432 8.844286 6.303509
22.022806 8.560680 6.364727
22.213425 8.294452 6.423636
22.401743 8.042761 6.480659
22.580961 7.796391 6.534174
22.753761 7.553223 6.584888
22.923012 7.311408 6.633609
23.084557 7.064185 6.679258
23.242201 6.810270 6.722848
23.385578 6.539200 6.761553
23.538996 6.264101 6.801871
23.708555 5.983625 6.845669
23.887615 5.689582 6.891315
24.071999 5.374699 6.937710
24.255255 5.034137 6.982998
24.422207 4.695434 7.022908
24.576111 4.371538 7.058531
24.723803 4.062741 7.092010
24.870764 3.768684 7.125156
25.016628 3.485488 7.157916
25.156097 3.208883 7.188655
25.282494 2.932407 7.215044
25.403252 2.658241 7.239583
25.505486 2.377706 7.257651
25.602398 2.094444 7.273626
25.705725 1.810057 7.291492
25.791254 1.512583 7.302345
25.879791 1.206729 7.313272
25.973988 0.891200 7.325047
26.082804 0.566408 7.340981
26.204990 0.229581 7.360564
26.346666 -0.119174 7.386393
26.527943 -0.464961 7.427384
26.707130 -0.795210 7.463199
26.864717 -1.117643 7.484171
27.013554 -1.428594 7.497516
27.174063 -1.720028 7.515126
27.352589 -1.990004 7.543980
27.515192 -2.259056 7.564817
27.664265 -2.527738 7.579191
27.812447 -2.791971 7.595936
27.963779 -3.051417 7.619885
28.117491 -3.308741 7.651206
28.257858 -3.574455 7.679702
28.388897 -3.848781 7.705929
28.503654 -4.137366 7.727155
28.594563 -4.447282 7.731976
28.691393 -4.763936 7.752028
28.789616 -5.092084 7.783381
28.908915 -5.422639 7.848919
29.007153 -5.781731 7.906518
29.078987 -6.170186 7.950347
29.207401 -6.509847 8.066793
29.286341 -6.858277 8.141252
29.375795 -7.182349 8.237611
29.459135 -7.493709 8.337566
29.535126 -7.794947 8.439141
29.601036 -8.089694 8.538805
29.660891 -8.377399 8.640392
29.706167 -8.665064 8.734171
29.749784 -8.946929 8.833662
29.793173 -9.224056 8.939754
29.814470 -9.511254 9.029114
29.837055 -9.796734 9.125868
29.846586 -10.090479 9.215410
29.868156 -10.379663 9.322293
29.911573 -10.660711 9.455894
29.915073 -10.971026 9.554585
29.955906 -11.268333 9.693480
30.000172 -11.573635 9.838456
30.091139 -11.865626 10.027534
30.147804 -12.190896 10.186891
30.286362 -12.488819 10.415455
30.336231 -12.846851 10.567887
30.367414 -13.203275 10.697592
30.399689 -13.545589 10.821837
30.480095 -13.849958 10.973948
30.594608 -14.126902 11.140180
30.699224 -14.399703 11.292916
30.781681 -14.675127 11.429262
30.817532 -14.963881 11.543524
30.904158 -15.224401 11.682186
30.919462 -15.508017 11.797096
30.961843 -15.776124 11.928375
30.916023 -16.066788 12.043274
30.936029 -16.334225 12.186180
30.954275 -16.599634 12.337440
31.047646 -16.856239 12.512327
31.086594 -17.129429 12.685986
31.121239 -17.412352 12.870780
31.137903 -17.707537 13.066376
31.101597 -18.015392 13.268731
31.036171 -18.334269 13.483540
30.987375 -18.636534 13.708979
30.908998 -18.905573 13.931035
30.813980 -19.145391 14.150503
30.716740 -19.363358 14.370797
30.627455 -19.565039 14.593783
30.538008 -19.756256 14.820684
30.458889 -19.943201 15.055359
30.382320 -20.130545 15.298946
30.304991 -20.320086 15.548554
30.166693 -20.504335 15.776718
30.000742 -20.691082 15.989901
29.804365 -20.888210 16.189539
29.593346 -21.099741 16.379168
29.345474 -21.328724 16.544613
29.047174 -21.571293 16.670721
28.728455 -21.804514 16.752428
28.452631 -22.024172 16.823090
28.211563 -22.240355 16.897329
28.010839 -22.436071 16.961687
27.818825 -22.649193 17.030607
27.632370 -22.837383 17.073114
27.446571 -23.059780 17.121700
27.212496 -23.312084 17.146137
26.939182 -23.567753 17.132895
26.613214 -23.777536 17.054800
26.278450 -23.908587 16.929174
25.951481 -24.003014 16.787182
25.639631 -24.078497 16.640497
25.346613 -24.151047 16.496853
25.064777 -24.183210 16.329325
24.810648 -24.188774 16.153582
24.568245 -24.174702 15.958134
24.353632 -24.164480 15.771935
24.145393 -24.174589 15.578362
23.907604 -24.220118 15.357774
23.669189 -24.271616 15.112084
23.414228 -24.314306 14.814902
23.175529 -24.321888 14.485890
22.977280 -24.295120 14.156894
22.821907 -24.236338 13.824545
22.693960 -24.162882 13.494342
22.609146 -24.064022 13.170372
22.543619 -23.960529 12.847513
22.504822 -23.848036 12.533273
22.488703 -23.727539 12.222891
22.490843 -23.603636 11.920108
22.505522 -23.478510 11.622878
22.540672 -23.346230 11.330692
22.651617 -23.185575 11.046263
22.695154 -23.056450 10.758103
22.717339 -22.927036 10.472260
22.690861 -22.793715 10.183083
22.650434 -22.639669 9.897751
22.535908 -22.470699 9.618631
22.353872 -22.279617 9.361569
22.256645 -22.055420 9.105542
22.182262 -21.805580 8.853907
22.081274 -21.533152 8.610640
21.967644 -21.239002 8.378246
21.839039 -20.944780 8.184814
21.719923 -20.652733 8.026387
21.619478 -20.359825 7.897290
21.534960 -20.067343 7.793799
21.466103 -19.772123 7.712063
21.392801 -19.478092 7.655984
21.326399 -19.180611 7.616818
21.268566 -18.880238 7.592785
21.215227 -18.574596 7.579484
21.166019 -18.264551 7.575942
21.121172 -17.947933 7.577002
21.072269 -17.625460 7.582983
21.022659 -17.296192 7.589023
20.975359 -16.958059 7.590698
20.894501 -16.619589 7.596856
20.790915 -16.277580 7.600486
20.686701 -15.925194 7.590580
20.577942 -15.562527 7.565040
20.462925 -15.190339 7.521951
20.346506 -14.830909 7.476004
20.238493 -14.488638 7.430384
20.128496 -14.163980 7.388592
19.994070 -13.861774 7.358967
19.877205 -13.566358 7.325316
19.760157 -13.280511 7.293976
19.649321 -12.999646 7.262153
19.546040 -12.720103 7.228817
19.440563 -12.442915 7.197526
19.324930 -12.168459 7.171159
19.203468 -11.892686 7.147693
19.081003 -11.611001 7.124813
18.947224 -11.325031 7.106409
18.810005 -11.028922 7.088892
18.671507 -10.719023 7.071064
18.529648 -10.393573 7.053423
18.383793 -10.050143 7.035941
18.230022 -9.690949 7.020398
18.084404 -9.340765 7.005705
17.941980 -9.008578 6.994892
17.803801 -8.691699 6.987127
17.669304 -8.387671 6.982055
17.535639 -8.095560 6.980394
17.405540 -7.811920 6.980548
17.279676 -7.533434 6.981919
17.163294 -7.255447 6.982221
17.038593 -6.984027 6.987339
16.906897 -6.716617 6.996151
16.775465 -6.446683 7.005683
16.638456 -6.174953 7.017399
16.495134 -5.899292 7.030969
16.343214 -5.618184 7.046589
16.183760 -5.328773 7.063407
16.015953 -5.028704 7.081192
15.846622 -4.711918 7.097575
15.666851 -4.380551 7.114717
15.471922 -4.040428 7.134186
15.276814 -3.718873 7.155626
15.089850 -3.414349 7.177149
14.912115 -3.123962 7.198318
14.743675 -2.843537 7.218775
14.581705 -2.572258 7.239217
14.430175 -2.304376 7.258164
14.289557 -2.036603 7.275490
14.161458 -1.765066 7.290306
14.037300 -1.492896 7.304885
13.916553 -1.215643 7.318883
13.798227 -0.933530 7.332494
13.688004 -0.638739 7.343758
13.579153 -0.334409 7.354318
13.471392 -0.015767 7.363853
13.352869 0.313461 7.375461
13.253116 0.669126 7.380535
13.143806 1.041702 7.386750
13.058584 1.415626 7.385972
12.984324 1.768098 7.383041
12.906383 2.101022 7.382261
12.865376 2.425525 7.370867
12.777235 2.729038 7.375989
12.727898 3.030983 7.369453
12.680608 3.328099 7.363225
12.620257 3.621310 7.362821
12.570825 3.916709 7.359298
12.517764 4.214581 7.357837
12.482037 4.522266 7.349115
12.413611 4.832125 7.354273
12.342453 5.154278 7.360088
12.255361 5.486027 7.372239
12.147383 5.831025 7.392529
12.005993 6.185317 7.426565
11.842027 6.534007 7.471800
11.692668 6.849188 7.515459
11.557275 7.137123 7.556239
11.433533 7.412586 7.593605
11.311315 7.683074 7.631292
11.193999 7.957034 7.667185
11.081265 8.243464 7.700358
10.958206 8.543486 7.733549
10.833140 8.868551 7.761786
10.717544 9.232970 7.779542
10.609772 9.590357 7.783797
10.516486 9.916388 7.774086
10.430818 10.220440 7.755008
10.337754 10.509171 7.735287
10.245421 10.794862 7.715474
10.145416 11.083457 7.701944
10.026876 11.382785 7.702572
9.874154 11.691548 7.729930
9.704554 12.027784 7.776229
9.539068 12.345668 7.843293
9.367696 12.601892 7.941278
9.201588 12.832302 8.049192
9.056214 13.077304 8.145880
8.894103 13.329798 8.245671
8.733732 13.629913 8.322500
8.542233 13.955784 8.390138
8.389125 14.283987 8.420104
8.249234 14.585292 8.434111
8.095107 14.855246 8.458392
7.932762 15.108149 8.490076
7.766385 15.357602 8.519948
7.583937 15.606201 8.561437
7.384214 15.861133 8.607672
7.154806 16.124376 8.677293
6.894751 16.394806 8.772960
6.645298 16.627865 8.873354
6.411472 16.826714 8.956524
6.177411 17.008467 9.010459
5.933486 17.183456 9.045074
5.665967 17.362942 9.063264
5.365460 17.557505 9.070167
5.037571 17.742949 9.121894
4.740405 17.885323 9.180972
4.460350 17.991180 9.249121
4.176860 18.080036 9.305228
3.866921 18.180864 9.308679
3.508819 18.291216 9.296293
3.162042 18.365414 9.307189
2.855105 18.395138 9.337240
2.555474 18.409170 9.367811
2.231988 18.425577 9.414397
1.859596 18.474600 9.445588
1.517957 18.535175 9.487053
1.211932 18.605291 9.505660
0.919646 18.671434 9.524170
0.618684 18.728300 9.540856
0.283329 18.764563 9.571779
-0.097881 18.777502 9.618136
-0.441458 18.789587 9.604212
-0.750883 18.791075 9.572610
-1.047299 18.781570 9.525858
-1.352327 18.759686 9.473815
-1.688072 18.725060 9.424356
-2.063265 18.680029 9.372226
-2.404811 18.633217 9.328193
-2.713316 18.578465 9.319125
-3.005644 18.517563 9.296662
-3.301980 18.449619 9.255379
-3.622812 18.361128 9.221142
-3.982624 18.252380 9.177504
-4.311791 18.151524 9.127997
-4.600083 18.056923 9.066737
-4.872305 17.947859 8.991801
-5.153986 17.803574 8.901186
-5.463150 17.607256 8.811812
-5.722620 17.401581 8.736711
-5.935670 17.193462 8.667562
-6.133250 16.979446 8.583583
-6.350274 16.754337 8.477248
-6.615002 16.513811 8.348940
-6.890135 16.312620 8.194982
-7.158671 16.147028 8.039498
-7.419153 16.006866 7.888636
-7.681808 15.886616 7.733871
-7.938663 15.751102 7.602651
-8.186561 15.561934 7.506804
-8.402678 15.327864 7.450697
-8.573285 15.011097 7.447537
-8.730751 14.699319 7.438699
-8.903108 14.381397 7.415251
-9.124620 14.065206 7.363729
-9.302101 13.740221 7.347531
-9.425354 13.419002 7.364558
-9.526498 13.109927 7.394371
-9.609006 12.810393 7.434737
-9.697393 12.519352 7.474879
-9.776817 12.229053 7.521232
-9.851560 11.936362 7.570814
-9.942338 11.641380 7.614121
-10.024632 11.338795 7.659018
-10.073050 11.018148 7.713562
-10.133810 10.683641 7.759623
-10.223825 10.332676 7.789234
-10.310173 9.952887 7.813298
-10.410442 9.595947 7.819628
-10.516025 9.271812 7.811831
-10.638968 8.976456 7.788039
-10.748636 8.691103 7.761511
-10.871961 8.420115 7.724385
-11.002172 8.153814 7.681868
-11.140821 7.879147 7.634606
-11.288557 7.589831 7.584114
-11.433748 7.265642 7.536359
-11.580726 6.907334 7.491191
-11.716833 6.556394 7.449731
-11.825524 6.216704 7.417111
-11.908826 5.888664 7.392795
-11.970923 5.568951 7.375566
-12.025566 5.260150 7.360229
-12.067919 4.956662 7.348980
-12.109593 4.659009 7.337224
-12.146358 4.362588 7.326932
-12.183593 4.065663 7.315935
-12.226169 3.765635 7.302341
-12.265764 3.458048 7.289849
-12.321978 3.143464 7.270051
-12.396585 2.820129 7.242157
-12.468314 2.479386 7.215828
-12.544368 2.119894 7.188075
-12.634751 1.742529 7.154487
-12.732777 1.376730 7.116693
-12.814341 1.025187 7.085010
-12.890324 0.688856 7.054496
-12.970902 0.368374 7.020830
-13.057546 0.062399 6.983665
-13.143811 -0.234415 6.945974
-13.231278 -0.523361 6.907303
-13.310695 -0.811127 6.871291
-13.404897 -1.090956 6.829536
-13.502732 -1.370135 6.786576
-13.594296 -1.654752 6.745973
-13.687339 -1.944330 6.705113
-13.783894 -2.240817 6.663402
-13.884449 -2.546541 6.620918
-13.999398 -2.859954 6.574379
-14.137241 -3.180599 6.521009
-14.285410 -3.515817 6.464714
-14.437379 -3.870402 6.407366
-14.584130 -4.221265 6.351639
-14.730635 -4.551937 6.295015
-14.875304 -4.865399 6.237206
-15.012576 -5.166292 6.180172
-15.131968 -5.461256 6.128933
-15.252019 -5.745438 6.075209
-15.361716 -6.026043 6.024903
-15.457363 -6.306867 5.981695
-15.544020 -6.589335 5.944537
-15.620487 -6.876019 5.916091
-15.696967 -7.166317 5.890967
-15.767201 -7.464921 5.875242
-15.841637 -7.770510 5.861845
-15.926095 -8.083162 5.845573
-16.014469 -8.407901 5.832309
-16.130856 -8.735382 5.796788
-16.254559 -9.078185 5.759634
-16.387014 -9.438308 5.719826
-16.551538 -9.779788 5.641768
-16.670834 -10.123862 5.608943
-16.795555 -10.444920 5.563224
-16.929796 -10.742502 5.500855
-17.078020 -11.015520 5.418623
-17.205404 -11.293048 5.359683
-17.323673 -11.570165 5.310834
-17.436531 -11.846939 5.268699
-17.544624 -12.125993 5.233671
-17.646749 -12.409449 5.207880
-17.735880 -12.706313 5.199078
-17.831017 -13.003161 5.190563
-17.952242 -13.301891 5.168139
-18.110138 -13.597308 5.127884
-18.288094 -13.910306 5.086514
-18.477121 -14.250171 5.054923
-18.641243 -14.606105 5.042917
-18.785603 -14.952189 5.029037
-18.918081 -15.289627 5.010447
-19.033245 -15.618537 4.995543
-19.128798 -15.945110 4.992637
-19.205719 -16.263676 5.005977
-19.260880 -16.581844 5.047321
-19.300173 -16.889324 5.116891
-19.340885 -17.193306 5.202438
-19.389425 -17.487206 5.300856
-19.437830 -17.778255 5.424924
-19.494967 -18.063631 5.569986
-19.552689 -18.343283 5.745511
-19.625416 -18.623196 5.942636
-19.714195 -18.905535 6.164469
-19.864305 -19.207096 6.371291
-20.012255 -19.491131 6.585144
-20.171595 -19.761387 6.799614
-20.382132 -20.021563 6.992949
-20.574835 -20.245953 7.230250
-20.775497 -20.423830 7.480021
-21.010534 -20.561142 7.753437
-21.131281 -20.625538 8.068299
-21.007679 -20.681791 8.414793
-20.560667 -20.836866 8.767487
-20.492056 -20.976263 9.061955
-20.519125 -21.096504 9.352660
-20.596394 -21.194857 9.645872
-20.700090 -21.276659 9.942756
-20.813570 -21.355930 10.245151
-20.927515 -21.447273 10.552444
-21.057158 -21.545984 10.866436
-21.198616 -21.661564 11.186728
-21.376167 -21.769646 11.511933
-21.584381 -21.846506 11.826468
-21.801136 -21.884142 12.111271
-22.019371 -21.903343 12.372132
-22.232347 -21.918362 12.611251
