-24.140226 -24.383907 8.663122
-24.416256 -24.346565 8.489591
-24.704931 -24.307726 8.301244
-25.009798 -24.259378 8.107974
-25.321262 -24.177204 7.912246
-25.603447 -24.020256 7.707812
-25.860218 -23.801668 7.492625
-26.145710 -23.607023 7.296130
-26.440165 -23.458509 7.133854
-26.725899 -23.326157 6.993405
-26.997789 -23.194223 6.865359
-27.261774 -23.064938 6.746290
-27.444233 -22.840723 6.617017
-27.638538 -22.641901 6.499341
-27.844597 -22.457590 6.380416
-28.054592 -22.266899 6.256391
-28.269245 -22.070852 6.124397
-28.490864 -21.861986 5.980459
-28.715517 -21.635284 5.820805
-28.946754 -21.388519 5.641916
-29.144043 -21.121645 5.442162
-29.297262 -20.860416 5.228184
-29.410898 -20.606186 5.003490
-29.436806 -20.339350 4.762728
-29.327518 -20.050917 4.486280
-29.301149 -19.855003 4.213437
-29.365831 -19.692642 3.956804
-29.555656 -19.520279 3.743247
-29.809525 -19.298681 3.604912
-30.026627 -19.025141 3.522683
-30.222603 -18.707516 3.493501
-30.360584 -18.360907 3.489959
-30.456476 -17.981726 3.498977
-30.516832 -17.614405 3.514642
-30.559969 -17.267637 3.549411
-30.592728 -16.940226 3.605268
-30.613138 -16.627329 3.678110
-30.577919 -16.314837 3.731981
-30.535715 -16.013418 3.808005
-30.506254 -15.725361 3.914315
-30.451448 -15.440195 4.023921
-30.397072 -15.159793 4.147676
-30.338425 -14.881692 4.280724
-30.317640 -14.604550 4.435544
-30.340563 -14.323191 4.604434
-30.395313 -14.027913 4.775258
-30.418474 -13.714712 4.926823
-30.401211 -13.383189 5.058990
-30.373327 -13.032417 5.179210
-30.350813 -12.659732 5.288219
-30.368464 -12.288227 5.390074
-30.394367 -11.935452 5.482114
-30.421425 -11.598719 5.565533
-30.448294 -11.275052 5.641366
-30.445181 -10.962697 5.709938
-30.430908 -10.659437 5.773173
-30.407946 -10.360542 5.833131
-30.361279 -10.067363 5.889069
-30.319035 -9.772363 5.944287
-30.261141 -9.476281 5.998117
-30.196930 -9.177581 6.051730
-30.136549 -8.868762 6.107742
-30.072918 -8.550469 6.166185
-29.963348 -8.225337 6.224524
-29.850740 -7.885379 6.287546
-29.745461 -7.523773 6.357917
-29.625244 -7.161655 6.430727
-29.469528 -6.831674 6.498817
-29.251982 -6.543479 6.559999
-29.122345 -6.245699 6.628654
-29.065157 -5.939633 6.700735
-29.004354 -5.641683 6.770375
-28.938469 -5.348943 6.837515
-28.902058 -5.046744 6.903474
-28.765400 -4.786226 6.961556
-28.653244 -4.513398 7.018868
-28.584618 -4.215884 7.075438
-28.479362 -3.926751 7.128181
-28.339022 -3.643068 7.178017
-28.181767 -3.352996 7.225382
-28.037975 -3.040443 7.271021
-27.884420 -2.712249 7.314256
-27.719999 -2.365920 7.354780
-27.559042 -2.019646 7.389543
-27.387266 -1.706352 7.413571
-27.225090 -1.412465 7.427505
-27.086206 -1.126059 7.434719
-26.956343 -0.848546 7.434807
-26.846096 -0.569057 7.432468
-26.745167 -0.287252 7.428359
-26.640152 -0.003457 7.419886
-26.532763 0.288217 7.408836
-26.429752 0.595985 7.398680
-26.316227 0.918304 7.384387
-26.183655 1.256843 7.362031
-26.029882 1.612833 7.330389
-25.930941 1.976542 7.320569
-25.818319 2.309661 7.297469
-25.733879 2.632705 7.281453
-25.644768 2.938199 7.257807
-25.575859 3.239499 7.237730
-25.511894 3.535719 7.214641
-25.453707 3.830949 7.188703
-25.404449 4.133166 7.160317
-25.329823 4.430749 7.119009
-25.227011 4.731327 7.064869
-25.067442 5.022004 6.994069
-24.880598 5.313887 6.916160
-24.673450 5.619105 6.832283
-24.426582 5.920337 6.738484
-24.227104 6.219890 6.649781
-24.052444 6.504632 6.561244
-23.888330 6.775064 6.471188
-23.726316 7.027506 6.379084
-23.609776 7.302371 6.291860
-23.502695 7.578830 6.205337
-23.409983 7.866579 6.121150
-23.219614 8.080372 6.021734
-23.056908 8.322556 5.927870
-22.900997 8.582216 5.837033
-22.723536 8.840581 5.744771
-22.511917 9.096852 5.648242
-22.270170 9.359085 5.549684
-22.044731 9.664083 5.459067
-21.829679 9.961234 5.380648
-21.618765 10.235123 5.313984
-21.433548 10.503655 5.260859
-21.253197 10.759873 5.216094
-21.076380 11.007038 5.177878
-20.899801 11.248990 5.143742
-20.732475 11.495168 5.112770
-20.567429 11.747674 5.081888
-20.410631 12.013884 5.048559
-20.273149 12.308265 5.009869
-20.189108 12.655390 4.961095
-20.056805 13.001065 4.898287
-19.898722 13.352245 4.821486
-19.762630 13.688135 4.734595
-19.627567 13.992009 4.642309
-19.495907 14.275567 4.546702
-19.371803 14.546350 4.450210
-19.241747 14.803881 4.355968
-19.093840 15.048695 4.267015
-18.924438 15.284121 4.186157
-18.727495 15.516778 4.115911
-18.479181 15.750459 4.059036
-18.147663 15.971574 4.019810
-17.925600 16.291008 3.990174
-17.728041 16.604439 3.973541
-17.518663 16.892641 3.969444
-17.276728 17.154772 3.976570
-17.060812 17.415985 3.991334
-16.902809 17.686510 4.011459
-16.850027 17.988247 4.033647
-16.857107 18.313427 4.057196
-16.833281 18.627338 4.083754
-16.762350 18.931549 4.111806
-16.670635 19.238056 4.138918
-16.546505 19.547577 4.163644
-16.372118 19.849106 4.185559
-16.157618 20.152866 4.202394
-15.870943 20.418701 4.215484
-15.619098 20.665154 4.219394
-15.386533 20.892923 4.215950
-15.175982 21.134674 4.204877
-14.934983 21.332018 4.193866
-14.669254 21.485106 4.185486
-14.391980 21.631611 4.182973
-14.105745 21.782089 4.183645
-13.796319 21.929996 4.188081
-13.455989 22.076611 4.195899
-13.085817 22.222059 4.208599
-12.747122 22.380169 4.227499
-12.453747 22.568960 4.253225
-12.232927 22.834492 4.284786
-11.972728 23.017445 4.314887
-11.725292 23.201067 4.346031
-11.492534 23.394512 4.376849
-11.254814 23.574741 4.406697
-10.996867 23.724352 4.436675
-10.740071 23.881227 4.464693
-10.484194 24.052382 4.489302
-10.202477 24.200411 4.512696
-9.914792 24.364122 4.530805
-9.615267 24.541023 4.543190
-9.296733 24.725876 4.549648
-8.952788 24.908600 4.550083
-8.621806 25.081583 4.540259
-8.309244 25.235714 4.521003
-8.021498 25.392292 4.492407
-7.742375 25.532957 4.458023
-7.471954 25.667070 4.418990
-7.216119 25.819351 4.375092
-6.930887 25.912033 4.335083
-6.652430 26.028841 4.293594
-6.361415 26.147074 4.254560
-6.054781 26.269413 4.219696
-5.724401 26.395834 4.190957
-5.366180 26.528255 4.170124
-5.000277 26.652819 4.156188
-4.653525 26.776680 4.145116
-4.322665 26.897400 4.136812
-4.003167 27.007145 4.131648
-3.692500 27.107544 4.129168
-3.394395 27.217562 4.127401
-3.102538 27.331341 4.126547
-2.807138 27.417305 4.129058
-2.513145 27.491779 4.133191
-2.211162 27.538357 4.140069
-1.905375 27.558428 4.149260
-1.591678 27.559351 4.159807
-1.270915 27.531889 4.172204
-0.943979 27.517267 4.182534
-0.606705 27.494980 4.192279
-0.255431 27.490072 4.198933
0.111346 27.559645 4.197190
0.500575 27.613142 4.194622
0.877798 27.571753 4.196588
1.226610 27.505205 4.196903
1.556501 27.451931 4.193007
1.872604 27.419731 4.185018
2.182972 27.395290 4.174902
2.488783 27.366653 4.164509
2.789505 27.314308 4.156347
3.086015 27.242088 4.150882
3.387671 27.163696 4.148234
3.690616 27.066803 4.155149
3.997801 26.946287 4.166443
4.303654 26.779949 4.178853
4.632709 26.622383 4.194377
4.983500 26.457966 4.213679
5.326552 26.291464 4.237713
5.643631 26.135035 4.267637
5.939102 25.982237 4.302628
6.225153 25.853346 4.344788
6.500609 25.728331 4.391088
6.763607 25.590508 4.437754
7.032566 25.470932 4.488708
7.301084 25.343603 4.539048
7.573415 25.208601 4.587916
7.852262 25.061335 4.633898
8.152102 24.920250 4.678620
8.473411 24.777321 4.719842
8.820260 24.631594 4.756988
9.181222 24.495342 4.790912
9.521743 24.379019 4.823141
9.842480 24.275742 4.853123
10.147660 24.177097 4.880222
10.435970 24.065521 4.901084
10.714825 23.944298 4.915949
10.990516 23.821905 4.925965
11.266681 23.690044 4.930442
11.547707 23.551855 4.930803
11.838786 23.399532 4.926560
12.131037 23.211596 4.911404
12.432699 22.990864 4.887328
12.736315 22.751364 4.857555
13.015268 22.523380 4.826321
13.275470 22.310350 4.795283
13.516380 22.101171 4.761199
13.740107 21.892994 4.723746
13.948828 21.680286 4.681907
14.148794 21.461569 4.636113
14.331612 21.225721 4.584825
14.527683 20.990366 4.531450
14.741609 20.754158 4.474838
14.972844 20.509092 4.413412
15.210521 20.241278 4.346383
15.461753 19.953806 4.273818
15.694164 19.672855 4.185350
15.905562 19.410292 4.082298
16.093956 19.157587 3.970486
16.276682 18.917198 3.856866
16.448099 18.678280 3.746968
16.602125 18.432316 3.644682
16.742727 18.174891 3.553763
16.898750 17.913464 3.486731
17.033649 17.624434 3.436260
17.169218 17.309021 3.410332
17.322058 16.966703 3.423342
17.459242 16.604996 3.460073
17.572586 16.259579 3.509727
17.698420 15.947291 3.584586
17.812372 15.649935 3.672264
17.924713 15.369165 3.773072
18.024073 15.095371 3.882445
18.121935 14.830352 3.999984
18.212736 14.567632 4.123859
18.308710 14.310406 4.254524
18.399361 14.048148 4.387844
18.494560 13.784099 4.523973
18.599548 13.514753 4.663575
18.724754 13.244878 4.804616
18.870090 12.968113 4.947498
19.045916 12.688097 5.088529
19.268337 12.414238 5.227376
19.517395 12.135962 5.358633
19.759550 11.883782 5.477791
19.980221 11.654216 5.584804
20.184464 11.430193 5.685212
20.379154 11.214513 5.779037
20.574671 11.002587 5.869120
20.769148 10.786764 5.955339
20.962122 10.561728 6.038408
21.157513 10.326621 6.117909
21.360359 10.079402 6.194406
21.581278 9.819763 6.268942
21.805639 9.526728 6.343307
22.015863 9.212214 6.411831
22.197500 8.909528 6.466120
22.354977 8.616647 6.508317
22.492855 8.331038 6.540624
22.609823 8.047523 6.564715
22.697208 7.757164 6.580799
22.807524 7.478443 6.596763
22.934526 7.202964 6.614762
23.069162 6.922476 6.635849
23.225443 6.637728 6.664361
23.389187 6.339138 6.699552
23.617802 6.052937 6.754569
23.814587 5.722806 6.810223
24.039337 5.428285 6.877874
24.272448 5.170679 6.950912
24.468731 4.907316 7.019840
24.619911 4.625988 7.083885
24.795202 4.375862 7.154102
24.972439 4.136414 7.225155
25.140129 3.893756 7.294626
25.308348 3.652565 7.362255
25.478832 3.409889 7.426527
25.664288 3.168112 7.487013
25.841049 2.906312 7.540957
25.987118 2.606342 7.586156
26.103479 2.271394 7.621535
26.360947 1.976553 7.655999
26.449705 1.594161 7.670463
26.532003 1.236294 7.676432
26.603743 0.894888 7.673891
26.705435 0.585298 7.668551
26.768093 0.276993 7.653312
26.801657 -0.031741 7.630223
26.856518 -0.322540 7.605170
26.967178 -0.600458 7.584163
27.118860 -0.868485 7.568196
27.187002 -1.160102 7.538483
27.233410 -1.460208 7.504056
27.310402 -1.763235 7.474183
27.399748 -2.075211 7.446900
27.513428 -2.396163 7.425796
27.630592 -2.731749 7.407484
27.810314 -3.072883 7.406530
27.814999 -3.468287 7.364794
27.932514 -3.832935 7.353842
28.043257 -4.178655 7.344772
28.151257 -4.507466 7.338284
28.248968 -4.824091 7.331717
28.350073 -5.128192 7.328685
28.469164 -5.421177 7.333524
28.518185 -5.721654 7.317661
28.558758 -6.018938 7.299762
28.629683 -6.312255 7.292120
28.710890 -6.605337 7.288455
28.741346 -6.912716 7.266575
28.757269 -7.227612 7.238587
28.745394 -7.556994 7.198741
28.731291 -7.898391 7.156014
28.712292 -8.254635 7.109137
28.710772 -8.627789 7.066087
28.767944 -9.014242 7.042943
28.900757 -9.382521 7.052379
28.972078 -9.734294 7.043023
28.982014 -10.072916 7.014567
28.997316 -10.397044 6.990637
29.019310 -10.709022 6.970952
29.044987 -11.015045 6.952932
29.062634 -11.315318 6.931937
29.065968 -11.614945 6.904766
29.065580 -11.915761 6.874809
29.056894 -12.220194 6.839291
29.031124 -12.531965 6.795458
29.003057 -12.854741 6.746744
28.969543 -13.191586 6.691339
28.929449 -13.546380 6.628109
28.859837 -13.921247 6.548809
28.824553 -14.302556 6.463542
28.851082 -14.663523 6.373044
28.877119 -15.005202 6.263755
28.912016 -15.331223 6.144661
28.947792 -15.644504 6.018543
28.998547 -15.949068 5.896180
29.036091 -16.246729 5.772691
29.077892 -16.541672 5.660068
29.119751 -16.836988 5.562603
29.142540 -17.134529 5.478014
29.147211 -17.437195 5.412237
29.134121 -17.748812 5.372014
29.089622 -18.070789 5.355660
29.023466 -18.407581 5.376155
28.940266 -18.762657 5.438074
28.766277 -19.115267 5.517064
28.443995 -19.417137 5.589015
28.206360 -19.678207 5.731843
28.042509 -19.905125 5.923109
27.934969 -20.089939 6.160295
27.910786 -20.269064 6.406895
28.006392 -20.463259 6.683243
28.079370 -20.670603 6.964961
28.040354 -20.843338 7.232407
27.961744 -21.011147 7.502053
27.851742 -21.173536 7.767144
27.719931 -21.343246 8.028325
27.574329 -21.530920 8.285275
27.418034 -21.744999 8.531940
27.248240 -21.991791 8.764664
27.016850 -22.224483 8.970547
26.702068 -22.357206 9.114973
26.491064 -22.580008 9.220300
26.281202 -22.795504 9.289366
26.054207 -23.006784 9.333798
25.802261 -23.197365 9.363516
25.517048 -23.361002 9.389332
25.203287 -23.502468 9.423021
24.846458 -23.586323 9.472848
24.460569 -23.618620 9.547293
24.088606 -23.615499 9.632489
23.755182 -23.647490 9.726733
23.443235 -23.704287 9.823971
23.144989 -23.652433 9.906027
22.852932 -23.570940 9.959792
22.592930 -23.568367 10.007311
22.319321 -23.545458 10.041619
21.971933 -23.542667 10.077315
21.551720 -23.555897 10.099473
21.109724 -23.558754 10.105678
20.722498 -23.486767 10.079903
20.369974 -23.373026 10.037724
20.046644 -23.244171 9.984015
19.756594 -23.065615 9.909168
19.533770 -22.829975 9.809978
19.344990 -22.558786 9.689363
19.188957 -22.275290 9.558174
19.031124 -22.016085 9.434140
18.810955 -21.815090 9.339446
18.607307 -21.597107 9.242267
18.451075 -21.334763 9.128835
18.302032 -21.061773 9.018739
18.156706 -20.773861 8.912374
17.967878 -20.496868 8.831525
17.751492 -20.210722 8.767808
17.491447 -19.922201 8.728065
17.404160 -19.553558 8.646629
17.378187 -19.203806 8.579735
17.324154 -18.906582 8.553438
17.274805 -18.608234 8.544694
17.245817 -18.321079 8.545698
17.247030 -18.026455 8.552691
17.220301 -17.716988 8.577116
17.184135 -17.398590 8.611806
17.134920 -17.068508 8.653052
17.100979 -16.731245 8.687520
17.075787 -16.384212 8.713345
17.091692 -16.026123 8.714210
17.129137 -15.642414 8.691730
17.159821 -15.250801 8.656693
17.167656 -14.885593 8.628816
17.167561 -14.541565 8.602940
17.120930 -14.218770 8.595510
17.095758 -13.906447 8.578582
17.067804 -13.602563 8.562005
17.017517 -13.306021 8.554620
16.923231 -13.017123 8.568309
16.815083 -12.727522 8.589035
16.746103 -12.426617 8.589251
16.677273 -12.115211 8.587491
16.607088 -11.789734 8.583971
16.545477 -11.444403 8.572488
16.470301 -11.079006 8.564841
16.395632 -10.696531 8.553861
16.302868 -10.339801 8.555482
16.225977 -10.003006 8.549937
16.139690 -9.687182 8.551241
16.047558 -9.386867 8.556508
15.982184 -9.090470 8.545946
15.928651 -8.796008 8.527798
15.866590 -8.504050 8.513153
15.797933 -8.210019 8.500274
15.716774 -7.911030 8.491654
15.626664 -7.601779 8.484447
15.540668 -7.274348 8.470820
15.441935 -6.928691 8.459217
15.337859 -6.558527 8.444935
15.232107 -6.191263 8.427300
15.112576 -5.851644 8.413999
15.015035 -5.526442 8.388016
14.944834 -5.210206 8.348178
14.834104 -4.917465 8.327441
14.731782 -4.631243 8.303135
14.630577 -4.349681 8.279475
14.544668 -4.064908 8.251101
14.461241 -3.776710 8.224610
14.376903 -3.482265 8.202290
14.291268 -3.177825 8.185049
14.205021 -2.859455 8.173341
14.117397 -2.523516 8.168283
14.030900 -2.165558 8.169683
13.927096 -1.790099 8.185515
13.877154 -1.417873 8.192416
13.848506 -1.065287 8.202658
13.781396 -0.742306 8.235933
13.674618 -0.443401 8.290869
13.639544 -0.139786 8.326429
13.604762 0.156770 8.366860
13.587741 0.454365 8.404699
13.565743 0.752545 8.446423
13.547666 1.057377 8.487545
13.482264 1.362555 8.543165
13.391234 1.676262 8.603896
13.299960 2.007625 8.661095
13.208119 2.361780 8.713037
13.093058 2.732120 8.766027
13.025921 3.096634 8.801599
12.979119 3.442499 8.829059
12.932669 3.769631 8.854544
12.865906 4.076060 8.884043
12.801287 4.373165 8.911167
12.703822 4.654883 8.946097
12.622363 4.940520 8.974627
12.529239 5.226652 9.005047
12.425521 5.518870 9.037322
12.318197 5.823866 9.069622
12.219214 6.150105 9.098274
12.135094 6.503733 9.120925
12.049796 6.881778 9.142758
11.999021 7.248714 9.151919
11.937664 7.583549 9.164581
11.819599 7.886557 9.200601
11.739736 8.183695 9.221577
11.674701 8.476099 9.235053
11.632606 8.772597 9.234225
11.575850 9.072762 9.235828
11.524063 9.389227 9.227691
11.458457 9.724636 9.218131
11.371972 10.085348 9.209866
11.260273 10.453280 9.206403
11.133514 10.781377 9.206861
11.005265 11.080637 9.203757
10.879977 11.361947 9.195326
10.758070 11.635686 9.181932
10.642618 11.912259 9.162606
10.530990 12.199751 9.140507
10.404307 12.499216 9.131394
10.273174 12.824598 9.128695
10.135407 13.182711 9.136190
10.011938 13.529677 9.159093
9.924572 13.853464 9.181546
9.862657 14.161556 9.200140
9.799170 14.457091 9.225654
9.729788 14.748418 9.249343
9.652737 15.047651 9.261601
9.557194 15.370094 9.256389
9.409967 15.713362 9.253151
9.194478 16.006058 9.284604
8.987031 16.245676 9.293270
8.739811 16.421654 9.327401
8.494547 16.609226 9.324780
8.215650 16.800674 9.323158
7.953236 17.081285 9.248581
7.691124 17.326145 9.193829
7.426250 17.509888 9.174356
7.170182 17.672876 9.154435
6.912787 17.828506 9.128827
6.632240 17.978300 9.108122
6.319841 18.139282 9.081358
5.975446 18.308149 9.055947
5.656652 18.457689 9.039545
5.357318 18.582687 9.036242
5.073548 18.695946 9.031137
4.793574 18.800497 9.022773
4.510365 18.904518 9.004289
4.212760 19.016705 8.970317
3.886679 19.128984 8.929914
3.518997 19.230280 8.893100
3.159419 19.323822 8.850389
2.826475 19.409830 8.800934
2.511263 19.481066 8.753397
2.204939 19.529703 8.715609
1.907052 19.572237 8.677032
1.609312 19.602453 8.644845
1.313530 19.657778 8.594963
1.002865 19.697786 8.558998
0.671640 19.705070 8.551453
0.319133 19.709011 8.553805
-0.062131 19.709528 8.569008
-0.441550 19.710621 8.594375
-0.791947 19.710680 8.628298
-1.120145 19.712509 8.666771
-1.431991 19.714388 8.708798
-1.732164 19.704491 8.760799
-2.028409 19.694675 8.812038
-2.322381 19.666260 8.874524
-2.617556 19.615246 8.950144
-2.929595 19.575481 9.010014
-3.260653 19.532087 9.063284
-3.613520 19.475763 9.115646
-3.986113 19.390699 9.179036
-4.331876 19.289389 9.242787
-4.642953 19.185513 9.296205
-4.930707 19.075678 9.341582
-5.206764 18.967049 9.374866
-5.481709 18.851021 9.403142
-5.769557 18.738359 9.418816
-6.080694 18.624498 9.426250
-6.425249 18.510628 9.424865
-6.790209 18.382048 9.429356
-7.113808 18.248217 9.443453
-7.404323 18.115376 9.458240
-7.674245 17.977928 9.472923
-7.936272 17.828381 9.487808
-8.202051 17.660318 9.501797
-8.480018 17.459389 9.522824
-8.783012 17.227495 9.541903
-9.058756 16.999918 9.564387
-9.297406 16.783981 9.587383
-9.508735 16.566710 9.611032
-9.710705 16.344191 9.624048
-9.915274 16.103994 9.625747
-10.135365 15.837107 9.611979
-10.362586 15.529442 9.595693
-10.555017 15.238043 9.571321
-10.710797 14.964941 9.541342
-10.846545 14.698642 9.502292
-10.971282 14.422533 9.459189
-11.091219 14.115192 9.421204
-11.221367 13.764046 9.385192
-11.327935 13.405308 9.377691
-11.401714 13.067225 9.395373
-11.471100 12.752810 9.404830
-11.546947 12.455491 9.396615
-11.625299 12.167349 9.379683
-11.704499 11.878797 9.359347
-11.779071 11.582476 9.343863
-11.852036 11.271914 9.331913
-11.916843 10.939323 9.331271
-11.973256 10.577922 9.342946
-12.011829 10.191609 9.374472
-12.024817 9.832003 9.423843
-12.000954 9.496544 9.500046
-12.049653 9.188501 9.509357
-12.089431 8.888423 9.523934
-12.120252 8.591085 9.543135
-12.174419 8.291767 9.540260
-12.241117 7.982230 9.523453
-12.325247 7.659593 9.488860
-12.393600 7.312911 9.464354
-12.465232 6.936191 9.434167
-12.539272 6.566368 9.395602
-12.623384 6.224069 9.341197
-12.677305 5.894490 9.306697
-12.741802 5.583785 9.258345
-12.819152 5.290080 9.194943
-12.903664 5.006739 9.122606
-12.986234 4.727927 9.050569
-13.060412 4.445305 8.986020
-13.111077 4.150182 8.943744
-13.149670 3.841184 8.915440
-13.199564 3.523294 8.880865
-13.248747 3.187973 8.852231
-13.298426 2.832220 8.829441
-13.354291 2.453813 8.808150
-13.411020 2.069136 8.788845
-13.472439 1.709919 8.761379
-13.537120 1.372241 8.728332
-13.613787 1.055708 8.684306
-13.705192 0.757234 8.629646
-13.778975 0.462345 8.589878
-13.876990 0.181293 8.535907
-13.935317 -0.111000 8.512071
-13.984102 -0.407989 8.496988
-14.045961 -0.705880 8.476984
-14.117556 -1.009477 8.455853
-14.197004 -1.323178 8.435854
-14.306664 -1.643321 8.405713
-14.448324 -1.973113 8.366520
-14.599885 -2.323424 8.330071
-14.743601 -2.683700 8.305466
-14.869762 -3.024528 8.296684
-14.987065 -3.346508 8.297908
-15.099821 -3.652330 8.305865
-15.201084 -3.948415 8.324269
-15.291459 -4.238608 8.352381
-15.422156 -4.510430 8.355774
-15.549013 -4.782426 8.360586
-15.685378 -5.054144 8.356009
-15.793333 -5.341957 8.371333
-15.886562 -5.644936 8.398500
-15.974214 -5.965216 8.430566
-16.024113 -6.317163 8.500869
-16.123924 -6.676903 8.523197
-16.283644 -7.033785 8.478666
-16.411983 -7.377992 8.456128
-16.510992 -7.709063 8.455682
-16.582466 -8.031752 8.477100
-16.663136 -8.336396 8.480305
-16.745256 -8.630008 8.473942
-16.838192 -8.913410 8.449095
-16.947100 -9.188971 8.401132
-17.052202 -9.470175 8.353492
-17.154776 -9.761643 8.305825
-17.246702 -10.071284 8.267397
-17.337774 -10.399875 8.228613
-17.416189 -10.756251 8.202021
-17.522272 -11.127087 8.147520
-17.608444 -11.486634 8.102791
-17.682699 -11.823442 8.058483
-17.742893 -12.143170 8.018325
-17.778133 -12.454169 7.993672
-17.814693 -12.753954 7.962032
-17.860130 -13.046236 7.919027
-17.889833 -13.342594 7.887611
-17.949331 -13.636896 7.831275
-18.029686 -13.936412 7.760173
-18.065582 -14.262851 7.727992
-18.059534 -14.621454 7.732385
-18.139399 -14.984123 7.675015
-18.215307 -15.362190 7.619359
-18.222784 -15.735831 7.599238
-18.212318 -16.093700 7.581904
-18.185066 -16.439787 7.573814
-18.198421 -16.762590 7.528228
-18.230083 -17.071634 7.467558
-18.269104 -17.373211 7.405403
-18.380964 -17.649683 7.279857
-18.426781 -17.949924 7.242846
-18.482157 -18.254042 7.223960
-18.585266 -18.553284 7.185423
-18.721552 -18.856720 7.146467
-18.901587 -19.165316 7.106025
-19.068674 -19.502884 7.139635
-19.263859 -19.838882 7.180828
-19.459816 -20.156969 7.233398
-19.711426 -20.444155 7.243816
-19.919676 -20.726715 7.319906
-20.139687 -20.984703 7.403302
-20.342505 -21.229734 7.515741
-20.447636 -21.481039 7.703846
-20.510324 -21.744043 7.910792
-20.521904 -22.031252 8.134880
-20.657957 -22.273943 8.287271
-20.810825 -22.513546 8.431267
-20.982574 -22.745735 8.563609
-21.183338 -22.971231 8.683196
-21.410440 -23.187145 8.788960
-21.655548 -23.394571 8.878723
-21.933805 -23.592312 8.950514
-22.247162 -23.761900 8.999009
-22.584942 -23.929649 9.027370
-22.951693 -24.074810 9.030455
-23.275793 -24.218845 8.998701
-23.567465 -24.351698 8.928982
-23.859806 -24.387840 8.811745
