-24.140678 -24.383844 8.662858
-24.416679 -24.346510 8.489313
-24.705275 -24.307657 8.301017
-25.010069 -24.259325 8.107764
-25.321674 -24.177023 7.912107
-25.603739 -24.020031 7.707407
-25.860558 -23.801378 7.492368
-26.146032 -23.606808 7.295951
-26.440474 -23.458349 7.133688
-26.726158 -23.326027 6.993264
-26.998016 -23.194130 6.865262
-27.261923 -23.064835 6.746217
-27.444368 -22.840548 6.616925
-27.638689 -22.641760 6.499254
-27.844727 -22.457468 6.380361
-28.054691 -22.266808 6.256342
-28.269312 -22.070789 6.124360
-28.490910 -21.861944 5.980432
-28.715540 -21.635262 5.820790
-28.946754 -21.388517 5.641916
-29.143999 -21.121706 5.442212
-29.297218 -20.860498 5.228247
-29.410864 -20.606289 5.003609
-29.436804 -20.339540 4.762889
-29.355114 -20.062355 4.491436
-29.330154 -19.863348 4.220624
-29.391766 -19.696686 3.965845
-29.573469 -19.521994 3.750426
-29.809219 -19.298479 3.605288
-30.026964 -19.025429 3.522235
-30.222460 -18.707626 3.493582
-30.360548 -18.361292 3.489885
-30.456375 -17.982214 3.498953
-30.516817 -17.614878 3.514564
-30.559902 -17.268162 3.549359
-30.592663 -16.940695 3.605054
-30.613167 -16.627895 3.678071
-30.577988 -16.315361 3.731904
-30.535812 -16.013861 3.807729
-30.506287 -15.725890 3.914137
-30.451519 -15.440461 4.023690
-30.397198 -15.160419 4.147372
-30.338503 -14.882410 4.280396
-30.317663 -14.605302 4.435180
-30.340479 -14.323887 4.603949
-30.395185 -14.028701 4.774951
-30.418488 -13.715503 4.926479
-30.401281 -13.384042 5.058672
-30.373400 -13.033398 5.178900
-30.350834 -12.660792 5.287930
-30.368389 -12.289267 5.389774
-30.394293 -11.936430 5.481895
-30.421328 -11.599698 5.565201
-30.448301 -11.275973 5.641171
-30.445196 -10.964372 5.709647
-30.430956 -10.660209 5.772987
-30.408060 -10.361286 5.833047
-30.361399 -10.068115 5.888889
-30.319174 -9.773098 5.944166
-30.261683 -9.478729 5.997668
-30.197113 -9.178453 6.051576
-30.136715 -8.869707 6.107543
-30.073156 -8.551531 6.166008
-29.963829 -8.226545 6.224294
-29.851124 -7.886736 6.287297
-29.745911 -7.525310 6.357615
-29.625710 -7.162902 6.430473
-29.471058 -6.833034 6.498541
-29.252855 -6.545310 6.559684
-29.123121 -6.247607 6.628158
-29.065529 -5.941483 6.700319
-29.004410 -5.641924 6.770309
-28.938726 -5.350566 6.837158
-28.902643 -5.048061 6.903181
-28.766159 -4.787517 6.961276
-28.653568 -4.514897 7.018565
-28.585161 -4.217302 7.075120
-28.480061 -3.928271 7.127934
-28.339745 -3.644454 7.177752
-28.182665 -3.354637 7.225121
-28.038757 -3.042091 7.270833
-27.885330 -2.714167 7.314000
-27.720963 -2.367944 7.354559
-27.559963 -2.021615 7.389392
-27.388372 -1.708183 7.413424
-27.225868 -1.413902 7.427522
-27.087048 -1.127881 7.434713
-26.957001 -0.850000 7.434640
-26.846724 -0.570885 7.432590
-26.745810 -0.289058 7.428274
-26.640835 -0.005300 7.420068
-26.533384 0.286273 7.408857
-26.430517 0.593888 7.398787
-26.316965 0.916075 7.384472
-26.184488 1.254452 7.362154
-26.031033 1.610424 7.330674
-25.931564 1.973972 7.320665
-25.819218 2.307326 7.297643
-25.734293 2.630291 7.281549
-25.645298 2.936110 7.257925
-25.576128 3.237290 7.237824
-25.512121 3.533094 7.214849
-25.454191 3.829163 7.188865
-25.404280 4.131578 7.160586
-25.330343 4.429478 7.119056
-25.227526 4.730234 7.065232
-25.069841 5.018030 6.995117
-24.881733 5.312125 6.916631
-24.675243 5.616973 6.832993
-24.428705 5.917706 6.739480
-24.228844 6.216831 6.650774
-24.053297 6.503098 6.562510
-23.890034 6.772393 6.473372
-23.726667 7.025958 6.381283
-23.610254 7.300188 6.295042
-23.502556 7.577065 6.208934
-23.410677 7.865527 6.125498
-23.219896 8.079214 6.026287
-23.057158 8.321494 5.932539
-22.901726 8.580222 5.841842
-22.724413 8.839274 5.748636
-22.514076 9.094337 5.651908
-22.272852 9.356554 5.551598
-22.047457 9.661311 5.458941
-21.832766 9.959169 5.377799
-21.622705 10.233761 5.307725
-21.437149 10.503459 5.250693
-21.258205 10.760701 5.202161
-21.082058 11.009615 5.159718
-20.908506 11.253699 5.122222
-20.745123 11.502573 5.087915
-20.584919 11.756422 5.054135
-20.433664 12.025098 5.018661
-20.304016 12.319157 4.978444
-20.222696 12.662425 4.928293
-20.114906 13.015674 4.865250
-19.966579 13.371259 4.789061
-19.841930 13.717836 4.703143
-19.713310 14.031210 4.612367
-19.589310 14.321331 4.518681
-19.470016 14.598234 4.424032
-19.348269 14.862536 4.331193
-19.211895 15.114148 4.242997
-19.052357 15.353760 4.162204
-18.865921 15.594471 4.090502
-18.635546 15.827479 4.031480
-18.305176 16.040531 3.989038
-18.038343 16.329506 3.957481
-17.871387 16.668289 3.936136
-17.658718 16.962076 3.929884
-17.437963 17.235395 3.935112
-17.189476 17.487036 3.950461
-17.018612 17.756330 3.971026
-16.929897 18.047068 3.995005
-16.929008 18.366301 4.020322
-16.918232 18.687115 4.047863
-16.865519 18.994997 4.077427
-16.769321 19.295954 4.107029
-16.667835 19.612226 4.133258
-16.493773 19.908131 4.157765
-16.291521 20.211027 4.176698
-16.018375 20.488819 4.191140
-15.752519 20.738314 4.196615
-15.508477 20.959455 4.193938
-15.300011 21.204449 4.181380
-15.071441 21.417255 4.166672
-14.807061 21.576075 4.154558
-14.528724 21.714041 4.147042
-14.246712 21.867971 4.143578
-13.945529 22.018236 4.144381
-13.611036 22.164133 4.149691
-13.243524 22.311045 4.160501
-12.900433 22.469978 4.177779
-12.586926 22.636549 4.200727
-12.360186 22.900320 4.231065
-12.112456 23.107136 4.260853
-11.850299 23.272743 4.291404
-11.620493 23.473326 4.321932
-11.379288 23.649620 4.352015
-11.126495 23.806198 4.381899
-10.869376 23.960474 4.410606
-10.610877 24.122931 4.436783
-10.337208 24.277943 4.460557
-10.050564 24.434780 4.480445
-9.754482 24.606453 4.494636
-9.442027 24.788107 4.502878
-9.105782 24.973339 4.505061
-8.764736 25.147835 4.498787
-8.445838 25.307360 4.482135
-8.150825 25.464914 4.455900
-7.869334 25.611423 4.422817
-7.596298 25.748516 4.384685
-7.331358 25.884502 4.342714
-7.058712 26.002333 4.300334
-6.785119 26.122671 4.257678
-6.499782 26.240530 4.217124
-6.202876 26.365034 4.179811
-5.883422 26.488260 4.148370
-5.538178 26.619211 4.123955
-5.170944 26.753887 4.107541
-4.813581 26.869427 4.096443
-4.478021 26.998493 4.086890
-4.151989 27.106544 4.081581
-3.838110 27.212919 4.078501
-3.532490 27.312677 4.077755
-3.237609 27.420698 4.077717
-2.943542 27.517544 4.079764
-2.650829 27.600786 4.083786
-2.350267 27.652676 4.091006
-2.044706 27.679220 4.100579
-1.735850 27.685249 4.111756
-1.418578 27.666300 4.124603
-1.095833 27.648941 4.136471
-0.763783 27.626324 4.147636
-0.419071 27.610104 4.156752
-0.061004 27.640116 4.160011
0.317622 27.700010 4.158517
0.707574 27.738180 4.155965
1.069763 27.667093 4.158764
1.409329 27.608662 4.156942
1.731165 27.567999 4.150847
2.044526 27.544769 4.141310
2.353239 27.523190 4.130512
2.657017 27.485336 4.120819
2.954338 27.422312 4.113806
3.254125 27.348906 4.108983
3.557942 27.268946 4.109839
3.862277 27.157488 4.119211
4.170572 27.020306 4.131111
4.488778 26.861410 4.144858
4.819963 26.676649 4.159444
5.178542 26.523733 4.181757
5.507496 26.361034 4.207928
5.812545 26.203346 4.239647
6.102945 26.064486 4.277654
6.382394 25.935396 4.321112
6.653230 25.806681 4.367462
6.918614 25.678431 4.415701
7.183674 25.548023 4.464643
7.455021 25.420334 4.513851
7.727271 25.275017 4.559752
8.013630 25.128004 4.603845
8.320178 24.982010 4.645059
8.653153 24.841225 4.683087
9.007545 24.687601 4.715415
9.363626 24.565193 4.746494
9.693354 24.448267 4.773934
10.009727 24.350689 4.800015
10.308693 24.249723 4.821662
10.592868 24.133329 4.836841
10.870061 24.012732 4.846524
11.146508 23.888575 4.851747
11.423892 23.757509 4.852314
11.708677 23.616446 4.848957
12.000376 23.454813 4.839740
12.296694 23.261784 4.821933
12.601490 23.032768 4.795348
12.900414 22.796364 4.765840
13.170794 22.568670 4.734425
13.428819 22.359360 4.705343
13.661812 22.147585 4.671771
13.881325 21.938068 4.635870
14.089032 21.724260 4.596310
14.282563 21.500332 4.552223
14.466970 21.262756 4.503747
14.666416 21.027843 4.453375
14.885962 20.791351 4.399071
15.120128 20.542959 4.339461
15.359697 20.270405 4.274092
15.614984 19.984404 4.202065
15.843752 19.706448 4.112618
16.051838 19.446121 4.009658
16.241678 19.196558 3.898494
16.424141 18.957243 3.786518
16.594814 18.718979 3.679200
16.747074 18.470846 3.578940
16.888252 18.212305 3.491267
17.045340 17.949152 3.429340
17.181076 17.656355 3.382249
17.319351 17.337975 3.364390
17.466181 16.987747 3.381218
17.601381 16.629366 3.422901
17.710358 16.286551 3.476547
17.837948 15.978603 3.556650
17.947386 15.682383 3.646264
18.058964 15.404143 3.751299
18.157665 15.132175 3.862641
18.252594 14.867762 3.983086
18.340258 14.605400 4.107989
18.433851 14.347569 4.240603
18.522829 14.086337 4.375123
18.614012 13.819783 4.512601
18.715832 13.550497 4.652175
18.835302 13.275925 4.794701
18.973223 12.995610 4.935808
19.142820 12.711017 5.077828
19.357664 12.428856 5.216438
19.595108 12.143106 5.347804
19.825504 11.887668 5.466976
20.037949 11.649547 5.576690
20.233032 11.423279 5.678164
20.422953 11.201598 5.775248
20.613077 10.986426 5.867181
20.802071 10.767031 5.955671
20.991190 10.539562 6.040323
21.184605 10.302861 6.121336
21.386936 10.053607 6.199298
21.607952 9.791641 6.275168
21.831682 9.493697 6.350909
22.036900 9.179160 6.418871
22.216101 8.877739 6.472560
22.370216 8.585158 6.514031
22.506481 8.300274 6.545713
22.621910 8.016690 6.569125
22.709066 7.726534 6.584727
22.819351 7.447587 6.600234
22.948038 7.172642 6.618203
23.084343 6.890943 6.639457
23.242844 6.606877 6.668435
23.411020 6.307418 6.704715
23.626318 6.011379 6.757504
23.839396 5.690485 6.817408
24.063965 5.398933 6.885456
24.297371 5.144344 6.959067
24.486294 4.879109 7.026566
24.638889 4.599187 7.091401
24.817575 4.353272 7.162112
24.989914 4.110388 7.232576
25.157940 3.868464 7.301931
25.326311 3.626941 7.369261
25.497450 3.384006 7.433219
25.683508 3.142151 7.492936
25.860622 2.878037 7.546334
26.001249 2.574115 7.590428
26.107975 2.229898 7.624047
26.369038 1.934649 7.657842
26.458973 1.555235 7.671328
26.539566 1.199074 7.676572
26.611137 0.862687 7.673403
26.712244 0.551462 7.667117
26.774498 0.244388 7.651682
26.811787 -0.062431 7.627940
26.864487 -0.353245 7.602655
26.977024 -0.627458 7.581788
27.128542 -0.898470 7.565531
27.190596 -1.190550 7.534873
27.242765 -1.491248 7.501175
27.320505 -1.795068 7.471421
27.408800 -2.108364 7.444136
27.526205 -2.430129 7.423914
27.641619 -2.767921 7.405434
27.815996 -3.111974 7.403471
27.820879 -3.508402 7.361871
27.944843 -3.869433 7.352969
28.054813 -4.213349 7.344067
28.161392 -4.540777 7.337477
28.258869 -4.856026 7.331145
28.360626 -5.159595 7.328469
28.473799 -5.452217 7.331749
28.521912 -5.752332 7.315684
28.568720 -6.048358 7.299864
28.636543 -6.342277 7.291246
28.718054 -6.635699 7.287682
28.743383 -6.944403 7.263933
28.758375 -7.261853 7.235298
28.743414 -7.591269 7.194290
28.731350 -7.933867 7.152074
28.709072 -8.292157 7.103720
28.712160 -8.666913 7.062115
28.783211 -9.052599 7.044296
28.911942 -9.419059 7.052729
28.976665 -9.770726 7.041216
28.983463 -10.106278 7.011997
28.998850 -10.429139 6.988348
29.023857 -10.740218 6.969803
29.047350 -11.045665 6.951017
29.062950 -11.345564 6.929298
29.066317 -11.645249 6.901947
29.064535 -11.946299 6.871246
29.056097 -12.251401 6.835596
29.028234 -12.564054 6.790664
28.999683 -12.888106 6.741450
28.965691 -13.226576 6.685274
28.925049 -13.583185 6.621281
28.851385 -13.960360 6.539958
28.825687 -14.339814 6.455004
28.854687 -14.698715 6.363098
28.880562 -15.038664 6.252268
28.915121 -15.363181 6.132052
28.952110 -15.675382 6.005967
29.003428 -15.979211 5.883954
29.040533 -16.276354 5.761010
29.081688 -16.571129 5.649397
29.122112 -16.866503 5.553162
29.144413 -17.164537 5.470782
29.146915 -17.467846 5.407000
29.130890 -17.780382 5.369180
29.084003 -18.103628 5.355960
29.011063 -18.441561 5.378522
28.934483 -18.799452 5.447982
28.728109 -19.146292 5.519904
28.416567 -19.445068 5.600252
28.203054 -19.704187 5.752769
28.038658 -19.926285 5.946522
27.950882 -20.112309 6.187525
27.919336 -20.287994 6.433917
28.019075 -20.484234 6.711311
28.076500 -20.687723 6.991169
28.035381 -20.860449 7.258984
27.952759 -21.027441 7.528328
27.839207 -21.189478 7.793016
27.706469 -21.361057 8.053710
27.559553 -21.550566 8.310029
27.401968 -21.767729 8.555404
27.230860 -22.017881 8.786554
26.990231 -22.243193 8.987584
26.676271 -22.382441 9.127473
26.471022 -22.600992 9.228436
26.259865 -22.815756 9.294559
26.031672 -23.027277 9.337251
25.776501 -23.215773 9.366132
25.487288 -23.375044 9.392023
25.170975 -23.515467 9.427183
24.810196 -23.593082 9.479126
24.423008 -23.617926 9.555136
24.054367 -23.615137 9.641155
23.719685 -23.652561 9.736169
23.414648 -23.706623 9.832969
23.118828 -23.643040 9.910958
22.829998 -23.570488 9.964726
22.569937 -23.566538 10.010615
22.293209 -23.543398 10.043209
21.938145 -23.541937 10.080219
21.508734 -23.555271 10.100194
21.070354 -23.554159 10.103542
20.687433 -23.475935 10.076089
20.341858 -23.365213 10.035726
20.016430 -23.228079 9.976917
19.730005 -23.045057 9.900960
19.512550 -22.805000 9.798670
19.329735 -22.529444 9.676138
19.175888 -22.252579 9.547380
18.997011 -22.008715 9.430600
18.783718 -21.800436 9.332932
18.587317 -21.575788 9.233358
18.422619 -21.318962 9.123968
18.271910 -21.044638 9.014595
18.129166 -20.754534 8.908351
17.950201 -20.469484 8.824730
17.724403 -20.186169 8.764527
17.465132 -19.894035 8.725262
17.397806 -19.514982 8.638257
17.376612 -19.176140 8.575453
17.318060 -18.881937 8.553911
17.271729 -18.583551 8.543568
17.245882 -18.295177 8.546145
17.245382 -17.993849 8.554304
17.216713 -17.688002 8.580151
17.182268 -17.368088 8.614809
17.130642 -17.037039 8.656800
17.096970 -16.699459 8.690849
17.077293 -16.351887 8.713611
17.093079 -15.992129 8.713797
17.132713 -15.604780 8.688373
17.162888 -15.215421 8.653252
17.166918 -14.852761 8.626715
17.163120 -14.510738 8.602293
17.118837 -14.189005 8.593787
17.094065 -13.877604 8.576721
17.064308 -13.574488 8.560741
17.010265 -13.279421 8.555259
16.912556 -12.990278 8.570505
16.812220 -12.699584 8.587321
16.739874 -12.398168 8.589096
16.670469 -12.085750 8.587436
16.601929 -11.758506 8.582754
16.537815 -11.411750 8.572347
16.464384 -11.043777 8.563335
16.386419 -10.662629 8.554274
16.295015 -10.307904 8.555329
16.217867 -9.973271 8.550109
16.131979 -9.658655 8.551266
16.040295 -9.359701 8.556270
15.977545 -9.063306 8.544197
15.923670 -8.769001 8.526078
15.860373 -8.477314 8.512028
15.791537 -8.182761 8.499027
15.708714 -7.883279 8.491053
15.618243 -7.572773 8.483688
15.532815 -7.243437 8.469352
15.433209 -6.895856 8.457747
15.328018 -6.524000 8.443549
15.219666 -6.159812 8.426975
15.102871 -5.821474 8.412095
15.008560 -5.497131 8.384439
14.935546 -5.182956 8.345936
14.824126 -4.891399 8.325527
14.722544 -4.605609 8.300965
14.622102 -4.324107 8.277128
14.537152 -4.039007 8.248551
14.453250 -3.750554 8.222584
14.369377 -3.455196 8.200459
14.283340 -3.149817 8.183810
14.197518 -2.829877 8.172477
14.109881 -2.492179 8.168015
14.022530 -2.132330 8.170378
13.918118 -1.756641 8.187318
13.881861 -1.383426 8.190246
13.842527 -1.035722 8.205150
13.770884 -0.715101 8.241146
13.671162 -0.415929 8.293862
13.636590 -0.113073 8.329869
13.602353 0.183213 8.370378
13.584276 0.480516 8.408871
13.564950 0.779477 8.449788
13.546580 1.085264 8.491150
13.473719 1.389483 8.548651
13.383689 1.704791 8.609168
13.291949 2.038262 8.665785
13.193578 2.392728 8.719326
13.085856 2.765166 8.769640
13.020825 3.127832 8.804400
12.976278 3.472709 8.831063
12.926722 3.797230 8.857261
12.860076 4.102966 8.886710
12.791146 4.398130 8.914830
12.695620 4.679974 8.949149
12.616443 4.966293 8.976806
12.519810 5.252059 9.008160
12.417822 5.545473 9.039780
12.308146 5.851347 9.072676
12.212194 6.180205 9.100221
12.128000 6.535972 9.122755
12.044201 6.914941 9.144013
11.999900 7.279963 9.150837
11.927763 7.610925 9.167819
11.815992 7.914335 9.201662
11.739167 8.211324 9.221774
11.678775 8.504682 9.233341
11.641572 8.801805 9.230713
11.586864 9.103589 9.231692
11.540647 9.421415 9.221366
11.481664 9.759939 9.208919
11.403237 10.124067 9.197002
11.300735 10.493648 9.189652
11.185070 10.824519 9.185469
11.067314 11.127006 9.178716
10.952113 11.412229 9.166814
10.839578 11.689396 9.150793
10.732516 11.969031 9.129313
10.627975 12.258971 9.105624
10.508374 12.561682 9.094254
10.383355 12.889944 9.089052
10.249163 13.249821 9.095060
10.128442 13.597541 9.116053
10.040765 13.922050 9.136972
9.977544 14.229638 9.153723
9.912381 14.524066 9.176760
9.841063 14.815892 9.198432
9.761432 15.114103 9.207847
9.664405 15.434547 9.201073
9.518033 15.775802 9.194272
9.303434 16.071644 9.222965
9.097700 16.318314 9.224904
8.851242 16.493420 9.260233
8.605074 16.679325 9.258128
8.325406 16.864191 9.261262
8.067482 17.142523 9.183022
7.803291 17.395218 9.125216
7.537401 17.584799 9.104928
7.280926 17.750832 9.087857
7.025385 17.908689 9.064737
6.750894 18.059328 9.046506
6.446937 18.218296 9.023896
6.105469 18.390854 8.997985
5.779711 18.545675 8.984184
5.477543 18.679424 8.979736
5.190986 18.796825 8.978779
4.910997 18.904530 8.975414
4.631354 19.011435 8.960359
4.340219 19.122316 8.933000
4.024336 19.235615 8.896013
3.670015 19.341349 8.859366
3.302419 19.443682 8.814977
2.959942 19.528074 8.771415
2.640423 19.607126 8.720315
2.329843 19.656986 8.683837
2.029845 19.702435 8.643779
1.732244 19.733402 8.610870
1.435863 19.777597 8.567058
1.132207 19.827250 8.521376
0.807265 19.833998 8.511002
0.463776 19.838343 8.509233
0.093981 19.838806 8.519699
-0.293747 19.839211 8.541633
-0.654887 19.838648 8.573174
-0.991398 19.844305 8.606812
-1.309994 19.852430 8.643145
-1.614539 19.847815 8.691054
-1.911912 19.839842 8.741609
-2.208725 19.829618 8.791718
-2.501480 19.783058 8.866407
-2.805500 19.738766 8.933493
-3.128163 19.699078 8.988173
-3.471601 19.650919 9.038879
-3.836652 19.578449 9.097421
-4.200624 19.481171 9.163473
-4.525306 19.377172 9.222215
-4.823428 19.271540 9.269512
-5.101584 19.159609 9.310173
-5.376427 19.047302 9.340187
-5.654625 18.930613 9.363283
-5.952340 18.816334 9.375184
-6.279175 18.704149 9.376403
-6.637496 18.580359 9.378897
-6.989008 18.451136 9.385853
-7.296314 18.318115 9.401157
-7.576185 18.183779 9.417164
-7.841945 18.043076 9.432655
-8.105268 17.889336 9.446682
-8.374661 17.711050 9.464969
-8.663539 17.501785 9.485174
-8.966162 17.268353 9.506454
-9.227847 17.046789 9.533484
-9.458706 16.834618 9.557509
-9.666071 16.618010 9.581158
-9.866753 16.389616 9.596359
-10.077402 16.143188 9.594228
-10.304338 15.863274 9.579648
-10.523102 15.553750 9.565515
-10.704782 15.272365 9.538186
-10.850417 15.001014 9.509862
-10.985090 14.736123 9.465397
-11.105679 14.449451 9.425224
-11.224067 14.127105 9.389803
-11.348306 13.763590 9.359479
-11.434026 13.410075 9.365867
-11.506660 13.081523 9.373072
-11.574193 12.771960 9.373898
-11.645635 12.477212 9.361411
-11.717255 12.187185 9.343827
-11.793125 11.896409 9.319904
-11.855436 11.594709 9.310826
-11.917696 11.278223 9.303946
-11.969489 10.938978 9.310897
-12.015789 10.571033 9.327801
-12.042122 10.185383 9.365924
-12.045270 9.828496 9.420132
-12.017262 9.498923 9.496316
-12.064398 9.189920 9.504832
-12.099969 8.890707 9.520806
-12.127887 8.593242 9.541248
-12.179783 8.291485 9.538819
-12.245111 7.980360 9.522682
-12.328223 7.657377 9.487944
-12.395233 7.309059 9.463980
-12.466640 6.931908 9.433273
-12.540131 6.562455 9.394567
-12.623655 6.220517 9.340020
-12.677381 5.890835 9.305552
-12.741575 5.580835 9.257172
-12.819238 5.286906 9.193470
-12.903530 5.004475 9.121371
-12.986412 4.725109 9.049176
-13.060325 4.443213 8.984921
-13.111041 4.147698 8.943111
-13.149685 3.838419 8.914783
-13.199901 3.520152 8.880342
-13.249127 3.184748 8.851898
-13.298874 2.828473 8.829194
-13.354760 2.449886 8.808056
-13.411562 2.065502 8.788612
-13.473111 1.706463 8.761058
-13.537706 1.369122 8.728015
-13.614577 1.052684 8.683836
-13.706118 0.754501 8.629077
-13.779679 0.459557 8.589536
-13.878195 0.178792 8.535206
-13.935932 -0.113671 8.511868
-13.984662 -0.410701 8.496674
-14.046525 -0.708606 8.476894
-14.118240 -1.012251 8.455633
-14.197716 -1.326024 8.435653
-14.307745 -1.646187 8.405575
-14.449530 -1.976094 8.366142
-14.600669 -2.326729 8.330069
-14.744903 -2.686626 8.305393
-14.870770 -3.027336 8.296589
-14.988025 -3.349104 8.297977
-15.100740 -3.654804 8.305986
-15.201784 -3.950830 8.324405
-15.292322 -4.240882 8.352584
-15.423165 -4.512629 8.355777
-15.549980 -4.784518 8.360602
-15.686272 -5.056433 8.356161
-15.794085 -5.344003 8.371430
-15.887220 -5.647477 8.398712
-15.974903 -5.967417 8.431046
-16.024315 -6.319939 8.501561
-16.125063 -6.679462 8.522828
-16.284679 -7.036220 8.478371
-16.412714 -7.380540 8.456175
-16.511497 -7.711305 8.455840
-16.582989 -8.033901 8.477200
-16.663656 -8.338400 8.480192
-16.745846 -8.631922 8.473963
-16.838886 -8.915271 8.448727
-16.947803 -9.190751 8.400901
-17.052896 -9.472073 8.353159
-17.155355 -9.763568 8.305592
-17.247295 -10.073313 8.267141
-17.338289 -10.402027 8.228424
-17.416845 -10.758508 8.201700
-17.522867 -11.129333 8.147235
-17.608870 -11.488809 8.102521
-17.683083 -11.825342 8.058261
-17.743361 -12.145061 8.017965
-17.778334 -12.455910 7.993513
-17.814865 -12.755643 7.961865
-17.860237 -13.047893 7.918906
-17.890179 -13.344182 7.887283
-17.949762 -13.638482 7.830894
-18.030107 -13.938085 7.759800
-18.065535 -14.264505 7.728014
-18.059835 -14.623220 7.732140
-18.139927 -14.985982 7.674673
-18.215498 -15.364057 7.619192
-18.222609 -15.737659 7.599087
-18.212416 -16.095484 7.582220
-18.184948 -16.441364 7.573648
-18.198633 -16.764175 7.527962
-18.230110 -17.072924 7.467220
-18.269989 -17.374382 7.405355
-18.380947 -17.650896 7.279325
-18.427174 -17.951166 7.243071
-18.481874 -18.255312 7.222938
-18.585789 -18.554493 7.185343
-18.722345 -18.857822 7.146514
-18.902384 -19.166521 7.105825
-19.069304 -19.504208 7.139869
-19.264530 -19.839952 7.181052
-19.460489 -20.157902 7.233303
-19.716002 -20.443525 7.240610
-19.927944 -20.725731 7.312855
-20.160292 -20.982410 7.389694
-20.349766 -21.228798 7.511476
-20.458118 -21.479454 7.697505
-20.510172 -21.745193 7.911971
-20.522270 -22.031960 8.135341
-20.658298 -22.274517 8.287594
-20.811092 -22.513941 8.431503
-20.985136 -22.748846 8.565229
-21.183498 -22.971380 8.683363
-21.410629 -23.187365 8.788829
-21.655701 -23.394617 8.879094
-21.934080 -23.592508 8.950518
-22.250210 -23.763515 8.999074
-22.585577 -23.929932 9.027459
-22.952579 -24.075144 9.030498
-23.276600 -24.219236 8.998424
-23.567909 -24.351881 8.928844
-23.860275 -24.387844 8.811505
