-24.142847 -24.383537 8.661571
-24.418751 -24.346239 8.487966
-24.707199 -24.307276 8.299729
-25.011879 -24.258968 8.106554
-25.323521 -24.176249 7.911005
-25.605156 -24.018864 7.705902
-25.862034 -23.800114 7.491176
-26.147169 -23.606070 7.295197
-26.441830 -23.457647 7.132969
-26.727345 -23.325449 6.992671
-26.999077 -23.193697 6.864813
-27.262697 -23.064318 6.745825
-27.444931 -22.839836 6.616539
-27.639263 -22.641226 6.498923
-27.845215 -22.457029 6.380101
-28.055084 -22.266447 6.256124
-28.269609 -22.070515 6.124183
-28.491102 -21.861757 5.980301
-28.715633 -21.635162 5.820719
-28.946754 -21.388517 5.641916
-29.143929 -21.121809 5.442292
-29.297100 -20.860723 5.228426
-29.410751 -20.606602 5.003932
-29.436813 -20.340092 4.763371
-29.363579 -20.066608 4.493693
-29.377684 -19.877136 4.232763
-29.440420 -19.704594 3.982805
-29.588280 -19.524174 3.756926
-29.808096 -19.298620 3.606283
-30.026833 -19.026649 3.521807
-30.221647 -18.708784 3.493769
-30.360065 -18.363054 3.489749
-30.455938 -17.984283 3.498853
-30.516548 -17.616571 3.514550
-30.559671 -17.270330 3.549084
-30.592258 -16.942810 3.604239
-30.613323 -16.630184 3.677763
-30.578304 -16.317663 3.731516
-30.536163 -16.016113 3.806897
-30.506456 -15.728291 3.913265
-30.451962 -15.442834 4.022323
-30.397705 -15.163080 4.146182
-30.338747 -14.884150 4.279402
-30.317801 -14.608300 4.433546
-30.340088 -14.326942 4.601924
-30.394684 -14.032125 4.773242
-30.418556 -13.719145 4.924884
-30.401613 -13.388030 5.057213
-30.373732 -13.037764 5.177511
-30.350925 -12.665577 5.286616
-30.368050 -12.293976 5.388498
-30.393942 -11.941085 5.480795
-30.420870 -11.604217 5.564028
-30.448343 -11.280390 5.640273
-30.445242 -10.968695 5.708557
-30.431211 -10.664497 5.772135
-30.408834 -10.367084 5.831921
-30.362083 -10.072409 5.888066
-30.320004 -9.777489 5.943399
-30.262693 -9.483304 5.996841
-30.198132 -9.183315 6.050698
-30.137857 -8.876226 6.106372
-30.074406 -8.557060 6.164989
-29.966415 -8.233051 6.223119
-29.852997 -7.893335 6.286040
-29.748016 -7.532491 6.356190
-29.628307 -7.169873 6.429029
-29.477545 -6.838852 6.497456
-29.255161 -6.549727 6.558594
-29.125874 -6.254622 6.626530
-29.066570 -5.946413 6.699151
-29.005783 -5.648906 6.768709
-28.939856 -5.357429 6.835588
-28.905357 -5.054145 6.901820
-28.769655 -4.793429 6.959955
-28.655058 -4.521848 7.017204
-28.587721 -4.224087 7.073826
-28.483223 -3.935138 7.126757
-28.343458 -3.651594 7.176479
-28.186785 -3.362160 7.224009
-28.042671 -3.050286 7.269627
-27.889507 -2.722979 7.312922
-27.725437 -2.377369 7.353523
-27.564194 -2.030626 7.388571
-27.393188 -1.716163 7.412906
-27.230312 -1.422015 7.427347
-27.090630 -1.135566 7.434356
-26.960524 -0.858085 7.434957
-26.849625 -0.579181 7.432475
-26.748697 -0.297395 7.428523
-26.644068 -0.013805 7.420362
-26.536306 0.277080 7.409074
-26.434000 0.584364 7.399245
-26.320402 0.905668 7.384862
-26.188410 1.243230 7.362710
-26.036371 1.599306 7.331927
-25.934420 1.962638 7.320898
-25.823143 2.296716 7.298640
-25.736290 2.619700 7.281814
-25.647755 2.925755 7.258582
-25.577433 3.226784 7.238259
-25.513777 3.523017 7.215446
-25.456247 3.818315 7.190155
-25.405611 4.119421 7.161454
-25.332870 4.420384 7.120696
-25.233742 4.718349 7.068067
-25.075369 5.008872 6.997519
-24.889389 5.300231 6.919889
-24.684746 5.605616 6.836534
-24.438087 5.906219 6.743039
-24.235067 6.205846 6.654403
-24.060568 6.491683 6.567245
-23.896246 6.763099 6.478653
-23.731043 7.014431 6.387794
-23.613831 7.290103 6.302144
-23.504562 7.566201 6.216844
-23.415714 7.857883 6.134670
-23.224730 8.070914 6.036087
-23.062445 8.312425 5.942704
-22.906584 8.570532 5.851495
-22.731995 8.828381 5.758386
-22.522812 9.083839 5.659736
-22.283854 9.345167 5.557664
-22.057795 9.647744 5.461366
-21.843761 9.947016 5.375238
-21.634472 10.224363 5.299111
-21.447803 10.494103 5.234646
-21.270210 10.754513 5.178623
-21.095444 11.004703 5.128733
-20.925436 11.251949 5.084007
-20.767443 11.503228 5.043429
-20.613224 11.758862 5.004250
-20.467459 12.026772 4.964183
-20.345751 12.318533 4.921602
-20.243591 12.638361 4.871366
-20.187931 13.008226 4.808821
-20.052509 13.362249 4.736013
-19.932770 13.723879 4.654021
-19.817034 14.056267 4.567949
-19.699865 14.361011 4.479918
-19.582850 14.647555 4.391346
-19.471701 14.924354 4.303761
-19.349903 15.187892 4.219717
-19.213133 15.442013 4.141134
-19.048656 15.688334 4.070122
-18.860489 15.933517 4.008357
-18.622469 16.175755 3.958246
-18.281513 16.391401 3.924117
-18.037148 16.697575 3.897769
-17.861696 17.028517 3.883073
-17.650412 17.320686 3.883261
-17.425430 17.589594 3.895333
-17.189896 17.842308 3.917034
-17.033190 18.112459 3.943779
-16.955067 18.403444 3.973635
-16.966021 18.730793 4.003604
-16.947206 19.047449 4.036165
-16.876860 19.350838 4.069901
-16.781595 19.658197 4.101669
-16.651533 19.966095 4.130124
-16.471512 20.266378 4.154343
-16.238710 20.560137 4.172596
-15.952093 20.818401 4.183991
-15.696438 21.054184 4.182947
-15.468463 21.281008 4.171307
-15.254208 21.515768 4.151032
-14.993340 21.678677 4.132546
-14.724319 21.828619 4.114135
-14.446841 21.977766 4.101470
-14.155173 22.128025 4.094186
-13.835790 22.273687 4.092935
-13.484170 22.424644 4.098811
-13.121238 22.570568 4.112104
-12.786488 22.720230 4.131541
-12.534523 22.960539 4.159153
-12.311646 23.216074 4.188775
-12.028260 23.357594 4.218915
-11.795002 23.558546 4.249916
-11.556667 23.741776 4.280752
-11.312060 23.910824 4.311221
-11.053993 24.060486 4.341988
-10.794025 24.214197 4.371126
-10.531668 24.378309 4.396584
-10.247455 24.526331 4.419944
-9.956554 24.690025 4.437685
-9.652491 24.865665 4.449401
-9.329014 25.048910 4.454727
-8.983618 25.230141 4.453096
-8.655986 25.401155 4.440556
-8.347999 25.558222 4.418301
-8.062400 25.715136 4.387086
-7.785421 25.857407 4.350149
-7.517256 25.994318 4.308644
-7.263327 26.148518 4.262554
-6.981400 26.247946 4.220146
-6.705036 26.370955 4.176540
-6.417981 26.493589 4.135790
-6.113389 26.620853 4.099428
-5.786586 26.750834 4.069584
-5.430823 26.886011 4.048011
-5.064891 27.012888 4.033978
-4.716736 27.134668 4.023455
-4.384714 27.253592 4.015909
-4.062666 27.357862 4.012034
-3.750910 27.454384 4.010894
-3.449639 27.557165 4.010922
-3.155238 27.662954 4.012070
-2.860844 27.744038 4.016420
-2.564289 27.813198 4.022525
-2.264935 27.855072 4.031385
-1.958453 27.872044 4.042461
-1.647588 27.874105 4.054540
-1.329579 27.847805 4.068460
-1.005805 27.836725 4.080076
-0.670532 27.818005 4.091046
-0.323779 27.813030 4.099168
0.039394 27.874273 4.099512
0.423002 27.945131 4.096694
0.807972 27.955553 4.095837
1.166253 27.898909 4.097010
1.502592 27.855387 4.093895
1.825184 27.828520 4.086891
2.138386 27.814144 4.077070
2.446865 27.800539 4.066163
2.749986 27.761911 4.057132
3.049217 27.699541 4.050572
3.349378 27.629786 4.045760
3.654311 27.544252 4.047548
3.961459 27.435694 4.055985
4.270366 27.287439 4.066416
4.595479 27.133614 4.078105
4.936053 26.958811 4.091422
5.289916 26.801786 4.110880
5.615232 26.644234 4.135249
5.912054 26.481810 4.163530
6.204703 26.352066 4.200463
6.481202 26.220007 4.240216
6.749098 26.086042 4.282345
7.015767 25.958418 4.326427
7.278472 25.820623 4.369496
7.547138 25.682844 4.411817
7.817148 25.528603 4.450556
8.102782 25.375374 4.486714
8.405518 25.216766 4.518706
8.734467 25.061945 4.546299
9.082558 24.891718 4.567175
9.432119 24.754663 4.584989
9.756388 24.623676 4.597729
10.068254 24.513979 4.608075
10.364167 24.403183 4.613789
10.644707 24.279812 4.613171
10.918591 24.154047 4.607937
11.192261 24.027763 4.599685
11.466558 23.893847 4.588120
11.747872 23.751118 4.574677
12.038032 23.592817 4.559100
12.331839 23.402763 4.537482
12.633184 23.177525 4.510144
12.934346 22.936743 4.481876
13.209842 22.707115 4.455569
13.468680 22.493113 4.432999
13.706852 22.280548 4.409530
13.930713 22.071589 4.385808
14.140327 21.857103 4.359525
14.340178 21.637707 4.330914
14.526544 21.401506 4.297946
14.725764 21.168207 4.263586
14.945024 20.934954 4.225347
15.182361 20.693697 4.181438
15.428773 20.432196 4.130709
15.689150 20.150595 4.072889
15.934411 19.874445 3.998262
16.158707 19.616741 3.908074
16.357069 19.365326 3.807037
16.548676 19.126574 3.703110
16.725998 18.889124 3.601410
16.889767 18.645397 3.506131
17.035021 18.388813 3.420611
17.192848 18.128046 3.357851
17.332375 17.840725 3.310986
17.468813 17.527079 3.290387
17.624153 17.190035 3.308584
17.759363 16.827000 3.350814
17.872456 16.481724 3.406544
17.994862 16.166996 3.484328
18.106972 15.869275 3.574826
18.215788 15.587102 3.678168
18.320837 15.316908 3.791297
18.411627 15.049924 3.909847
18.502884 14.789327 4.035515
18.593462 14.531277 4.166920
18.677919 14.270007 4.300297
18.766294 14.005841 4.437224
18.855120 13.734694 4.574958
18.960129 13.458784 4.715708
19.077761 13.174786 4.855975
19.219376 12.882737 4.996886
19.405268 12.592618 5.136097
19.620972 12.294076 5.271122
19.834259 12.013282 5.396122
20.038132 11.759233 5.511982
20.223507 11.518680 5.619887
20.405493 11.288399 5.722726
20.585867 11.065512 5.820363
20.767323 10.843328 5.913762
20.948940 10.615633 6.003023
21.135361 10.380293 6.088174
21.329420 10.133920 6.169697
21.542597 9.876771 6.248349
21.764767 9.590292 6.326304
21.978559 9.275243 6.400065
22.163441 8.969253 6.459155
22.326485 8.674935 6.505181
22.465887 8.386841 6.540115
22.587454 8.103297 6.566100
22.674707 7.811615 6.582891
22.785158 7.533325 6.598641
22.908482 7.257931 6.615097
23.040808 6.979123 6.634219
23.191082 6.695324 6.659566
23.348204 6.397962 6.691274
23.582470 6.120652 6.745294
23.766434 5.786334 6.796574
23.993299 5.486852 6.863691
24.223965 5.221816 6.935645
24.433201 4.964381 7.006449
24.582401 4.678815 7.069478
24.759829 4.428277 7.139669
24.937757 4.188126 7.210702
25.104565 3.944220 7.280248
25.272745 3.703358 7.348345
25.442463 3.461414 7.413330
25.623274 3.218972 7.474685
25.802189 2.962457 7.530016
25.957977 2.672795 7.577388
26.094749 2.353233 7.615721
26.266256 2.025425 7.646503
26.430801 1.673753 7.668108
26.515589 1.311814 7.675787
26.587318 0.966320 7.675103
26.679895 0.650325 7.669835
26.754845 0.339980 7.656897
26.781096 0.030797 7.634233
26.841148 -0.259555 7.610291
26.942604 -0.539928 7.588949
27.139418 -0.797727 7.579668
27.178926 -1.094582 7.546212
27.222151 -1.393840 7.511555
27.291168 -1.696496 7.480306
27.385595 -2.004571 7.453888
27.489033 -2.324143 7.430499
27.607384 -2.655666 7.411927
27.755375 -2.998684 7.402740
27.801302 -3.381730 7.370872
27.901209 -3.754717 7.354591
28.018110 -4.103215 7.346375
28.126507 -4.435488 7.339293
28.227238 -4.754018 7.333004
28.327448 -5.060903 7.329190
28.459005 -5.353138 7.337375
28.508968 -5.653285 7.321871
28.540361 -5.953753 7.300699
28.614269 -6.244797 7.294124
28.691748 -6.538959 7.288982
28.735617 -6.841193 7.272151
28.754936 -7.155281 7.245515
28.749779 -7.481194 7.208567
28.731163 -7.818954 7.164805
28.719456 -8.171171 7.121161
28.708530 -8.540317 7.075273
28.751577 -8.925527 7.046911
28.873299 -9.298491 7.050948
28.959454 -9.654762 7.046394
28.978718 -9.996552 7.020385
28.993708 -10.322160 6.996073
29.008659 -10.637565 6.973453
29.039474 -10.943500 6.957376
29.061901 -11.245831 6.937967
29.065140 -11.544234 6.911404
29.068083 -11.844604 6.882693
29.058708 -12.147943 6.848031
29.037872 -12.457482 6.806276
29.009735 -12.777040 6.758743
28.977409 -13.110292 6.704978
28.939640 -13.460084 6.643883
28.879690 -13.829908 6.569408
28.821981 -14.213322 6.483454
28.843004 -14.578846 6.395737
28.869066 -14.924805 6.290822
28.903854 -15.254150 6.174200
28.937462 -15.569971 6.048682
28.986752 -15.876268 5.925728
29.031963 -16.175430 5.803791
29.068312 -16.470348 5.686500
29.113890 -16.765236 5.586006
29.136436 -17.061563 5.496377
29.147644 -17.362782 5.425877
29.142159 -17.671955 5.380517
29.102585 -17.990807 5.357105
29.041779 -18.323421 5.367634
28.947891 -18.671955 5.413380
28.859566 -19.036564 5.511691
28.512314 -19.345657 5.561818
28.271358 -19.617283 5.699365
28.100891 -19.856363 5.876357
27.982761 -20.049219 6.099439
27.910049 -20.225826 6.343466
27.974209 -20.411900 6.612581
28.086687 -20.627386 6.899192
28.052788 -20.800346 7.165177
27.985386 -20.968292 7.432716
27.883436 -21.133366 7.700933
27.753883 -21.298552 7.962830
27.611948 -21.481483 8.221269
27.458851 -21.687862 8.470673
27.292555 -21.926010 8.707109
27.087107 -22.175482 8.923660
26.756971 -22.301653 9.081205
26.543955 -22.524090 9.197345
26.336403 -22.740686 9.274494
26.112928 -22.952845 9.324116
25.869360 -23.149391 9.356572
25.594709 -23.324694 9.382715
25.287447 -23.468702 9.413006
24.941572 -23.568607 9.457666
24.561148 -23.617794 9.526717
24.181658 -23.613602 9.609388
23.834473 -23.633801 9.701500
23.522610 -23.690773 9.798985
23.223669 -23.681772 9.887726
22.926580 -23.581263 9.946875
22.667564 -23.568811 9.994646
22.399611 -23.553753 10.031188
22.070639 -23.537134 10.068349
21.672506 -23.551571 10.095487
21.224794 -23.557926 10.104254
20.820709 -23.508739 10.087893
20.467863 -23.402706 10.050826
20.125984 -23.286007 10.000444
19.828281 -23.113749 9.930250
19.585863 -22.899548 9.839172
19.388449 -22.632717 9.722564
19.232822 -22.351406 9.594040
19.061794 -22.095459 9.472244
18.877840 -21.862019 9.360620
18.673231 -21.647270 9.263204
18.499893 -21.400763 9.155897
18.335140 -21.140545 9.050421
18.169081 -20.869974 8.951494
18.024120 -20.569578 8.850716
17.824543 -20.283337 8.778533
17.566689 -20.001530 8.736676
17.419533 -19.649340 8.666036
17.379856 -19.299416 8.596795
17.343382 -18.977301 8.557114
17.284323 -18.692360 8.545634
17.252691 -18.405039 8.545066
17.246380 -18.105122 8.549464
17.231205 -17.804005 8.568351
17.192303 -17.487253 8.602361
17.147396 -17.160549 8.642011
17.112890 -16.825338 8.677773
17.070696 -16.481974 8.710514
17.087715 -16.129164 8.715546
17.118248 -15.752207 8.700224
17.150484 -15.357662 8.666940
17.170105 -14.985022 8.634933
17.164955 -14.636338 8.611370
17.127110 -14.308802 8.600464
17.100294 -13.993353 8.584575
17.078207 -13.687451 8.565573
17.035086 -13.389254 8.555280
16.953243 -13.098177 8.562700
16.841660 -12.810595 8.585199
16.767733 -12.512501 8.588272
16.697947 -12.204835 8.587625
16.623964 -11.884611 8.586966
16.566650 -11.544413 8.574124
16.488337 -11.186542 8.569395
16.423906 -10.803259 8.552914
16.328146 -10.439722 8.555520
16.246567 -10.098051 8.552259
16.164028 -9.776424 8.551051
16.070507 -9.473229 8.557108
15.996803 -9.176313 8.551532
15.944232 -8.880916 8.533084
15.886179 -8.588417 8.516656
15.818068 -8.295985 8.504147
15.742175 -7.998622 8.493489
15.653388 -7.693316 8.486698
15.565454 -7.372018 8.475425
15.474960 -7.031158 8.460954
15.371376 -6.669023 8.448148
15.262517 -6.296524 8.433077
15.146774 -5.949415 8.418591
15.041100 -5.621046 8.397129
14.965169 -5.302118 8.360100
14.866738 -5.002885 8.333610
14.761699 -4.715365 8.310408
14.660352 -4.432920 8.286436
14.569380 -4.149818 8.259594
14.486440 -3.862841 8.231976
14.401727 -3.571002 8.208610
14.317921 -3.269703 8.189232
14.229853 -2.956607 8.176616
14.143787 -2.626200 8.169058
14.057683 -2.275247 8.168163
13.957845 -1.903515 8.179904
13.865776 -1.533564 8.198891
13.865110 -1.167282 8.195694
13.804573 -0.837381 8.223915
13.702547 -0.533565 8.275182
13.649799 -0.230939 8.315184
13.613192 0.066758 8.354891
13.592152 0.363739 8.393146
13.568329 0.660404 8.434922
13.551447 0.963056 8.475547
13.511200 1.269965 8.523583
13.417504 1.577759 8.586062
13.328102 1.903762 8.644072
13.236882 2.250509 8.697502
13.118437 2.615582 8.753237
13.043917 2.986404 8.791678
12.989096 3.336925 8.822186
12.953433 3.672657 8.845106
12.886331 3.983038 8.875397
12.821552 4.282876 8.903205
12.732512 4.568090 8.936210
12.643266 4.850860 8.967650
12.562056 5.138326 8.994928
12.454798 5.425834 9.028655
12.354213 5.727463 9.059084
12.245164 6.044395 9.091159
12.162786 6.390365 9.113544
12.077340 6.761977 9.135733
12.003526 7.134048 9.153533
11.983724 7.485311 9.150993
11.854324 7.793243 9.191536
11.780887 8.096050 9.210712
11.709689 8.389812 9.228806
11.671000 8.685907 9.229642
11.634208 8.986096 9.225490
11.589200 9.297013 9.219345
11.547558 9.627055 9.203635
11.495467 9.982597 9.183418
11.415739 10.360981 9.168721
11.322115 10.713099 9.156957
11.224098 11.033163 9.144586
11.123480 11.330459 9.131007
11.025002 11.615336 9.113193
10.928596 11.896976 9.091420
10.836177 12.185042 9.064452
10.733166 12.483950 9.043686
10.617880 12.802175 9.030984
10.496392 13.150640 9.022213
10.364071 13.511388 9.031302
10.256313 13.845024 9.047376
10.178900 14.158868 9.055698
10.107345 14.456882 9.066658
10.033141 14.745892 9.077035
9.950241 15.038036 9.080086
9.856354 15.342531 9.067804
9.733388 15.670892 9.042857
9.550863 16.006876 9.029399
9.330879 16.271641 9.036784
9.103003 16.480598 9.040454
8.856347 16.656260 9.046540
8.605385 16.843010 9.026753
8.326653 17.045115 9.007757
8.062942 17.325544 8.931065
7.807199 17.568924 8.879358
7.548151 17.757114 8.868659
7.298008 17.928484 8.859989
7.046502 18.094320 8.847652
6.772756 18.255766 8.841666
6.468372 18.428520 8.829728
6.130113 18.611507 8.817484
5.813895 18.775953 8.816998
5.518910 18.919230 8.827072
5.238752 19.047905 8.838330
4.963823 19.167492 8.844780
4.687302 19.284340 8.840355
4.397287 19.404694 8.821002
4.081928 19.524414 8.791706
3.725964 19.633736 8.761682
3.359629 19.737465 8.721382
3.018400 19.823175 8.678736
2.698473 19.899294 8.630278
2.387165 19.944057 8.595968
2.086650 19.983513 8.557503
1.787178 20.006628 8.526348
1.489862 20.044300 8.481911
1.182838 20.082991 8.437970
0.858531 20.078350 8.430959
0.514571 20.070822 8.432769
0.146576 20.060108 8.447278
-0.241534 20.051765 8.472282
-0.604859 20.047560 8.503254
-0.943620 20.048883 8.536912
-1.263888 20.056738 8.570034
-1.569945 20.053135 8.614327
-1.868011 20.045162 8.662354
-2.165089 20.038380 8.707426
-2.458499 19.997505 8.776519
-2.759959 19.951696 8.844202
-3.079342 19.912767 8.897848
-3.418569 19.866270 8.947392
-3.778870 19.798288 9.003319
-4.147905 19.703516 9.069181
-4.479773 19.598160 9.131709
-4.780903 19.491249 9.183325
-5.062661 19.378677 9.228274
-5.336150 19.267385 9.260910
-5.611699 19.149544 9.289300
-5.902127 19.033916 9.305904
-6.217762 18.918156 9.313955
-6.566793 18.801416 9.314273
-6.929685 18.672083 9.320711
-7.248759 18.537956 9.337127
-7.537752 18.406654 9.352593
-7.807781 18.271034 9.368042
-8.070688 18.123884 9.384583
-8.338954 17.960491 9.399151
-8.617795 17.765118 9.423493
-8.922980 17.539268 9.446861
-9.205346 17.315050 9.474801
-9.449335 17.102583 9.505178
-9.665330 16.889616 9.536847
-9.870463 16.671148 9.558725
-10.076305 16.434731 9.570066
-10.296827 16.172064 9.564825
-10.526628 15.867376 9.555236
-10.724360 15.574498 9.537292
-10.885470 15.301229 9.511437
-11.024493 15.035392 9.475064
-11.150476 14.761394 9.432077
-11.268889 14.455924 9.391490
-11.395614 14.105965 9.347741
-11.499266 13.744978 9.329957
-11.565943 13.402780 9.342573
-11.629805 13.083512 9.344317
-11.695555 12.781698 9.332706
-11.762804 12.488866 9.312823
-11.825964 12.196959 9.294088
-11.888724 11.900653 9.275126
-11.946268 11.593272 9.263162
-11.993780 11.268102 9.264365
-12.028697 10.918951 9.281991
-12.068101 10.541657 9.301035
-12.079050 10.160256 9.347898
-12.062949 9.811158 9.414578
-12.034311 9.488081 9.488037
-12.081407 9.180847 9.494546
-12.111884 8.881720 9.513721
-12.136816 8.583692 9.535800
-12.187510 8.279781 9.534333
-12.250935 7.968043 9.519518
-12.334727 7.640967 9.484341
-12.398734 7.290014 9.462829
-12.471677 6.911997 9.430326
-12.544561 6.544049 9.391409
-12.627344 6.202837 9.337063
-12.680291 5.874808 9.302749
-12.744318 5.565257 9.254205
-12.822815 5.273054 9.189642
-12.906960 4.991314 9.117545
-12.989739 4.712259 9.045525
-13.063266 4.430222 8.981791
-13.112481 4.133520 8.941448
-13.151383 3.823787 8.913284
-13.202234 3.505123 8.878693
-13.251357 3.168437 8.850615
-13.301201 2.811104 8.828376
-13.356965 2.431415 8.807604
-13.414209 2.048310 8.787608
-13.476132 1.690701 8.759519
-13.540565 1.354158 8.726541
-13.618194 1.038935 8.681722
-13.710308 0.741473 8.626625
-13.782812 0.446714 8.587874
-13.882513 0.166584 8.532952
-13.938677 -0.126264 8.510726
-13.987545 -0.423248 8.495720
-14.049046 -0.721472 8.476164
-14.121489 -1.025182 8.454743
-14.201158 -1.339377 8.434943
-14.312545 -1.659694 8.404190
-14.455389 -1.989995 8.364758
-14.604342 -2.342215 8.330058
-14.750686 -2.700460 8.304374
-14.875632 -3.040345 8.296514
-14.992464 -3.361362 8.298146
-15.104653 -3.666466 8.306613
-15.205257 -3.962071 8.325478
-15.296280 -4.251550 8.353313
-15.427944 -4.522801 8.356028
-15.554705 -4.794660 8.360771
-15.690162 -5.066715 8.356651
-15.798090 -5.354743 8.372044
-15.890217 -5.658464 8.399929
-15.977849 -5.979310 8.432258
-16.025280 -6.332901 8.504848
-16.130745 -6.691500 8.521379
-16.289854 -7.048202 8.476983
-16.415932 -7.391917 8.456344
-16.513966 -7.722328 8.456608
-16.585470 -8.044234 8.477630
-16.666424 -8.347884 8.479994
-16.748365 -8.641315 8.473654
-16.842491 -8.923874 8.447266
-16.950905 -9.199522 8.399537
-17.056143 -9.480756 8.351670
-17.158113 -9.772742 8.304476
-17.250067 -10.082802 8.265943
-17.340588 -10.412164 8.227659
-17.419847 -10.768919 8.200187
-17.525608 -11.139910 8.145829
-17.610968 -11.498588 8.101476
-17.684801 -11.834384 8.057117
-17.745220 -12.153433 8.016613
-17.779276 -12.464117 7.992757
-17.815683 -12.763528 7.961096
-17.860737 -13.055661 7.918343
-17.891792 -13.351614 7.885749
-17.951754 -13.645882 7.829082
-18.032091 -13.945767 7.758162
-18.065264 -14.273067 7.728116
-18.061314 -14.631814 7.730971
-18.142376 -14.994700 7.672984
-18.216345 -15.372765 7.618370
-18.222368 -15.746080 7.598904
-18.211319 -16.103193 7.581885
-18.184839 -16.448753 7.573361
-18.199293 -16.770802 7.526632
-18.230278 -17.079655 7.465839
-18.271902 -17.380119 7.403300
-18.381849 -17.657097 7.278398
-18.428049 -17.957064 7.242311
-18.483776 -18.261282 7.224072
-18.587635 -18.560291 7.183963
-18.725687 -18.863321 7.146158
-18.906134 -19.172150 7.104917
-19.072281 -19.510397 7.140997
-19.268105 -19.846050 7.182089
-19.464582 -20.162544 7.233159
-19.721754 -20.450422 7.240809
-19.922388 -20.731091 7.321949
-20.102541 -21.000124 7.437813
-20.317253 -21.240902 7.539464
-20.448957 -21.487143 7.706783
-20.509634 -21.749649 7.916414
-20.524014 -22.035345 8.137520
-20.660723 -22.278576 8.290080
-20.812906 -22.516647 8.433107
-20.987089 -22.751236 8.566377
-21.185448 -22.973412 8.684671
-21.412830 -23.189283 8.789569
-21.662010 -23.399376 8.881114
-21.936617 -23.594208 8.951196
-22.253242 -23.765141 8.999065
-22.588928 -23.931458 9.027789
-22.956224 -24.076580 9.030424
-23.277174 -24.219505 8.998269
-23.570303 -24.352867 8.928128
-23.862610 -24.387861 8.810377
