-22.451654 -21.917368 12.830750
-22.680664 -21.901291 13.034646
-22.923950 -21.863848 13.219687
-23.184032 -21.810717 13.393393
-23.452665 -21.764219 13.569262
-23.742298 -21.707228 13.741686
-24.052620 -21.635630 13.903387
-24.386826 -21.552963 14.057789
-24.740854 -21.457331 14.196667
-25.088856 -21.351200 14.300226
-25.424334 -21.236479 14.367627
-25.749363 -21.120605 14.407210
-26.064661 -21.001875 14.416048
-26.370964 -20.867868 14.382578
-26.665642 -20.715075 14.304824
-26.923658 -20.529566 14.173125
-27.127876 -20.292828 13.981834
-27.323133 -20.050535 13.758354
-27.503036 -19.810493 13.512473
-27.676449 -19.595367 13.266303
-27.828602 -19.393293 13.016035
-27.959345 -19.202400 12.762569
-28.073313 -19.021420 12.506433
-28.176006 -18.851065 12.250465
-28.269640 -18.688324 11.992966
-28.352564 -18.530622 11.736483
-28.424442 -18.374962 11.479780
-28.470364 -18.212233 11.220855
-28.505972 -18.048464 10.964567
-28.494190 -17.867311 10.705791
-28.456676 -17.679577 10.449931
-28.371069 -17.472008 10.191793
-28.269972 -17.264174 9.932465
-28.139433 -17.039371 9.671374
-28.181177 -16.839985 9.409225
-28.314602 -16.631193 9.158278
-28.501095 -16.405535 8.917619
-28.962006 -16.180264 8.728176
-29.273933 -15.903071 8.542303
-29.420912 -15.590209 8.379516
-29.446768 -15.276312 8.266263
-29.437332 -14.964801 8.211167
-29.411160 -14.653550 8.203125
-29.382120 -14.339846 8.235952
-29.349838 -14.021405 8.295926
-29.293098 -13.694612 8.362054
-29.300920 -13.352077 8.446788
-29.270739 -12.994369 8.504896
-29.211327 -12.621615 8.525793
-29.118147 -12.240588 8.502771
-29.030434 -11.874815 8.475526
-28.952065 -11.525681 8.450004
-28.862455 -11.194359 8.420637
-28.748228 -10.882456 8.384200
-28.688778 -10.570246 8.362144
-28.649837 -10.263305 8.345185
-28.637291 -9.956124 8.334692
-28.585491 -9.661214 8.313863
-28.524496 -9.370772 8.290855
-28.462490 -9.079582 8.267939
-28.403496 -8.785034 8.246309
-28.341286 -8.485683 8.224597
-28.278925 -8.178784 8.203743
-28.204561 -7.865278 8.181049
-28.150396 -7.533160 8.164732
-28.071098 -7.193843 8.143751
-27.938400 -6.854858 8.111144
-27.797804 -6.499395 8.078298
-27.641939 -6.140774 8.043583
-27.473719 -5.807037 8.007677
-27.310322 -5.490060 7.974839
-27.138739 -5.194427 7.940246
-26.999969 -4.900683 7.915987
-26.875603 -4.610636 7.896598
-26.772259 -4.321810 7.884567
-26.672823 -4.035677 7.874798
-26.562099 -3.758873 7.861793
-26.422705 -3.495321 7.838825
-26.287973 -3.229248 7.816868
-26.156979 -2.957684 7.795347
-26.050034 -2.669761 7.782557
-25.948198 -2.371119 7.770965
-25.897577 -2.040711 7.779661
-25.744625 -1.742252 7.745072
-25.682695 -1.390906 7.746885
-25.588980 -1.036446 7.733727
-25.502020 -0.661178 7.721136
-25.401018 -0.282707 7.699682
-25.303469 0.077251 7.676397
-25.223251 0.425306 7.657517
-25.142458 0.756463 7.635482
-25.072229 1.078285 7.615393
-24.991837 1.385094 7.588312
-24.901833 1.680696 7.554821
-24.814798 1.970862 7.520683
-24.725349 2.256189 7.484023
-24.651245 2.544956 7.452747
-24.573496 2.833300 7.418939
-24.467175 3.113421 7.371848
-24.365656 3.400438 7.326541
-24.247486 3.686965 7.273955
-24.131470 3.983771 7.222528
-24.007929 4.288328 7.168322
-23.874680 4.602874 7.110683
-23.736132 4.931546 7.051686
-23.586069 5.274126 6.988948
-23.433561 5.628000 6.925797
-23.285284 5.959669 6.862669
-23.126501 6.260931 6.793654
-22.955929 6.533543 6.718851
-22.801378 6.800214 6.649534
-22.653349 7.060558 6.582008
-22.521185 7.326665 6.519738
-22.389820 7.592684 6.457252
-22.240820 7.846701 6.388563
-22.075922 8.094769 6.314958
-21.896879 8.342331 6.237440
-21.699057 8.590151 6.155001
-21.493610 8.852543 6.071305
-21.272707 9.129499 5.984031
-21.042501 9.429051 5.895116
-20.820078 9.727789 5.810822
-20.618053 10.013463 5.735374
-20.437792 10.291540 5.669513
-20.280075 10.567482 5.614759
-20.143890 10.845503 5.572715
-20.019444 11.123494 5.540309
-19.877512 11.384271 5.500720
-19.712475 11.627373 5.447551
-19.559715 11.884986 5.403531
-19.379822 12.130210 5.340829
-19.175133 12.369083 5.259728
-18.963264 12.620390 5.174543
-18.768595 12.909901 5.106776
-18.591124 13.243752 5.056682
-18.397436 13.573886 4.992954
-18.220371 13.885365 4.932281
-18.049337 14.172462 4.866806
-17.867485 14.427945 4.790907
-17.679697 14.662182 4.713213
-17.486641 14.883487 4.638626
-17.297674 15.105390 4.569649
-17.111786 15.333128 4.501577
-16.914406 15.562637 4.432092
-16.703089 15.798332 4.360702
-16.498289 16.056522 4.289196
-16.310326 16.345135 4.217782
-16.178024 16.686928 4.149496
-16.014496 17.025785 4.074912
-15.845416 17.336559 3.995562
-15.722299 17.647017 3.917934
-15.601742 17.941807 3.839844
-15.452574 18.214853 3.760921
-15.305532 18.481453 3.684941
-15.148366 18.739458 3.612315
-14.974249 18.985058 3.543095
-14.790089 19.227295 3.479857
-14.595277 19.466579 3.424217
-14.371534 19.696892 3.373057
-14.175776 19.970497 3.342216
-13.947078 20.246975 3.322236
-13.649902 20.494431 3.301749
-13.331033 20.697025 3.291832
-13.057865 20.897331 3.312046
-12.784346 21.061926 3.347848
-12.538484 21.238031 3.400259
-12.292330 21.406790 3.465597
-12.035317 21.556286 3.538768
-11.765907 21.688688 3.617134
-11.487264 21.820086 3.700754
-11.187909 21.935013 3.783566
-10.883120 22.082458 3.872017
-10.555875 22.236563 3.958034
-10.207368 22.385496 4.038275
-9.882440 22.513784 4.115205
-9.584007 22.635420 4.192232
-9.338120 22.808363 4.280755
-9.105500 22.981276 4.370937
-8.882118 23.164421 4.464911
-8.647690 23.340975 4.559546
-8.397301 23.521210 4.656976
-8.113260 23.693741 4.755786
-7.767560 23.824722 4.847528
-7.422751 23.952303 4.937275
-7.118798 24.083666 5.025753
-6.844979 24.220812 5.110885
-6.589077 24.361830 5.193821
-6.328290 24.486181 5.271098
-6.056222 24.599550 5.344339
-5.760622 24.695717 5.412857
-5.443787 24.812792 5.484583
-5.087707 24.925699 5.555087
-4.730957 25.000076 5.610185
-4.408382 25.066357 5.652643
-4.105162 25.123152 5.685246
-3.809556 25.173700 5.711681
-3.510694 25.222147 5.735872
-3.195363 25.246504 5.758937
-2.855705 25.281832 5.787673
-2.471811 25.278217 5.807983
-2.097902 25.277002 5.834543
-1.762622 25.298103 5.874571
-1.455959 25.342077 5.924915
-1.164056 25.393679 5.972204
-0.875803 25.448650 6.013295
-0.574846 25.495844 6.046559
-0.245502 25.558834 6.074327
0.124349 25.624769 6.091856
0.498014 25.651134 6.087913
0.827895 25.597511 6.055233
1.122728 25.504429 6.004958
1.412985 25.448669 5.955268
1.704012 25.373821 5.898455
2.020462 25.323057 5.846171
2.372830 25.282612 5.799003
2.759585 25.275263 5.766311
3.114139 25.286354 5.751744
3.438434 25.272337 5.741447
3.747086 25.249552 5.732063
4.052341 25.210575 5.715614
4.353536 25.134253 5.681458
4.658919 24.995970 5.618277
4.979798 24.833569 5.526896
5.309751 24.674282 5.412206
5.561964 24.445936 5.271846
5.773761 24.240568 5.127406
5.989636 24.097479 4.989895
6.246929 24.013000 4.861965
6.542992 23.958166 4.741352
6.821759 23.849638 4.615803
7.083070 23.686319 4.494325
7.325485 23.447393 4.358571
7.602822 23.200003 4.232591
7.849384 22.942316 4.115231
8.104314 22.731884 4.025626
8.322029 22.493233 3.939321
8.524704 22.249664 3.855197
8.732571 22.021395 3.781322
8.969986 21.839447 3.723225
9.241086 21.705669 3.680768
9.530143 21.579811 3.645623
9.833293 21.449654 3.614918
10.180096 21.345142 3.593974
10.645087 21.367031 3.601875
11.062220 21.314493 3.596874
11.425240 21.220943 3.583561
11.736428 21.082640 3.562062
12.029784 20.936399 3.540388
12.297759 20.767727 3.516575
12.561103 20.604788 3.496953
12.804996 20.413759 3.475797
13.040853 20.212637 3.457468
13.276692 20.016132 3.445674
13.511370 19.811531 3.438800
13.757579 19.616261 3.441082
14.008556 19.411966 3.449347
14.277026 19.207905 3.465989
14.564394 18.998827 3.493146
14.855444 18.756693 3.525255
15.112222 18.471491 3.553968
15.319116 18.184580 3.584061
15.487687 17.898138 3.618543
15.627600 17.621090 3.658410
15.737760 17.341997 3.703954
15.828001 17.055267 3.755669
15.917298 16.773727 3.819088
15.992151 16.477085 3.889804
16.087761 16.176916 3.973123
16.248394 15.902505 4.056111
16.536222 15.673721 4.150738
16.855394 15.452937 4.253395
17.204964 15.231370 4.362378
17.514997 15.007800 4.468758
17.799446 14.803853 4.573030
18.042765 14.602765 4.673207
18.247385 14.390469 4.767796
18.426733 14.172524 4.859170
18.586952 13.940607 4.946955
18.735176 13.694006 5.032283
18.883974 13.436584 5.123220
19.036436 13.163563 5.211365
19.196045 12.874442 5.297127
19.371489 12.571933 5.382514
19.553200 12.239140 5.465389
19.733589 11.913772 5.543749
19.909452 11.623063 5.618212
20.091093 11.364613 5.692931
20.272154 11.125257 5.765469
20.445385 10.889530 5.832782
20.609943 10.648673 5.894910
20.778172 10.404168 5.955960
20.952877 10.149637 6.017037
21.135214 9.878007 6.078841
21.331793 9.585950 6.143699
21.543135 9.268889 6.212226
21.749655 8.959232 6.278497
21.946835 8.668369 6.340980
22.140518 8.396697 6.401194
22.330837 8.140367 6.459225
22.512094 7.890964 6.513726
22.688005 7.647271 6.565683
22.857815 7.404512 6.614963
23.023294 7.160293 6.662054
23.183207 6.909548 6.706638
23.329866 6.643713 6.746648
23.479916 6.370520 6.786465
23.637407 6.088954 6.827262
23.818811 5.803768 6.873848
24.005259 5.499367 6.921138
24.184790 5.164788 6.965622
24.360561 4.821767 7.008310
24.520420 4.492757 7.045859
24.667446 4.176888 7.079194
24.815681 3.877724 7.112754
24.962133 3.590836 7.145705
25.106546 3.312466 7.177999
25.235645 3.035487 7.205328
25.359528 2.760484 7.230855
25.467541 2.482195 7.251001
25.565935 2.199744 7.267568
25.668180 1.916397 7.285185
25.759403 1.623359 7.298350
25.845600 1.320335 7.308809
25.938982 1.008763 7.320757
26.041576 0.687164 7.334825
26.157623 0.354186 7.352538
26.291613 0.009467 7.375779
26.457083 -0.342044 7.410794
26.648495 -0.673906 7.453686
26.807178 -1.002394 7.476916
26.959192 -1.317790 7.492748
27.114578 -1.616717 7.508060
27.290844 -1.892440 7.534960
27.457806 -2.162362 7.557840
27.612356 -2.431028 7.574830
27.760027 -2.697230 7.590104
27.907990 -2.959646 7.609148
28.063501 -3.216299 7.640295
28.207510 -3.479718 7.668173
28.345375 -3.748963 7.698920
28.464643 -4.033258 7.720403
28.569756 -4.332469 7.736354
28.655571 -4.651667 7.742468
28.753643 -4.975788 7.769214
28.865267 -5.305584 7.822756
28.966557 -5.657312 7.877912
29.045885 -6.039345 7.924949
29.178638 -6.384233 8.042002
29.256474 -6.740382 8.111509
29.347538 -7.069934 8.206006
29.433985 -7.385221 8.305861
29.506268 -7.693737 8.400141
29.581379 -7.987371 8.506751
29.640104 -8.279428 8.604287
29.692070 -8.566170 8.702662
29.734219 -8.851287 8.798062
29.778622 -9.129528 8.903052
29.808006 -9.412988 8.998690
29.828897 -9.699828 9.091750
29.845116 -9.989321 9.186089
29.856375 -10.283884 9.280909
29.897985 -10.564420 9.411466
29.917284 -10.863557 9.523956
29.937468 -11.169923 9.641947
29.987143 -11.468763 9.791152
30.050415 -11.772005 9.955061
30.142761 -12.072925 10.145477
30.228395 -12.393692 10.329891
30.325119 -12.725504 10.522406
30.356562 -13.086835 10.654988
30.384481 -13.436172 10.777929
30.442760 -13.756060 10.917327
30.558628 -14.035863 11.087453
30.667994 -14.309381 11.245158
30.758879 -14.583638 11.386950
30.826017 -14.861449 11.514919
30.884016 -15.136477 11.640228
30.918331 -15.414938 11.760120
30.988997 -15.675241 11.897865
30.930597 -15.973755 12.004487
30.957060 -16.240894 12.145629
30.983168 -16.506279 12.294955
31.016211 -16.773359 12.455268
31.030054 -17.046835 12.621420
31.093410 -17.322470 12.807738
31.151651 -17.610949 13.005305
31.123671 -17.916460 13.204408
31.050175 -18.231905 13.412484
31.006117 -18.544470 13.637845
30.933527 -18.823692 13.860696
30.845200 -19.072685 14.081534
30.746826 -19.296963 14.301758
30.655594 -19.503300 14.523629
30.565884 -19.696918 14.748837
30.483513 -19.885082 14.981309
30.404482 -20.071476 15.221279
30.333220 -20.260767 15.471233
30.213858 -20.447161 15.707432
30.054115 -20.633181 15.927012
29.865961 -20.825649 16.128202
29.659361 -21.033304 16.322468
29.427841 -21.257219 16.498369
29.143572 -21.495789 16.637062
28.824476 -21.736134 16.731131
28.530128 -21.959642 16.803085
28.286196 -22.170378 16.871151
28.065306 -22.380783 16.943649
27.883507 -22.575394 17.008272
27.683308 -22.782789 17.059608
27.499804 -22.991205 17.106876
27.290876 -23.231640 17.142200
27.026419 -23.491741 17.141819
26.711508 -23.722235 17.082619
26.377914 -23.876181 16.970064
26.047546 -23.978001 16.830683
25.729637 -24.059456 16.684664
25.429556 -24.126850 16.536577
25.148396 -24.174593 16.380627
24.879261 -24.192968 16.205219
24.641748 -24.177603 16.019838
24.410715 -24.166363 15.820206
24.200390 -24.167961 15.630945
23.981327 -24.205841 15.428559
23.737108 -24.257444 15.184547
23.488169 -24.304811 14.906033
23.240324 -24.322735 14.581592
23.029352 -24.307755 14.250223
22.861845 -24.254381 13.918030
22.725229 -24.189819 13.589992
22.630152 -24.093058 13.261141
22.560743 -23.990252 12.940235
22.512945 -23.880924 12.620966
22.491247 -23.761572 12.308908
22.489777 -23.637964 12.004810
22.498034 -23.515165 11.705735
22.527346 -23.384621 11.412012
22.605932 -23.235641 11.124334
22.698130 -23.086315 10.839200
22.730425 -22.959740 10.551951
22.738520 -22.821945 10.266189
22.677275 -22.682961 9.974729
22.574144 -22.517488 9.693680
22.410707 -22.334480 9.429312
22.275640 -22.119339 9.175501
22.204180 -21.876055 8.921597
22.111336 -21.609314 8.675536
21.994577 -21.320129 8.439842
21.872452 -21.024195 8.233599
21.748745 -20.731466 8.065959
21.645929 -20.438375 7.929288
21.551638 -20.147005 7.819843
21.487316 -19.850550 7.730904
21.411860 -19.556940 7.668623
21.343239 -19.259918 7.625999
21.283291 -18.960447 7.597886
21.229156 -18.655672 7.582051
21.178577 -18.346916 7.576323
21.133234 -18.031141 7.576105
21.085491 -17.710337 7.581166
21.035229 -17.382956 7.587791
20.991369 -17.045860 7.589531
20.917639 -16.707640 7.595353
20.816732 -16.367174 7.601058
20.713478 -16.017069 7.594667
20.604664 -15.657168 7.573866
20.491341 -15.286228 7.534809
20.373442 -14.921479 7.488413
20.266787 -14.573794 7.441392
20.157074 -14.244651 7.398659
20.027023 -13.937263 7.366589
19.906548 -13.639867 7.333620
19.789347 -13.351651 7.301742
19.674990 -13.070278 7.270802
19.571730 -12.789700 7.237058
19.468288 -12.511384 7.204641
19.354303 -12.236544 7.177364
19.232994 -11.961587 7.153678
19.112320 -11.680747 7.130003
18.980764 -11.396022 7.110698
18.844030 -11.102525 7.093087
18.704632 -10.796457 7.075795
18.564272 -10.474469 7.057806
18.419233 -10.135398 7.040310
18.267111 -9.778027 7.024040
18.118832 -9.423615 7.009029
17.975611 -9.087015 6.997275
17.837042 -8.765954 6.988513
17.701653 -8.458930 6.982821
17.567379 -8.164104 6.980494
17.437658 -7.877847 6.979795
17.308670 -7.599091 6.981626
17.189938 -7.321088 6.982258
17.068075 -7.047553 6.985914
16.937792 -6.779309 6.994015
16.806499 -6.509755 7.003275
16.671329 -6.238143 7.014354
16.528627 -5.963731 7.027763
16.379082 -5.683750 7.042826
16.221306 -5.396075 7.059392
16.055195 -5.098507 7.077043
15.885250 -4.785892 7.094017
15.708686 -4.457398 7.110774
15.516977 -4.116365 7.129456
15.320721 -3.789566 7.150619
15.131116 -3.481914 7.172352
14.951599 -3.187781 7.193497
14.780908 -2.905536 7.214197
14.616752 -2.632343 7.234791
14.461545 -2.364387 7.254495
14.320420 -2.095788 7.271611
14.189075 -1.825437 7.287184
14.063859 -1.552633 7.301774
13.943254 -1.276964 7.315755
13.823464 -0.995320 7.329643
13.711301 -0.704321 7.341533
13.603017 -0.400767 7.351980
13.498173 -0.084518 7.360910
13.376808 0.240833 7.373470
13.275989 0.592067 7.379138
13.167228 0.960545 7.385529
13.073359 1.336934 7.387048
13.000695 1.695992 7.383351
12.924377 2.032079 7.381871
12.872469 2.358994 7.373691
12.794765 2.665605 7.375085
12.736773 2.967757 7.371322
12.691199 3.267055 7.364144
12.633276 3.560707 7.362649
12.581836 3.855640 7.359693
12.528479 4.153118 7.358224
12.488610 4.457964 7.351360
12.427433 4.768414 7.353340
12.356815 5.087003 7.359116
12.276553 5.418807 7.368269
12.168507 5.760280 7.388868
12.036642 6.113202 7.418875
11.874804 6.467426 7.462293
11.722281 6.789066 7.507092
11.583100 7.081040 7.549540
11.456959 7.360526 7.588096
11.336210 7.630198 7.625422
11.218276 7.902703 7.661651
11.104475 8.185798 7.695223
10.983211 8.481956 7.728408
10.855623 8.801351 7.757862
10.738938 9.159321 7.776978
10.626281 9.524158 7.784142
10.525712 9.855844 7.777180
10.431528 10.163979 7.760447
10.337059 10.455549 7.739264
10.230882 10.736881 7.720942
10.117285 11.020305 7.706758
9.983909 11.309298 7.706068
9.814641 11.600009 7.731034
9.624701 11.911902 7.776183
9.412279 12.221669 7.848285
9.213621 12.479433 7.934464
9.015572 12.697440 8.035356
8.829112 12.908013 8.135772
8.654266 13.141403 8.230212
8.466958 13.388517 8.327952
8.287911 13.685946 8.407218
8.095154 14.012190 8.477749
7.946628 14.332468 8.515445
7.816055 14.631233 8.536316
7.673622 14.900459 8.569367
7.523434 15.158889 8.610825
7.366466 15.419333 8.652567
7.186031 15.677031 8.713849
6.977980 15.944701 8.788927
6.729856 16.216448 8.896996
6.481190 16.448870 9.020951
6.248529 16.641058 9.119790
6.010973 16.815321 9.182824
5.756824 16.985760 9.218005
5.471386 17.163366 9.234790
5.143805 17.348276 9.267073
4.824553 17.500303 9.321103
4.532412 17.602980 9.396190
4.248434 17.685383 9.456360
3.950349 17.767094 9.481704
3.616859 17.865704 9.465046
3.248164 17.962511 9.458103
2.922191 18.012049 9.475605
2.622616 18.032198 9.509523
2.317060 18.050238 9.542148
1.974542 18.082676 9.586534
1.604786 18.146986 9.620713
1.283467 18.220310 9.655210
0.988883 18.298109 9.676930
0.697231 18.369457 9.695918
0.380895 18.425861 9.719287
0.012621 18.452358 9.774036
-0.347721 18.475380 9.766034
-0.666169 18.485569 9.739246
-0.964154 18.484032 9.693332
-1.265299 18.469254 9.636616
-1.594867 18.440483 9.584439
-1.968677 18.399822 9.532012
-2.315397 18.355297 9.486757
-2.626541 18.302774 9.473422
-2.919966 18.242683 9.455359
-3.216015 18.177347 9.415331
-3.535301 18.093958 9.381097
-3.895384 17.990694 9.340711
-4.230424 17.895300 9.294639
-4.523287 17.808239 9.237914
-4.799546 17.708019 9.164946
-5.086332 17.570992 9.076674
-5.399641 17.379040 8.993777
-5.655455 17.174177 8.931145
-5.864407 16.964659 8.865697
-6.065868 16.743805 8.784612
-6.301336 16.506916 8.676740
-6.578040 16.275593 8.538645
-6.848056 16.092941 8.386399
-7.110839 15.937168 8.239275
-7.373299 15.816519 8.082386
-7.628461 15.682784 7.951124
-7.873222 15.504850 7.854357
-8.089996 15.259119 7.801718
-8.249072 14.949736 7.801851
-8.407390 14.636217 7.788058
-8.590660 14.332078 7.748304
-8.821714 14.026290 7.682499
-9.031543 13.719588 7.636440
-9.192675 13.408046 7.622475
-9.330194 13.108212 7.621832
-9.441347 12.810288 7.636061
-9.562733 12.527065 7.646474
-9.664925 12.240076 7.667295
-9.767511 11.954777 7.688345
-9.871675 11.665676 7.708905
-9.973062 11.370064 7.729135
-10.044565 11.053417 7.759915
-10.110671 10.719040 7.789445
-10.204451 10.368413 7.805070
-10.293969 9.988603 7.816926
-10.394759 9.627280 7.815671
-10.500647 9.297922 7.803599
-10.622450 9.000685 7.779272
-10.734287 8.716172 7.752491
-10.856535 8.446340 7.718497
-10.987612 8.179709 7.678695
-11.124916 7.908471 7.635183
-11.273109 7.618998 7.587266
-11.420160 7.299939 7.540334
-11.566757 6.942910 7.495333
-11.706164 6.590208 7.452611
-11.815144 6.248666 7.419860
-11.901532 5.919426 7.394433
-11.965544 5.598698 7.376493
-12.020783 5.288855 7.361035
-12.064152 4.984717 7.349450
-12.105519 4.686419 7.337959
-12.142868 4.389805 7.327517
-12.179674 4.092610 7.316822
-12.222222 3.792969 7.303339
-12.261815 3.485882 7.290929
-12.316216 3.171660 7.272006
-12.389757 2.849075 7.244639
-12.462309 2.509833 7.217958
-12.537223 2.151596 7.190699
-12.624941 1.774292 7.158304
-12.726072 1.407362 7.119228
-12.807479 1.054010 7.087727
-12.884313 0.716264 7.056947
-12.963634 0.393961 7.023915
-13.050679 0.086964 6.986639
-13.136686 -0.210889 6.949104
-13.224148 -0.500564 6.910461
-13.304579 -0.788457 6.874093
-13.397322 -1.069157 6.832877
-13.495398 -1.348362 6.789811
-13.587228 -1.632794 6.749096
-13.680338 -1.922087 6.708184
-13.776200 -2.218400 6.666666
-13.876723 -2.523510 6.624133
-13.989898 -2.836828 6.578124
-14.126826 -3.156859 6.524992
-14.274157 -3.491269 6.468956
-14.426188 -3.844908 6.411577
-14.574065 -4.197188 6.355488
-14.720518 -4.529525 6.298965
-14.865158 -4.844450 6.241343
-15.004309 -5.145875 6.183633
-15.123923 -5.441828 6.132464
-15.244142 -5.726838 6.078790
-15.354937 -6.007712 6.028048
-15.451927 -6.288518 5.984021
-15.538790 -6.570777 5.946665
-15.615738 -6.857868 5.917744
-15.692614 -7.147489 5.892024
-15.762513 -7.446529 5.876369
-15.836774 -7.751826 5.862775
-15.920337 -8.064404 5.847049
-16.008146 -8.388768 5.834003
-16.124664 -8.715442 5.798047
-16.246399 -9.058393 5.762736
-16.377357 -9.418341 5.724331
-16.542683 -9.761348 5.646029
-16.664410 -10.105156 5.610699
-16.788654 -10.427896 5.565977
-16.921261 -10.727822 5.505889
-17.071129 -11.000719 5.421896
-17.199003 -11.278610 5.362496
-17.317625 -11.556026 5.313297
-17.430857 -11.833068 5.270786
-17.538992 -12.111761 5.235483
-17.642187 -12.395787 5.208719
-17.731482 -12.690128 5.199242
-17.826416 -12.990505 5.191009
-17.944437 -13.285920 5.170658
-18.103161 -13.584550 5.129156
-18.280096 -13.896360 5.088523
-18.468550 -14.234649 5.056129
-18.634695 -14.590583 5.043467
-18.779715 -14.938210 5.029669
-18.912636 -15.274907 5.011285
-19.029573 -15.606355 4.995683
-19.124620 -15.930589 4.992752
-19.203308 -16.253195 5.005174
-19.259405 -16.567495 5.044625
-19.298767 -16.879795 5.113944
-19.338955 -17.180256 5.199474
-19.387529 -17.478186 5.296830
-19.436371 -17.768690 5.421299
-19.492682 -18.053495 5.563663
-19.550724 -18.333960 5.739317
-19.622765 -18.613899 5.935778
-19.710533 -18.896090 6.157128
-19.858482 -19.196930 6.364758
-20.008823 -19.483894 6.578918
-20.163519 -19.750252 6.792027
-20.378929 -20.017698 6.988394
-20.592329 -20.241846 7.207264
-20.803795 -20.430311 7.463397
-21.069958 -20.559025 7.726522
-21.266562 -20.630911 8.032355
-21.016859 -20.674833 8.406053
-20.564623 -20.833754 8.758939
-20.492281 -20.972956 9.054832
-20.517929 -21.093994 9.346052
-20.594261 -21.192905 9.639289
-20.697880 -21.275242 9.936904
-20.810963 -21.354168 10.238608
-20.925163 -21.445341 10.545961
-21.054480 -21.543728 10.860305
-21.195797 -21.659407 11.180792
-21.372787 -21.767824 11.506248
-21.580580 -21.845825 11.821397
-21.797506 -21.883589 12.106531
-22.015535 -21.903154 12.367879
-22.228840 -21.918079 12.607261
