-22.452684 -21.917326 12.831611
-22.681591 -21.901188 13.035447
-22.924814 -21.863590 13.220393
-23.184946 -21.810558 13.393958
-23.453400 -21.764053 13.569786
-23.742998 -21.707111 13.742048
-24.053225 -21.635475 13.903689
-24.387396 -21.552814 14.058022
-24.741356 -21.457184 14.196838
-25.089281 -21.351072 14.300326
-25.424690 -21.236353 14.367689
-25.749640 -21.120508 14.407226
-26.064819 -21.001770 14.416061
-26.371054 -20.867821 14.382560
-26.665697 -20.715088 14.304770
-26.923677 -20.529537 14.173124
-27.127905 -20.292801 13.981807
-27.323133 -20.050535 13.758354
-27.502995 -19.810547 13.512533
-27.676359 -19.595493 13.266444
-27.828506 -19.393425 13.016208
-27.959240 -19.202564 12.762779
-28.073198 -19.021605 12.506742
-28.175880 -18.851282 12.250789
-28.269518 -18.688543 11.993390
-28.352434 -18.530888 11.736918
-28.424299 -18.375273 11.480286
-28.470263 -18.212595 11.221423
-28.505898 -18.048847 10.965221
-28.494148 -17.867918 10.706425
-28.456882 -17.680151 10.450829
-28.370966 -17.473339 10.192265
-28.270430 -17.264997 9.933360
-28.141428 -17.038694 9.673903
-28.044317 -16.817692 9.399360
-28.172680 -16.608330 9.147089
-28.455204 -16.400917 8.911335
-28.959930 -16.180487 8.729065
-29.273239 -15.904181 8.542951
-29.420683 -15.591490 8.379693
-29.446663 -15.277468 8.267313
-29.437428 -14.966027 8.211296
-29.411665 -14.654771 8.203339
-29.387609 -14.341329 8.237475
-29.351673 -14.022977 8.296222
-29.293314 -13.696386 8.361715
-29.300938 -13.353831 8.446388
-29.271023 -12.996364 8.504590
-29.211739 -12.623541 8.525808
-29.118666 -12.242537 8.502924
-29.030836 -11.876833 8.475662
-28.952539 -11.527666 8.450140
-28.863194 -11.196295 8.420886
-28.748934 -10.884477 8.384407
-28.688868 -10.572411 8.362236
-28.649813 -10.265442 8.345224
-28.637453 -9.957668 8.334774
-28.585882 -9.663256 8.314015
-28.524845 -9.372416 8.290997
-28.462917 -9.081714 8.268091
-28.403931 -8.787208 8.246478
-28.341753 -8.487915 8.224746
-28.279400 -8.181115 8.203899
-28.205519 -7.867598 8.181315
-28.150818 -7.535733 8.164851
-28.071951 -7.196664 8.143958
-27.939558 -6.857643 8.111430
-27.798916 -6.502403 8.078545
-27.643602 -6.143699 8.043924
-27.475077 -5.810102 8.008032
-27.312000 -5.493092 7.974998
-27.140636 -5.197433 7.940702
-27.000566 -4.902390 7.916011
-26.877041 -4.613713 7.896817
-26.772911 -4.323704 7.884696
-26.673958 -4.038665 7.874892
-26.563404 -3.761672 7.861991
-26.424078 -3.498097 7.839073
-26.289326 -3.231952 7.817030
-26.158264 -2.960665 7.795652
-26.051331 -2.672471 7.782745
-25.947662 -2.375501 7.770413
-25.898777 -2.043721 7.779902
-25.745932 -1.746209 7.745129
-25.683498 -1.394580 7.747042
-25.590195 -1.040642 7.733823
-25.503056 -0.665485 7.721341
-25.402182 -0.287038 7.699965
-25.304567 0.073351 7.676640
-25.224756 0.421261 7.658029
-25.143225 0.752848 7.635662
-25.073296 1.074232 7.615733
-24.992741 1.381613 7.588661
-24.902983 1.676992 7.555210
-24.815920 1.967235 7.521206
-24.726284 2.252613 7.484342
-24.652134 2.541506 7.453178
-24.574501 2.829123 7.419353
-24.468336 3.109998 7.372373
-24.367237 3.396225 7.327245
-24.248863 3.683241 7.274570
-24.133171 3.979410 7.223275
-24.009661 4.284176 7.169082
-23.876610 4.598313 7.111506
-23.738195 4.926721 7.052558
-23.588057 5.268967 6.989770
-23.435457 5.622760 6.926593
-23.287224 5.955016 6.863515
-23.129263 6.256727 6.794871
-22.958414 6.529433 6.719980
-22.803574 6.796181 6.650568
-22.655710 7.056645 6.583128
-22.523026 7.322742 6.520677
-22.392000 7.588354 6.458355
-22.243176 7.842911 6.389711
-22.078714 8.090912 6.316239
-21.899927 8.338064 6.238879
-21.702147 8.586096 6.156295
-21.496998 8.848322 6.072789
-21.276392 9.124788 5.985464
-21.046440 9.423902 5.896616
-20.823542 9.722842 5.812673
-20.620396 10.008204 5.737971
-20.439865 10.286816 5.673899
-20.281191 10.562765 5.620986
-20.144382 10.841182 5.581159
-20.019300 11.119464 5.550971
-19.876373 11.379989 5.513161
-19.710752 11.622932 5.461534
-19.555685 11.878669 5.416882
-19.375584 12.123610 5.354035
-19.170277 12.361156 5.270882
-18.960785 12.613197 5.184331
-18.767204 12.902063 5.112236
-18.594492 13.237156 5.058360
-18.404718 13.568672 4.988301
-18.229958 13.880216 4.918832
-18.063234 14.169241 4.845425
-17.882015 14.423823 4.759541
-17.698147 14.660530 4.673948
-17.506035 14.882213 4.591363
-17.322819 15.108161 4.513603
-17.142429 15.339068 4.435976
-16.955309 15.573627 4.357450
-16.754736 15.813439 4.277150
-16.569407 16.076500 4.197402
-16.396240 16.364319 4.117331
-16.263975 16.692423 4.038759
-16.141563 17.047735 3.958692
-15.982201 17.369802 3.871318
-15.849661 17.680120 3.783132
-15.749170 17.987717 3.696784
-15.619204 18.272184 3.609200
-15.482733 18.546978 3.523877
-15.332334 18.811440 3.441579
-15.174993 19.068018 3.363663
-14.988840 19.310841 3.289889
-14.802919 19.555651 3.224196
-14.596350 19.791332 3.167793
-14.364806 20.022932 3.116065
-14.164477 20.304239 3.089255
-13.899852 20.561499 3.064173
-13.581875 20.790569 3.043800
-13.259820 20.961567 3.040093
-13.002060 21.160246 3.077601
-12.720535 21.293661 3.121498
-12.482213 21.473108 3.190989
-12.230970 21.630222 3.271235
-11.966002 21.761393 3.357921
-11.693045 21.889257 3.451837
-11.406384 22.008751 3.548385
-11.102831 22.125296 3.645013
-10.793476 22.277260 3.745564
-10.454554 22.427889 3.839282
-10.113822 22.563826 3.926318
-9.801195 22.686588 4.011362
-9.524551 22.824774 4.100031
-9.292219 23.006403 4.197824
-9.064663 23.180307 4.294858
-8.847488 23.371254 4.396006
-8.609436 23.549004 4.495448
-8.349510 23.729118 4.596273
-8.043225 23.888403 4.694665
-7.687127 24.017479 4.785495
-7.360961 24.149773 4.872960
-7.065322 24.277956 4.954225
-6.806599 24.432980 5.035420
-6.548213 24.569479 5.109224
-6.284390 24.693300 5.177764
-6.004407 24.802841 5.241718
-5.701446 24.901247 5.302685
-5.375869 25.021086 5.367984
-5.011257 25.126993 5.431012
-4.660306 25.193672 5.478073
-4.340902 25.258896 5.515694
-4.038045 25.308701 5.543826
-3.742210 25.358311 5.568098
-3.442135 25.402998 5.590252
-3.126734 25.423903 5.611828
-2.787336 25.456923 5.639351
-2.405747 25.453316 5.658905
-2.029149 25.451368 5.684245
-1.689051 25.470558 5.723111
-1.379409 25.510181 5.772392
-1.088217 25.565279 5.821677
-0.799657 25.625553 5.865433
-0.502107 25.673391 5.901180
-0.183098 25.738941 5.932566
0.176343 25.817263 5.956423
0.558177 25.874834 5.963539
0.898339 25.842690 5.939857
1.202727 25.754190 5.894782
1.494121 25.694382 5.847871
1.785622 25.636360 5.796911
2.094633 25.583855 5.745652
2.434173 25.537359 5.697206
2.817864 25.524614 5.660438
3.185485 25.539577 5.642309
3.517591 25.533434 5.630556
3.829571 25.510782 5.619700
4.134765 25.473993 5.603828
4.435532 25.409552 5.573942
4.738427 25.280695 5.516519
5.049631 25.114529 5.430455
5.383327 24.952257 5.319885
5.647490 24.729900 5.183389
5.858357 24.498423 5.035907
6.065147 24.335148 4.895837
6.298361 24.223864 4.763371
6.588336 24.162884 4.641543
6.872400 24.066273 4.517006
7.134203 23.911116 4.393288
7.371791 23.687519 4.263197
7.633029 23.427393 4.132677
7.886710 23.168644 4.014781
8.134158 22.938618 3.918519
8.357758 22.704573 3.833629
8.555669 22.455093 3.748286
8.753110 22.214371 3.671951
8.968899 22.001381 3.607762
9.222326 21.840225 3.559841
9.501495 21.703564 3.522317
9.798060 21.570822 3.490638
10.109318 21.426287 3.461188
10.518871 21.387342 3.456228
10.976158 21.380930 3.460476
11.356998 21.292688 3.447775
11.693813 21.183420 3.430111
11.998297 21.042973 3.406566
12.282632 20.896257 3.383030
12.547957 20.726158 3.357235
12.807016 20.556055 3.334773
13.054606 20.369101 3.313423
13.293352 20.172852 3.295707
13.537766 19.984900 3.286098
13.776566 19.783298 3.281378
14.032022 19.598505 3.288525
14.293371 19.404243 3.302699
14.572491 19.205788 3.326337
14.864141 18.990807 3.360563
15.155676 18.738218 3.400430
15.381076 18.441996 3.433982
15.568163 18.154024 3.475301
15.722721 17.876686 3.522929
15.835911 17.594563 3.573883
15.923729 17.306641 3.630803
15.992923 17.020054 3.695779
16.069826 16.733263 3.774453
16.118980 16.424360 3.857908
16.219692 16.129225 3.957134
16.394915 15.846114 4.056588
16.683985 15.613727 4.163510
17.018242 15.384639 4.276309
17.349892 15.152336 4.391429
17.642620 14.930125 4.501433
17.905975 14.726195 4.607951
18.139503 14.525165 4.709495
18.322466 14.306283 4.803525
18.493593 14.083462 4.894243
18.644567 13.844810 4.980829
18.794012 13.596953 5.066959
18.944210 13.333453 5.157211
19.096247 13.051982 5.243869
19.261312 12.758904 5.328783
19.443344 12.448524 5.415158
19.623348 12.108987 5.496721
19.802364 11.798976 5.574433
19.980158 11.521364 5.649328
20.161074 11.271430 5.723258
20.339464 11.034152 5.793774
20.509245 10.797429 5.858805
20.673910 10.555283 5.919658
20.844603 10.307755 5.980299
21.022434 10.047734 6.041250
21.208775 9.768187 6.103473
21.412539 9.467366 6.169935
21.621731 9.145943 6.237673
21.827297 8.845945 6.303151
22.021830 8.562039 6.364424
22.212614 8.295611 6.423385
22.401058 8.043701 6.480458
22.580410 7.797133 6.534004
22.753349 7.553809 6.584774
22.922646 7.311933 6.633497
23.084391 7.064446 6.679214
23.242086 6.810494 6.722817
23.385553 6.539247 6.761547
23.539217 6.263681 6.801923
23.708715 5.983388 6.845714
23.887922 5.689075 6.891387
24.072451 5.373856 6.937821
24.255844 5.033043 6.983142
24.422810 4.694197 7.023050
24.576757 4.370134 7.058677
24.724514 4.061299 7.092172
24.871645 3.766969 7.125354
25.017382 3.484040 7.158098
25.157116 3.206756 7.188862
25.283476 2.930134 7.215252
25.404133 2.655764 7.239722
25.506361 2.375123 7.257797
25.603373 2.091805 7.273795
25.706577 1.807175 7.291607
25.792242 1.509185 7.302470
25.880827 1.203288 7.313406
25.975176 0.887209 7.325191
26.084215 0.562268 7.341192
26.206680 0.225039 7.360841
26.348789 -0.124136 7.386801
26.530722 -0.469797 7.428057
26.709574 -0.800174 7.463429
26.867208 -1.122499 7.484530
27.016275 -1.433576 7.497802
27.177166 -1.724611 7.515657
27.355568 -1.994983 7.544389
27.517941 -2.263920 7.565098
27.667168 -2.532668 7.579495
27.815247 -2.797117 7.596353
27.966967 -3.056548 7.620341
28.120056 -3.314401 7.651853
28.260954 -3.580130 7.680249
28.391380 -3.855019 7.706788
28.506243 -4.144036 7.727647
28.596254 -4.454881 7.731534
28.692987 -4.771994 7.752037
28.792278 -5.100257 7.784142
28.911589 -5.431290 7.850633
29.008451 -5.791955 7.906703
29.083422 -6.178864 7.954342
29.209490 -6.519569 8.068591
29.289131 -6.867298 8.144090
29.378973 -7.190902 8.241195
29.460985 -7.502814 8.339993
29.537558 -7.803544 8.442492
29.602730 -8.098584 8.541620
29.662718 -8.386100 8.643636
29.707428 -8.674072 8.737088
29.751223 -8.955844 8.836985
29.794540 -9.233097 8.943310
29.815123 -9.520882 9.032070
29.837841 -9.806383 9.129298
29.846764 -10.100644 9.218330
29.869869 -10.389385 9.327122
29.912971 -10.670780 9.460570
29.915955 -10.982104 9.559010
29.957823 -11.279328 9.699042
30.001629 -11.585499 9.843821
30.096439 -11.876172 10.036365
30.148357 -12.204760 10.191777
30.293373 -12.500200 10.425677
30.337557 -12.861447 10.573339
30.372135 -13.215767 10.705298
30.403381 -13.557793 10.828396
30.485678 -13.861458 10.981632
30.599270 -14.138641 11.146951
30.703327 -14.411544 11.299165
30.784725 -14.687347 11.434916
30.816278 -14.977787 11.547474
30.905640 -15.237077 11.687506
30.919930 -15.520923 11.802477
30.955421 -15.791297 11.932135
30.913784 -16.081440 12.049416
30.924412 -16.349985 12.190306
30.993582 -16.604670 12.352777
31.036179 -16.871689 12.518166
31.072411 -17.145082 12.692183
31.123486 -17.426792 12.880481
31.124144 -17.723465 13.074444
31.075768 -18.031824 13.276041
31.033867 -18.350880 13.495273
30.983183 -18.651484 13.720651
30.904871 -18.919144 13.942947
30.808662 -19.157629 14.162337
30.712002 -19.374784 14.382975
30.622488 -19.575834 14.606217
30.533556 -19.766788 14.833615
30.454414 -19.953716 15.068837
30.378248 -20.141375 15.313227
30.297747 -20.330589 15.561887
30.157612 -20.515102 15.789489
29.989330 -20.702154 16.001709
29.792435 -20.900455 16.201233
29.580187 -21.113117 16.390425
29.329088 -21.343147 16.553711
29.028006 -21.585972 16.676828
28.708410 -21.818396 16.756083
28.435839 -22.037693 16.827486
28.197510 -22.254284 16.902069
27.997913 -22.449812 16.966593
27.805872 -22.663216 17.034012
27.619722 -22.853086 17.077316
27.431879 -23.076691 17.124701
27.195555 -23.329765 17.146736
26.918243 -23.584097 17.129559
26.590275 -23.787271 17.046576
26.255680 -23.915585 16.919579
25.930367 -24.008476 16.777597
25.618176 -24.082989 16.629782
25.326069 -24.157005 16.487074
25.045086 -24.184898 16.316574
24.791981 -24.187275 16.139233
24.564629 -24.174822 15.954515
24.336245 -24.164722 15.756212
24.127108 -24.175793 15.562073
23.889256 -24.224339 15.339092
23.648611 -24.277363 15.091182
23.394947 -24.316563 14.790658
23.158735 -24.321703 14.460938
22.962900 -24.291784 14.129195
22.811201 -24.231133 13.799595
22.687048 -24.155573 13.469192
22.603489 -24.055775 13.145590
22.539207 -23.952703 12.822737
22.502680 -23.838747 12.508720
22.488968 -23.717213 12.198544
22.491192 -23.593798 11.895751
22.507698 -23.467829 11.598739
22.544800 -23.335127 11.306789
22.664656 -23.170414 11.023136
22.747967 -23.030617 10.737054
22.746206 -22.907167 10.450043
22.683195 -22.782871 10.158411
22.634491 -22.625088 9.872717
22.522581 -22.455551 9.596016
22.339405 -22.260952 9.338703
22.250559 -22.034641 9.083465
22.174646 -21.782143 8.831389
22.070406 -21.508028 8.589886
21.956320 -21.212618 8.359334
21.827890 -20.918537 8.168963
21.710541 -20.625914 8.013813
21.610159 -20.333452 7.886273
21.529802 -20.039820 7.785182
21.458836 -19.746002 7.705498
21.386190 -19.450329 7.651817
21.320820 -19.153433 7.613986
21.263309 -18.851429 7.591056
21.210600 -18.545988 7.579055
21.161751 -18.234364 7.575725
21.116777 -17.917067 7.577454
21.067356 -17.593872 7.583665
21.018032 -17.263622 7.589389
20.968643 -16.924997 7.591220
20.885374 -16.586023 7.597374
20.780867 -16.242996 7.600062
20.676189 -15.889415 7.588738
20.567354 -15.525316 7.561264
20.451803 -15.152833 7.516902
20.335859 -14.795117 7.471085
20.227209 -14.454691 7.425980
20.115860 -14.131843 7.384955
19.982252 -13.830513 7.355247
19.865051 -13.536102 7.321922
19.748064 -13.251042 7.290761
19.638350 -12.969982 7.258590
19.535147 -12.690582 7.225333
19.428619 -12.413541 7.194511
19.312057 -12.138996 7.168549
19.189877 -11.862737 7.145363
19.067154 -11.580128 7.122549
18.932379 -11.293198 7.104454
18.794645 -10.995660 7.087043
18.656040 -10.683829 7.069075
18.513681 -10.356296 7.051461
18.367319 -10.010478 7.033948
18.213270 -9.650716 7.018626
18.068119 -9.302331 7.004299
17.926224 -8.971797 6.993809
17.788019 -8.656332 6.986474
17.654051 -8.353558 6.981674
17.520672 -8.062364 6.980214
17.389902 -7.779827 6.980988
17.266468 -7.500634 6.981682
17.149519 -7.222899 6.982460
17.023350 -6.952410 6.988208
16.891479 -6.684566 6.997192
16.759556 -6.414345 7.006930
16.621443 -6.142244 7.018985
16.477592 -5.865534 7.032659
16.324331 -5.583671 7.048562
16.163677 -5.292782 7.065548
15.994782 -4.991045 7.083426
15.825270 -4.671919 7.099594
15.643509 -4.338564 7.116973
15.447520 -3.999295 7.136756
15.252802 -3.679879 7.158361
15.067241 -3.377307 7.179793
14.890394 -3.087814 7.200902
14.722852 -2.808846 7.221394
14.561698 -2.537961 7.241705
14.412088 -2.269757 7.260392
14.271975 -2.001793 7.277568
14.145515 -1.730190 7.292181
14.021471 -1.456570 7.306672
13.901197 -1.179600 7.320666
13.782594 -0.895253 7.334263
13.674085 -0.599557 7.345087
13.564669 -0.292624 7.355661
13.454932 0.026482 7.365659
13.339931 0.360361 7.376095
13.238336 0.718006 7.381486
13.129096 1.092672 7.387510
13.049366 1.464705 7.385286
12.973654 1.815098 7.382842
12.896194 2.144689 7.382144
12.853453 2.468691 7.371366
12.769829 2.770599 7.375241
12.722153 3.072245 7.368313
12.673420 3.369502 7.362594
12.611510 3.662251 7.363022
12.563355 3.958248 7.359074
12.510331 4.257403 7.357639
12.473736 4.565409 7.349293
12.404587 4.877975 7.354636
12.330292 5.200239 7.361816
12.239214 5.534874 7.375544
12.132181 5.881898 7.395144
11.984195 6.238213 7.431887
11.820113 6.581351 7.478012
11.671983 6.891757 7.522034
11.539005 7.177664 7.562075
11.415586 7.453932 7.599655
11.294161 7.722988 7.637184
11.177858 7.998667 7.672583
11.064032 8.287277 7.705701
10.939530 8.589502 7.738517
10.815434 8.920966 7.765191
10.699782 9.289140 7.781204
10.593318 9.641381 7.783239
10.499592 9.963592 7.771810
10.413053 10.266030 7.751791
10.314048 10.552165 7.732971
10.220768 10.837540 7.712468
10.110744 11.126046 7.701713
9.979269 11.421372 7.707664
9.815437 11.729846 7.738968
9.631618 12.061433 7.791639
9.455694 12.366567 7.862857
9.271136 12.611937 7.963270
9.096657 12.832733 8.069314
8.940190 13.072734 8.165929
8.769653 13.320827 8.265295
8.603739 13.616969 8.344210
8.409383 13.939941 8.415884
8.256513 14.268631 8.449217
8.118737 14.572235 8.465920
7.969081 14.842797 8.492361
7.810440 15.098247 8.526604
7.648448 15.351135 8.559756
7.467949 15.602838 8.606112
7.269516 15.861665 8.658294
7.037687 16.127804 8.736471
6.777583 16.393839 8.842812
6.533734 16.616554 8.945816
6.299881 16.808334 9.027081
6.064267 16.984264 9.079178
5.811809 17.159330 9.107407
5.531306 17.341564 9.121080
5.211421 17.534969 9.145042
4.892347 17.700684 9.199385
4.602588 17.818296 9.271660
4.321579 17.910570 9.334917
4.028858 17.998486 9.370348
3.700363 18.102457 9.356034
3.332460 18.205383 9.348431
3.004879 18.257679 9.368507
2.704543 18.277178 9.404005
2.399285 18.292458 9.436291
2.057715 18.320333 9.480366
1.686265 18.379910 9.513532
1.361897 18.447216 9.547804
1.064957 18.519175 9.567924
0.772064 18.585302 9.586035
0.459990 18.637457 9.607634
0.099406 18.662092 9.660670
-0.270800 18.680180 9.664272
-0.596319 18.688398 9.644996
-0.896798 18.686106 9.604472
-1.194460 18.672274 9.549730
-1.513472 18.644630 9.499853
-1.874408 18.604996 9.446838
-2.238078 18.559284 9.398332
-2.559086 18.510427 9.367954
-2.856879 18.450432 9.364519
-3.149172 18.387363 9.327542
-3.457352 18.309229 9.291789
-3.800967 18.210585 9.252153
-4.154819 18.105137 9.204486
-4.458748 18.012154 9.151383
-4.735651 17.915579 9.079865
-5.012756 17.789232 9.001838
-5.315662 17.615417 8.908090
-5.601756 17.410711 8.827191
-5.828532 17.202215 8.765495
-6.027928 16.991598 8.684789
-6.236613 16.768559 8.588310
-6.489580 16.527184 8.469476
-6.766975 16.313892 8.318741
-7.035127 16.141951 8.164926
-7.297706 15.994534 8.014828
-7.559870 15.875975 7.858202
-7.815747 15.742743 7.725948
-8.064281 15.564448 7.625721
-8.280248 15.332310 7.569319
-8.451610 15.014378 7.566153
-8.607369 14.696482 7.559222
-8.784094 14.385145 7.529253
-9.007649 14.071750 7.473503
-9.200808 13.754607 7.443777
-9.338892 13.434150 7.449826
-9.454753 13.127795 7.468109
-9.546450 12.827090 7.500237
-9.647364 12.538023 7.529819
-9.734071 12.247993 7.567940
-9.819358 11.957753 7.607511
-9.913357 11.664877 7.643723
-10.003415 11.363930 7.680115
-10.061565 11.047011 7.726102
-10.122572 10.711513 7.767415
-10.212764 10.362163 7.793276
-10.300186 9.983009 7.813703
-10.400230 9.623218 7.818245
-10.504845 9.294143 7.810042
-10.627678 8.998757 7.786459
-10.738286 8.712096 7.759869
-10.861060 8.440720 7.724441
-10.991437 8.174401 7.682741
-11.128536 7.902767 7.637220
-11.276695 7.612960 7.587479
-11.422913 7.293125 7.539665
-11.569646 6.935577 7.494509
-11.708362 6.582982 7.452143
-11.817173 6.242677 7.419519
-11.903206 5.912733 7.394267
-11.966630 5.593201 7.376547
-12.021888 5.282693 7.361089
-12.064940 4.979219 7.349575
-12.106440 4.680695 7.338015
-12.143638 4.384214 7.327559
-12.180525 4.087070 7.316797
-12.223054 3.787426 7.303251
-12.262594 3.480036 7.290827
-12.317407 3.165939 7.271667
-12.391210 2.842969 7.244150
-12.463525 2.503697 7.217544
-12.538704 2.145030 7.190159
-12.626956 1.767769 7.157521
-12.727448 1.401073 7.118708
-12.808888 1.048080 7.087162
-12.885565 0.710563 7.056443
-12.965075 0.388882 7.023296
-13.052119 0.081813 6.986016
-13.138093 -0.215525 6.948491
-13.225642 -0.505346 6.909795
-13.305784 -0.792920 6.873546
-13.398910 -1.073722 6.832180
-13.496988 -1.352860 6.789109
-13.588658 -1.637226 6.748476
-13.681775 -1.926661 6.707545
-13.777779 -2.222993 6.666001
-13.878300 -2.528203 6.623483
-13.991858 -2.841623 6.577328
-14.128949 -3.161679 6.524201
-14.276470 -3.496325 6.468065
-14.428487 -3.850146 6.410711
-14.576138 -4.202139 6.354706
-14.722580 -4.534106 6.298140
-14.867249 -4.848756 6.240506
-15.006008 -5.150077 6.182912
-15.125558 -5.445779 6.131742
-15.245800 -5.730732 6.078064
-15.356275 -6.011368 6.027385
-15.453117 -6.292460 5.983579
-15.540019 -6.574667 5.946066
-15.616666 -6.861380 5.917461
-15.693533 -7.151493 5.891773
-15.763430 -7.450117 5.876154
-15.837809 -7.755802 5.862575
-15.921488 -8.068157 5.846752
-16.009262 -8.392825 5.833853
-16.125921 -8.719497 5.797789
-16.248077 -9.062460 5.762100
-16.379333 -9.422426 5.723408
-16.544350 -9.764848 5.645199
-16.665743 -10.109034 5.610338
-16.790098 -10.431458 5.565400
-16.922981 -10.730783 5.504874
-17.072521 -11.003710 5.421235
-17.200323 -11.281582 5.361918
-17.318871 -11.558931 5.312792
-17.432030 -11.836000 5.270320
-17.540243 -12.114837 5.235121
-17.642796 -12.397867 5.208523
-17.732630 -12.694076 5.199267
-17.826582 -12.991096 5.190948
-17.946537 -13.290111 5.170050
-18.103781 -13.585440 5.129189
-18.282158 -13.899934 5.087958
-18.470272 -14.237762 5.055889
-18.635914 -14.593609 5.043289
-18.780903 -14.940845 5.029673
-18.913412 -15.277281 5.010994
-19.030169 -15.608320 4.995666
-19.126123 -15.935457 4.992856
-19.203564 -16.254541 5.005206
-19.260061 -16.572964 5.045792
-19.298977 -16.880972 5.114302
-19.339575 -17.185053 5.200411
-19.387871 -17.479454 5.297529
-19.436409 -17.770464 5.421508
-19.493103 -18.055023 5.564766
-19.551064 -18.335844 5.740448
-19.623308 -18.615835 5.937190
-19.711342 -18.898037 6.158702
-19.859531 -19.198608 6.365913
-20.009281 -19.485025 6.579812
-20.167606 -19.755238 6.795756
-20.363556 -20.012352 6.996694
-20.572941 -20.241600 7.226093
-20.796522 -20.427921 7.465759
-21.053759 -20.563471 7.737051
-21.137678 -20.627056 8.059042
-21.022734 -20.677881 8.406402
-20.563478 -20.834398 8.761088
-20.492279 -20.973719 9.056373
-20.518175 -21.094519 9.347444
-20.594707 -21.193312 9.640660
-20.698112 -21.275391 9.937594
-20.811560 -21.354570 10.240071
-20.925632 -21.445734 10.547435
-21.055096 -21.544239 10.861615
-21.196373 -21.659849 11.182037
-21.373482 -21.768200 11.507414
-21.581388 -21.845987 11.822487
-21.798353 -21.883703 12.107671
-22.016537 -21.903212 12.368969
-22.229753 -21.918137 12.608338
