-24.146135 -24.383070 8.659582
-24.421965 -24.345819 8.485881
-24.710526 -24.306616 8.297501
-25.015444 -24.258265 8.104442
-25.326296 -24.175119 7.908860
-25.607454 -24.016855 7.704380
-25.864082 -23.798367 7.489478
-26.149559 -23.604515 7.293638
-26.443712 -23.456678 7.131954
-26.729025 -23.324629 6.991886
-27.000628 -23.193064 6.864152
-27.263926 -23.063496 6.745183
-27.445639 -22.838945 6.616033
-27.639912 -22.640621 6.498558
-27.845783 -22.456537 6.379733
-28.055553 -22.266029 6.255812
-28.269987 -22.070169 6.123931
-28.491371 -21.861502 5.980115
-28.715773 -21.635015 5.820614
-28.946754 -21.388517 5.641916
-29.143845 -21.121933 5.442391
-29.296965 -20.861002 5.228679
-29.410572 -20.607016 5.004262
-29.436909 -20.340542 4.763849
-29.307411 -20.044024 4.484175
-29.344635 -19.868032 4.225552
-29.438023 -19.705591 3.981403
-29.611341 -19.525826 3.769213
-29.807135 -19.301212 3.606028
-30.024282 -19.028492 3.523366
-30.220398 -18.711618 3.493530
-30.358873 -18.365839 3.489808
-30.455292 -17.987270 3.498727
-30.516134 -17.620056 3.514353
-30.559364 -17.273367 3.548673
-30.591682 -16.945847 3.603603
-30.613586 -16.633410 3.677171
-30.578833 -16.321117 3.730751
-30.536589 -16.019764 3.806100
-30.506792 -15.731746 3.911626
-30.452452 -15.446835 4.020975
-30.398434 -15.166718 4.144436
-30.339355 -14.888854 4.276898
-30.318010 -14.612106 4.431269
-30.339430 -14.331320 4.599575
-30.394049 -14.036823 4.770499
-30.418652 -13.724533 4.922575
-30.402105 -13.393944 5.055028
-30.374222 -13.044249 5.175442
-30.351061 -12.672684 5.284666
-30.367540 -12.300930 5.386657
-30.393448 -11.947883 5.478960
-30.420176 -11.611020 5.562551
-30.448414 -11.287233 5.638642
-30.445301 -10.974897 5.707314
-30.431639 -10.671637 5.770678
-30.409565 -10.372899 5.830722
-30.363283 -10.079972 5.886694
-30.321491 -9.785313 5.941913
-30.264101 -9.489692 5.995712
-30.199875 -9.191618 6.049205
-30.139160 -8.883652 6.105010
-30.076473 -8.566216 6.163291
-29.969839 -8.241654 6.221617
-29.855812 -7.903254 6.284127
-29.751120 -7.543077 6.354097
-29.632147 -7.180182 6.426943
-29.486347 -6.846708 6.495928
-29.260384 -6.560000 6.556290
-29.128881 -6.262306 6.624765
-29.068802 -5.957000 6.696649
-29.007826 -5.659177 6.766321
-28.941357 -5.366796 6.833508
-28.909355 -5.063118 6.899815
-28.774757 -4.802065 6.958034
-28.657270 -4.532171 7.015178
-28.591511 -4.234169 7.071960
-28.487629 -3.945409 7.124822
-28.348921 -3.662149 7.174772
-28.192755 -3.373029 7.222236
-28.048439 -3.062382 7.267953
-27.895584 -2.735794 7.311310
-27.732040 -2.391274 7.351987
-27.570400 -2.043841 7.387337
-27.400501 -1.728307 7.412221
-27.236866 -1.433885 7.426784
-27.096378 -1.147422 7.434438
-26.965647 -0.869911 7.434931
-26.853786 -0.591153 7.432599
-26.752991 -0.309743 7.428750
-26.648863 -0.026402 7.420732
-26.540592 0.263567 7.409437
-26.439152 0.570294 7.399886
-26.325472 0.890330 7.385436
-26.194176 1.226724 7.363533
-26.044355 1.582660 7.333823
-25.938690 1.945604 7.321284
-25.828833 2.281383 7.300056
-25.739325 2.603776 7.282184
-25.651350 2.910556 7.259550
-25.579582 3.211358 7.238766
-25.516081 3.507788 7.216398
-25.459787 3.803409 7.191684
-25.407114 4.103490 7.162702
-25.337353 4.404987 7.123253
-25.241539 4.703488 7.071566
-25.084618 4.993543 7.001530
-24.899811 5.284089 6.924191
-24.698298 5.589429 6.841617
-24.451159 5.890200 6.748098
-24.244814 6.189021 6.658994
-24.069826 6.476112 6.571556
-23.906212 6.748899 6.482915
-23.738308 6.998827 6.391316
-23.621161 7.273673 6.305336
-23.510391 7.547066 6.219385
-23.425161 7.839847 6.137151
-23.236481 8.054336 6.038555
-23.074076 8.295511 5.944753
-22.917223 8.552423 5.853150
-22.743856 8.811514 5.760435
-22.536816 9.067389 5.662973
-22.299419 9.327677 5.562545
-22.070425 9.626307 5.467091
-21.855659 9.926626 5.380568
-21.645906 10.204165 5.301970
-21.453754 10.471395 5.232837
-21.274443 10.730300 5.171453
-21.095728 10.976991 5.115373
-20.919325 11.217625 5.063816
-20.750820 11.459512 5.016932
-20.586725 11.705490 4.972492
-20.422081 11.956318 4.929331
-20.274199 12.228819 4.886459
-20.134489 12.520887 4.841471
-20.040882 12.863739 4.791926
-19.881086 13.190053 4.735377
-19.699951 13.529839 4.672070
-19.539633 13.865732 4.604560
-19.383772 14.177747 4.537262
-19.232914 14.469175 4.470985
-19.085648 14.747246 4.406271
-18.945467 15.016789 4.343910
-18.805346 15.279532 4.284959
-18.655603 15.531015 4.231028
-18.488750 15.776564 4.182865
-18.304976 16.016445 4.141658
-18.079634 16.251083 4.108586
-17.812973 16.481161 4.084805
-17.479649 16.708855 4.071335
-17.267540 17.032375 4.061056
-17.059414 17.335274 4.064848
-16.844164 17.614994 4.081202
-16.592434 17.867722 4.108578
-16.413990 18.135078 4.141466
-16.285206 18.411133 4.178504
-16.259996 18.721968 4.215544
-16.269232 19.046522 4.252557
-16.221600 19.356457 4.290148
-16.131546 19.663551 4.325410
-16.010817 19.975544 4.355801
-15.830081 20.277082 4.380785
-15.579270 20.561710 4.399064
-15.295538 20.808563 4.405878
-15.033983 21.021645 4.396738
-14.819364 21.263502 4.371085
-14.577062 21.459446 4.340425
-14.301451 21.599293 4.310617
-14.016369 21.723579 4.286187
-13.725925 21.860533 4.267440
-13.419268 21.999207 4.256696
-13.079353 22.139750 4.255132
-12.709219 22.281925 4.265228
-12.376287 22.445404 4.286201
-12.091886 22.644032 4.316116
-11.878102 22.911123 4.353563
-11.619686 23.089943 4.390929
-11.374955 23.270979 4.430610
-11.147707 23.466192 4.470420
-10.911097 23.644753 4.509854
-10.658681 23.803280 4.549044
-10.404302 23.968500 4.585409
-10.143353 24.140419 4.617328
-9.862642 24.305761 4.644718
-9.573047 24.488743 4.664290
-9.266068 24.684168 4.675344
-8.931185 24.878981 4.677684
-8.605640 25.063864 4.666992
-8.300321 25.230703 4.643901
-8.019366 25.396650 4.609485
-7.745912 25.544458 4.567816
-7.481476 25.686514 4.520386
-7.219665 25.824490 4.469614
-6.945481 25.939816 4.419699
-6.667109 26.060545 4.370751
-6.375368 26.186998 4.325313
-6.062586 26.312607 4.286527
-5.723326 26.446148 4.256199
-5.359114 26.585730 4.235706
-5.001393 26.703251 4.221331
-4.666340 26.836399 4.208389
-4.340207 26.948154 4.199823
-4.026903 27.057756 4.193650
-3.720616 27.156635 4.190319
-3.426164 27.266289 4.187657
-3.134436 27.371082 4.186728
-2.840431 27.455639 4.188581
-2.544858 27.517355 4.193147
-2.241665 27.553322 4.200380
-1.935275 27.570175 4.209402
-1.619956 27.561832 4.220448
-1.298591 27.542976 4.231933
-0.969677 27.530399 4.242088
-0.629910 27.514812 4.251433
-0.276380 27.523672 4.257264
0.091596 27.606056 4.254988
0.480308 27.669785 4.252328
0.855839 27.632065 4.255727
1.205502 27.583397 4.257475
1.536754 27.547606 4.256028
1.853996 27.532841 4.251212
2.164588 27.524609 4.244835
2.470052 27.509863 4.238579
2.771546 27.472395 4.234400
3.070431 27.416079 4.232498
3.374963 27.353580 4.233191
3.681902 27.271061 4.241188
3.994987 27.164274 4.252381
4.310511 27.016857 4.264194
4.646460 26.870237 4.277728
5.006986 26.728035 4.295073
5.353754 26.577602 4.316079
5.675282 26.436323 4.342535
5.975820 26.297714 4.373446
6.266461 26.178867 4.410285
6.545645 26.059572 4.449717
6.811171 25.924414 4.488571
7.083179 25.806087 4.530314
7.352870 25.676058 4.570170
7.622281 25.530405 4.606992
7.896419 25.369932 4.640337
8.190132 25.212479 4.671173
8.499619 25.042295 4.697167
8.830149 24.859522 4.717474
9.174068 24.686190 4.733176
9.497047 24.531073 4.744917
9.803593 24.393469 4.753509
10.093980 24.261665 4.758362
10.366491 24.119713 4.757024
10.630430 23.975182 4.751135
10.894860 23.834747 4.743221
11.159384 23.684738 4.731452
11.429677 23.525774 4.717207
11.709464 23.351564 4.700167
11.996103 23.149776 4.677294
12.289111 22.912739 4.646961
12.582129 22.665154 4.615524
12.851257 22.431036 4.586046
13.106174 22.215572 4.560772
13.340089 22.001265 4.533853
13.563622 21.794582 4.507604
13.773090 21.583288 4.478477
13.973964 21.364910 4.446425
14.164963 21.134396 4.410566
14.372717 20.906769 4.373024
14.604154 20.683117 4.332228
14.853768 20.450176 4.285247
15.114851 20.196133 4.231115
15.392877 19.929333 4.168537
15.642677 19.669161 4.087190
15.869745 19.423609 3.991583
16.077944 19.188480 3.888262
16.275221 18.960117 3.783088
16.458464 18.729694 3.681276
16.624634 18.489933 3.587205
16.782270 18.238453 3.505788
16.948448 17.978001 3.447478
17.100559 17.688215 3.408660
17.262302 17.373158 3.401338
17.415453 17.017776 3.424567
17.563568 16.672989 3.471883
17.689713 16.343250 3.530194
17.833141 16.048042 3.613139
17.952858 15.758781 3.702218
18.080727 15.489994 3.806278
18.191502 15.224030 3.915412
18.299652 14.964802 4.031466
18.397655 14.705241 4.151467
18.500610 14.449771 4.277442
18.599571 14.189865 4.405715
18.697687 13.924274 4.535517
18.805183 13.653663 4.668143
18.923479 13.376523 4.801314
19.059696 13.091594 4.935857
19.225470 12.802593 5.069718
19.428665 12.512812 5.201388
19.652044 12.216875 5.327483
19.870859 11.948528 5.444845
20.071743 11.701046 5.553762
20.259430 11.463593 5.657379
20.440613 11.235899 5.755826
20.623234 11.014735 5.850192
20.805113 10.792148 5.940616
20.988031 10.563837 6.027241
21.176342 10.326990 6.110173
21.373100 10.078031 6.189776
21.591635 9.816856 6.267174
21.813828 9.522129 6.343826
22.021095 9.206749 6.413620
22.201212 8.903988 6.468835
22.357910 8.611020 6.511713
22.495466 8.325687 6.544435
22.611828 8.042010 6.568592
22.698898 7.751598 6.584496
22.809093 7.473211 6.600075
22.936100 7.198340 6.617524
23.070713 6.918498 6.637933
23.227034 6.634626 6.665764
23.390791 6.336592 6.700361
23.618931 6.050766 6.754927
23.815844 5.721165 6.810606
24.040293 5.427123 6.878252
24.273149 5.169919 6.951259
24.469044 4.906814 7.020107
24.620007 4.625804 7.084072
24.795101 4.375974 7.154201
24.972178 4.136829 7.225163
25.139662 3.894400 7.294538
25.307701 3.653478 7.362080
25.477980 3.411063 7.426280
25.663139 3.169544 7.486709
25.839752 2.908190 7.540620
25.985991 2.608912 7.585835
26.103096 2.274989 7.621292
26.361366 1.981219 7.655894
26.448683 1.598452 7.670343
26.531101 1.240738 7.676411
26.602692 0.899452 7.673970
26.704483 0.590020 7.668729
26.766973 0.281857 7.653575
26.800032 -0.026797 7.630539
26.855227 -0.317272 7.605625
26.965208 -0.595036 7.584611
27.116964 -0.862615 7.568719
27.186234 -1.153599 7.539254
27.231894 -1.453354 7.504776
27.308079 -1.755912 7.474813
27.398119 -2.067078 7.447700
27.510201 -2.387585 7.426279
27.627701 -2.722261 7.408032
27.806406 -3.062669 7.406796
27.813309 -3.456755 7.365633
27.928202 -3.822157 7.353940
28.039677 -4.167914 7.344994
28.148005 -4.496779 7.338540
28.245672 -4.813462 7.331913
28.346512 -5.117602 7.328755
28.467516 -5.410132 7.334159
28.516819 -5.710396 7.318391
28.554998 -6.007831 7.299723
28.627007 -6.300548 7.292464
28.707397 -6.593230 7.288552
28.740503 -6.899611 7.267673
28.756821 -7.213733 7.239921
28.746252 -7.542129 7.200672
28.731264 -7.882621 7.157762
28.713757 -8.237552 7.111600
28.710302 -8.609510 7.068009
28.761177 -8.995764 7.042517
28.894869 -9.364511 7.052077
28.969843 -9.716652 7.043938
28.981262 -10.055606 7.015900
28.996502 -10.380060 6.991858
29.014587 -10.692169 6.970767
29.043688 -10.998195 6.953979
29.062452 -11.298283 6.933432
29.065767 -11.597596 6.906375
29.066196 -11.897953 6.876839
29.057365 -12.201638 6.841496
29.032875 -12.512586 6.798311
29.004944 -12.834191 6.749966
28.971661 -13.169674 6.695024
28.932272 -13.522820 6.632483
28.865328 -13.895842 6.554552
28.823820 -14.277631 6.469158
28.848688 -14.639550 6.379688
28.874773 -14.982085 6.271610
28.909641 -15.308721 6.153386
28.944715 -15.622422 6.027506
28.995003 -15.927197 5.905056
29.032789 -16.224871 5.781351
29.074991 -16.519609 5.668150
29.117926 -16.814562 5.569892
29.140659 -17.111340 5.483636
29.147387 -17.413200 5.416519
29.136627 -17.723763 5.374515
29.094065 -18.044340 5.355685
29.031549 -18.379631 5.373804
28.942945 -18.731949 5.429471
28.798307 -19.088747 5.514912
28.467211 -19.392788 5.579797
28.197926 -19.654385 5.710474
28.014505 -19.882105 5.895530
27.878168 -20.062859 6.127757
27.880859 -20.246723 6.378579
27.994785 -20.443764 6.657405
28.082037 -20.654627 6.940426
28.045052 -20.827162 7.207250
27.970356 -20.995535 7.476844
27.863855 -21.158173 7.742013
27.732958 -21.326006 8.003190
27.588949 -21.511543 8.260640
27.434071 -21.722488 8.508097
27.265810 -21.965565 8.742185
27.044586 -22.205067 8.952377
26.724108 -22.335005 9.101810
26.512569 -22.557388 9.211300
26.304171 -22.773561 9.283533
26.078516 -22.984524 9.329920
25.830257 -23.177355 9.360646
25.549734 -23.345711 9.386483
25.239035 -23.488110 9.418620
24.887192 -23.578732 9.466120
24.503763 -23.619080 9.538424
24.128897 -23.615713 9.622518
23.791382 -23.641388 9.715687
23.478189 -23.700642 9.813205
23.179098 -23.664965 9.898695
22.884697 -23.573229 9.953876
22.625345 -23.568525 10.001931
22.354759 -23.548904 10.037626
22.016674 -23.540195 10.073136
21.607454 -23.553972 10.097802
21.161194 -23.561802 10.106369
20.768698 -23.497097 10.083707
20.414291 -23.385263 10.042867
20.084839 -23.264374 9.992265
19.791187 -23.089762 9.919398
19.559565 -22.863791 9.824552
19.364885 -22.597012 9.706502
19.209290 -22.310579 9.574841
19.046560 -22.055029 9.452844
18.858213 -21.826580 9.343948
18.693911 -21.579533 9.229398
18.527193 -21.331078 9.120603
18.355371 -21.078091 9.020014
18.201355 -20.798910 8.916392
17.996849 -20.534937 8.841240
17.791134 -20.246815 8.772550
17.530289 -19.963442 8.732366
17.412371 -19.604370 8.657108
17.378901 -19.251429 8.587883
17.335358 -18.948425 8.555114
17.279676 -18.650381 8.545482
17.248426 -18.364052 8.545004
17.246857 -18.070799 8.551089
17.226068 -17.763308 8.572350
17.187450 -17.446877 8.606983
17.141741 -17.118813 8.647022
17.107540 -16.783066 8.682157
17.073006 -16.437698 8.712150
17.089468 -16.082748 8.714842
17.123114 -15.704255 8.696823
17.154627 -15.310447 8.662441
17.168877 -14.941428 8.632327
17.166098 -14.595140 8.607722
17.124451 -14.269846 8.598347
17.098347 -13.956242 8.581998
17.073801 -13.651191 8.564110
17.027609 -13.353962 8.554958
16.940771 -13.064451 8.565058
16.828268 -12.776367 8.587967
16.758844 -12.477205 8.588678
16.689508 -12.168230 8.587578
16.616529 -11.846276 8.586092
16.559456 -11.504008 8.572739
16.481155 -11.143687 8.567590
16.412985 -10.760435 8.553069
16.317835 -10.400084 8.555676
16.238483 -10.060492 8.551323
16.154467 -9.741580 8.551173
16.061588 -9.439602 8.556895
15.991177 -9.143384 8.549401
15.938311 -8.848572 8.531093
15.878782 -8.556549 8.515339
15.810532 -8.263785 8.502707
15.732747 -7.966089 8.492818
15.643547 -7.659621 8.485884
15.556409 -7.336358 8.473750
15.462543 -6.994181 8.460582
15.359254 -6.629327 8.447046
15.251466 -6.258545 8.431097
15.134563 -5.914419 8.417010
15.030742 -5.587733 8.394440
14.957923 -5.269801 8.355973
14.855361 -4.973082 8.331473
14.751592 -4.686212 8.307787
14.650095 -4.404418 8.284055
14.560978 -4.120987 8.256691
14.478133 -3.833812 8.229367
14.393430 -3.541417 8.206461
14.309086 -3.239352 8.187788
14.221694 -2.924805 8.175472
14.135068 -2.592906 8.168779
14.049185 -2.239922 8.168520
13.947787 -1.866832 8.181654
13.866554 -1.497126 8.197752
13.860721 -1.134653 8.197434
13.799579 -0.806921 8.226802
13.692869 -0.505573 8.280361
13.646610 -0.202768 8.318603
13.610461 0.094284 8.358565
13.590933 0.391234 8.396576
13.567545 0.688047 8.438364
13.550327 0.991075 8.479116
13.502695 1.297219 8.529369
13.409796 1.606757 8.591355
13.319097 1.933530 8.649309
13.229074 2.282400 8.701900
13.111133 2.649132 8.756928
13.038794 3.017824 8.794522
12.986289 3.366702 8.824146
12.947663 3.699691 8.847777
12.880643 4.009024 8.877851
12.816536 4.307626 8.905300
12.724817 4.591484 8.938962
12.637719 4.874780 8.969574
12.553684 5.161737 8.997594
12.445916 5.449824 9.031341
12.344876 5.752493 9.061847
12.238447 6.071576 9.093019
12.155818 6.419382 9.115405
12.074208 6.793952 9.136147
12.003222 7.162954 9.152935
11.975731 7.509084 9.153261
11.846745 7.814094 9.194069
11.769683 8.114169 9.214968
11.702180 8.407300 9.231277
11.665154 8.703753 9.230278
11.622297 9.004776 9.227099
11.577782 9.320272 9.217482
11.528619 9.656454 9.200612
11.460720 10.019730 9.182571
11.366811 10.391898 9.168941
11.255947 10.723706 9.160957
11.141208 11.025482 9.151449
11.028639 11.309448 9.136655
10.916333 11.585676 9.118213
10.808292 11.866016 9.093525
10.691364 12.155872 9.073113
10.560365 12.463387 9.061712
10.422204 12.801519 9.054680
10.269087 13.154862 9.066518
10.139103 13.482419 9.084182
10.037263 13.790919 9.096173
9.945074 14.083906 9.108768
9.851712 14.368407 9.122302
9.751493 14.651483 9.132221
9.641068 14.944699 9.132742
9.509261 15.257593 9.122130
9.333425 15.588846 9.113582
9.106597 15.876703 9.130835
8.900130 16.123959 9.118981
8.653191 16.303783 9.143236
8.413733 16.487495 9.140539
8.161882 16.686949 9.125945
7.898032 16.927074 9.095563
7.649993 17.218691 9.033353
7.410882 17.457886 9.002692
7.170762 17.655272 8.999528
6.936205 17.842865 8.993448
6.686425 18.026348 8.987866
6.404519 18.214788 8.980438
6.081141 18.417078 8.967049
5.772012 18.599915 8.967070
5.483294 18.754663 8.982320
5.208985 18.892260 8.996824
4.937433 19.019793 9.002813
4.658245 19.142723 8.994922
4.355332 19.263311 8.972537
4.012234 19.370848 8.944122
3.640038 19.468117 8.904957
3.289906 19.543880 8.865289
2.962859 19.611301 8.816298
2.647173 19.647635 8.779586
2.343364 19.677700 8.737647
2.044320 19.693102 8.700169
1.748385 19.720022 8.651104
1.447587 19.751955 8.598988
1.131295 19.755144 8.570212
0.798045 19.747131 8.555476
0.443146 19.736309 8.551529
0.060405 19.723249 8.561280
-0.318032 19.715666 8.578246
-0.668939 19.707432 8.603252
-0.998398 19.701874 8.632307
-1.311826 19.695896 8.665757
-1.613439 19.679867 8.708851
-1.910135 19.663906 8.752488
-2.206653 19.641586 8.799665
-2.500393 19.586769 8.869602
-2.807604 19.539042 8.929746
-3.132226 19.490793 8.983815
-3.477753 19.435009 9.035723
-3.843624 19.353184 9.099816
-4.199370 19.249840 9.173028
-4.515033 19.144554 9.239817
-4.805900 19.039474 9.296682
-5.078336 18.927849 9.349935
-5.350833 18.814356 9.394405
-5.634091 18.700449 9.429172
-5.942121 18.586515 9.453547
-6.285050 18.471924 9.466960
-6.647420 18.340548 9.484075
-6.965095 18.202019 9.507816
-7.248827 18.063349 9.529482
-7.512783 17.918896 9.549213
-7.770984 17.760672 9.568343
-8.035241 17.579405 9.589561
-8.320293 17.367210 9.612788
-8.619395 17.131756 9.638242
-8.877177 16.909401 9.670547
-9.105227 16.697279 9.700049
-9.309905 16.479082 9.730817
-9.508130 16.248419 9.753167
-9.718446 15.998509 9.757583
-9.944284 15.712217 9.750039
-10.155763 15.403255 9.740349
-10.331191 15.124908 9.713580
-10.475431 14.857971 9.681039
-10.614024 14.595557 9.629340
-10.737504 14.307320 9.587144
-10.874135 13.985118 9.537160
-11.013192 13.627959 9.498084
-11.113447 13.282343 9.494069
-11.206500 12.961971 9.484230
-11.293180 12.660031 9.470676
-11.387631 12.373760 9.439780
-11.481433 12.093090 9.405406
-11.581196 11.811496 9.363699
-11.667249 11.516145 9.338158
-11.754025 11.204947 9.315272
-11.827792 10.867624 9.310266
-11.902612 10.501767 9.310729
-11.950254 10.119765 9.340385
-11.966798 9.768155 9.393807
-11.960432 9.439853 9.463640
-12.020367 9.138329 9.472980
-12.064917 8.841499 9.494202
-12.103797 8.546028 9.517616
-12.165587 8.246752 9.519474
-12.238323 7.935879 9.508026
-12.329850 7.611208 9.476464
-12.397117 7.260184 9.460262
-12.477324 6.882675 9.427724
-12.553284 6.517220 9.390410
-12.637109 6.178216 9.338176
-12.691483 5.851401 9.304301
-12.756070 5.542907 9.256188
-12.836169 5.251731 9.190095
-12.920336 4.969457 9.117323
-13.001232 4.690657 9.045726
-13.073480 4.407482 8.981680
-13.118577 4.109965 8.943129
-13.156890 3.800062 8.913908
-13.207459 3.481111 8.877798
-13.255511 3.143601 8.849664
-13.304734 2.785366 8.827275
-13.360252 2.403984 8.806946
-13.418136 2.022970 8.786150
-13.480691 1.667302 8.757306
-13.544835 1.332123 8.724437
-13.623661 1.018504 8.678662
-13.715298 0.721824 8.624009
-13.787508 0.427646 8.585590
-13.885808 0.147481 8.531796
-13.942808 -0.144892 8.509120
-13.991789 -0.441876 8.494242
-14.052814 -0.740513 8.475163
-14.126321 -1.044364 8.453462
-14.206238 -1.359174 8.433836
-14.321192 -1.679240 8.401604
-14.464040 -2.010652 8.362613
-14.610662 -2.364927 8.329603
-14.758855 -2.720973 8.303327
-14.882766 -3.059576 8.296301
-14.999060 -3.379420 8.298496
-15.110445 -3.683697 8.307563
-15.210373 -3.978683 8.327028
-15.303204 -4.266981 8.353773
-15.434950 -4.537804 8.356311
-15.561646 -4.809608 8.360976
-15.696064 -5.082086 8.357523
-15.803850 -5.370471 8.372755
-15.894761 -5.675076 8.401792
-15.982531 -5.996591 8.433701
-16.026705 -6.352148 8.509709
-16.139118 -6.709586 8.519056
-16.297394 -7.065796 8.474938
-16.420792 -7.408944 8.456640
-16.517576 -7.738528 8.457718
-16.589092 -8.059366 8.478246
-16.670612 -8.362206 8.479705
-16.752756 -8.654760 8.472592
-16.847652 -8.936669 8.444970
-16.955599 -9.212434 8.397610
-17.060905 -9.493747 8.349397
-17.162203 -9.786323 8.302832
-17.254171 -10.096883 8.264158
-17.343821 -10.427275 8.226697
-17.424332 -10.784474 8.197929
-17.529682 -11.155581 8.143762
-17.614000 -11.513060 8.099859
-17.687492 -11.847912 8.055500
-17.746469 -12.166258 8.015855
-17.780672 -12.476211 7.991646
-17.816988 -12.775145 7.959884
-17.861475 -13.067160 7.917507
-17.894186 -13.362620 7.883480
-17.954721 -13.656873 7.826403
-18.035038 -13.956909 7.755560
-18.064951 -14.285714 7.728355
-18.063549 -14.644313 7.729380
-18.145996 -15.007678 7.670423
-18.217577 -15.385655 7.617137
-18.222479 -15.758154 7.598184
-18.210150 -16.115017 7.581951
-18.184320 -16.459520 7.572549
-18.200232 -16.780630 7.524620
-18.231371 -17.089085 7.464777
-18.274000 -17.388998 7.399471
-18.383316 -17.665926 7.277406
-18.429466 -17.965975 7.241342
-18.485376 -18.270044 7.223539
-18.591309 -18.568630 7.183511
-18.729591 -18.871895 7.144344
-18.911766 -19.180452 7.103660
-19.076723 -19.519567 7.142691
-19.272659 -19.854097 7.183304
-19.471598 -20.170279 7.233004
-19.726444 -20.455677 7.241050
-19.932495 -20.737595 7.320141
-20.108284 -21.004419 7.439364
-20.272692 -21.259047 7.576102
-20.405453 -21.505152 7.740449
-20.509651 -21.755241 7.920322
-20.526648 -22.040453 8.140780
-20.663170 -22.282669 8.292637
-20.816429 -22.521914 8.436172
-20.988985 -22.753460 8.567863
-21.190157 -22.978586 8.686945
-21.418104 -23.193708 8.792005
-21.663639 -23.400705 8.881182
-21.942257 -23.598055 8.952372
-22.256445 -23.766628 9.000081
-22.594450 -23.934097 9.027863
-22.960857 -24.078451 9.030105
-23.283300 -24.222263 8.997408
-23.574348 -24.354546 8.926839
-23.866245 -24.387886 8.808668
