-24.144947 -24.383238 8.660309
-24.420788 -24.345974 8.486644
-24.709230 -24.306873 8.298371
-25.013975 -24.258556 8.105272
-25.325312 -24.175508 7.909760
-25.606604 -24.017624 7.704767
-25.863388 -23.798958 7.490072
-26.148525 -23.605183 7.294335
-26.443069 -23.457008 7.132300
-26.728441 -23.324913 6.992142
-27.000076 -23.193289 6.864386
-27.263468 -23.063803 6.745427
-27.445419 -22.839224 6.616197
-27.639729 -22.640793 6.498659
-27.845619 -22.456673 6.379860
-28.055412 -22.266151 6.255920
-28.269867 -22.070276 6.124018
-28.491282 -21.861588 5.980182
-28.715725 -21.635069 5.820651
-28.946754 -21.388517 5.641916
-29.143879 -21.121881 5.442353
-29.297001 -20.860920 5.228595
-29.410629 -20.606897 5.004193
-29.436852 -20.340485 4.763745
-29.364372 -20.067171 4.494264
-29.347347 -19.869165 4.226139
-29.403376 -19.699249 3.971729
-29.573467 -19.523701 3.751709
-29.807341 -19.299780 3.606473
-30.025795 -19.027836 3.522243
-30.220890 -18.710329 3.493710
-30.359421 -18.364807 3.489718
-30.455519 -17.986225 3.498770
-30.516329 -17.618525 3.514424
-30.559462 -17.272318 3.548828
-30.591873 -16.944775 3.603704
-30.613482 -16.632298 3.677426
-30.578632 -16.319866 3.731061
-30.536467 -16.018391 3.806256
-30.506659 -15.730525 3.912269
-30.452291 -15.445175 4.021381
-30.398182 -15.165470 4.145041
-30.339174 -14.887715 4.277627
-30.317932 -14.610875 4.432070
-30.339678 -14.329780 4.600307
-30.394247 -14.035228 4.771556
-30.418619 -13.722617 4.923390
-30.401930 -13.391829 5.055809
-30.374048 -13.041961 5.176173
-30.351013 -12.670156 5.285363
-30.367723 -12.298452 5.387295
-30.393618 -11.945487 5.479644
-30.420425 -11.608592 5.562985
-30.448389 -11.284736 5.639259
-30.445284 -10.973055 5.707665
-30.431477 -10.668902 5.771216
-30.409397 -10.371557 5.831098
-30.362816 -10.077009 5.887198
-30.320900 -9.782206 5.942521
-30.263765 -9.488160 5.995971
-30.199200 -9.188401 6.049785
-30.138798 -8.881586 6.105380
-30.075687 -8.562734 6.163952
-29.968477 -8.238230 6.222182
-29.854803 -7.899701 6.284822
-29.750015 -7.539306 6.354842
-29.630749 -7.176424 6.427696
-29.483402 -6.844077 6.496434
-29.258001 -6.555362 6.557371
-29.128082 -6.260206 6.625206
-29.068260 -5.954592 6.697262
-29.006973 -5.654893 6.767315
-28.940857 -5.363663 6.834200
-28.907930 -5.059922 6.900529
-28.772959 -4.799021 6.958715
-28.656483 -4.528489 7.015892
-28.590170 -4.230573 7.072584
-28.486267 -3.941744 7.125589
-28.346939 -3.658303 7.175343
-28.190657 -3.369212 7.222867
-28.046356 -3.058015 7.268558
-27.893440 -2.731274 7.311870
-27.729696 -2.386341 7.352537
-27.568207 -2.039174 7.387794
-27.397848 -1.723876 7.412371
-27.234451 -1.429544 7.427093
-27.094433 -1.143463 7.434347
-26.963768 -0.865576 7.434956
-26.852324 -0.586961 7.432622
-26.751455 -0.305310 7.428602
-26.647141 -0.021918 7.420697
-26.539087 0.268350 7.409239
-26.437326 0.575270 7.399675
-26.323664 0.895800 7.385231
-26.192125 1.232589 7.363240
-26.041492 1.588622 7.333151
-25.937149 1.951721 7.321158
-25.826868 2.286751 7.299526
-25.738180 2.609534 7.282090
-25.650127 2.916004 7.259174
-25.578690 3.216878 7.238656
-25.515324 3.513089 7.216054
-25.458359 3.809555 7.191044
-25.406586 4.108595 7.162324
-25.336121 4.409714 7.122311
-25.239126 4.707978 7.070608
-25.081739 4.998326 7.000210
-24.895214 5.291192 6.922338
-24.693644 5.594986 6.839867
-24.446663 5.895695 6.746444
-24.241247 6.195186 6.657290
-24.066397 6.481745 6.570263
-23.902622 6.753992 6.481528
-23.735447 7.004271 6.390481
-23.618582 7.279182 6.304929
-23.508017 7.554327 6.219232
-23.421698 7.847373 6.137294
-23.231653 8.060952 6.038713
-23.069305 8.302254 5.945252
-22.912952 8.559517 5.853709
-22.739355 8.817920 5.760990
-22.532614 9.072507 5.663131
-22.294041 9.334064 5.561412
-22.066355 9.634389 5.465152
-21.852062 9.934370 5.378824
-21.643082 10.212319 5.301926
-21.453888 10.481032 5.236199
-21.276087 10.741281 5.178638
-21.100262 10.990602 5.127365
-20.928436 11.236026 5.080740
-20.767298 11.484565 5.038681
-20.610416 11.737646 4.998293
-20.458561 11.999576 4.957994
-20.329132 12.286588 4.915510
-20.213617 12.597162 4.867717
-20.149862 12.960725 4.809465
-20.006992 13.306482 4.742100
-19.869238 13.665864 4.665229
-19.744255 14.001178 4.584625
-19.615189 14.308691 4.502570
-19.489899 14.596539 4.420303
-19.369543 14.874366 4.338921
-19.246738 15.141479 4.260430
-19.110285 15.397450 4.186820
-18.954399 15.643669 4.119915
-18.772823 15.889075 4.060874
-18.546476 16.123619 4.012527
-18.263163 16.357071 3.975969
-17.931711 16.599413 3.952269
-17.766226 16.946999 3.933664
-17.556732 17.246649 3.931364
-17.345219 17.526594 3.941198
-17.093964 17.778103 3.962251
-16.911985 18.043869 3.989093
-16.816544 18.332163 4.019318
-16.785353 18.638304 4.051653
-16.785362 18.963387 4.084318
-16.737755 19.273092 4.118627
-16.642679 19.574665 4.152261
-16.538031 19.890484 4.181579
-16.360964 20.186823 4.207843
-16.148130 20.486359 4.227387
-15.859396 20.748587 4.241059
-15.599228 20.989914 4.241113
-15.362884 21.210653 4.229864
-15.149069 21.449392 4.207736
-14.895125 21.621029 4.185961
-14.624633 21.768454 4.164587
-14.345490 21.911392 4.148820
-14.054448 22.058241 4.138913
-13.740085 22.201605 4.134964
-13.391681 22.350742 4.139188
-13.025537 22.496019 4.151777
-12.692553 22.651340 4.171388
-12.429558 22.877054 4.199462
-12.210874 23.138683 4.230938
-11.933978 23.290600 4.262546
-11.695604 23.483141 4.295628
-11.460475 23.670162 4.328497
-11.217889 23.841881 4.361051
-10.961236 23.993328 4.393697
-10.702648 24.149704 4.424593
-10.441113 24.315641 4.451661
-10.157825 24.467283 4.476151
-9.867423 24.634962 4.494578
-9.563128 24.814743 4.506459
-9.238139 25.001881 4.511374
-8.894533 25.184235 4.508312
-8.571743 25.353910 4.493673
-8.270835 25.514160 4.468736
-7.988820 25.669573 4.435189
-7.714723 25.811148 4.395918
-7.448726 25.948290 4.352182
-7.186374 26.083887 4.305830
-6.911230 26.199467 4.260565
-6.632620 26.320700 4.216233
-6.340587 26.446224 4.175045
-6.029567 26.572393 4.139412
-5.693340 26.704454 4.110970
-5.330380 26.843376 4.091259
-4.969051 26.960966 4.078250
-4.629456 27.089354 4.067204
-4.300590 27.200552 4.060244
-3.984789 27.308899 4.055788
-3.675327 27.401876 4.054609
-3.378737 27.508009 4.053884
-3.085783 27.610176 4.054787
-2.790766 27.690514 4.058551
-2.495245 27.751947 4.064600
-2.192739 27.787197 4.073244
-1.887006 27.802860 4.083580
-1.573287 27.794538 4.095667
-1.253731 27.778297 4.107773
-0.926913 27.767923 4.118372
-0.589176 27.753595 4.127991
-0.237186 27.763218 4.133865
0.129729 27.847404 4.131243
0.518352 27.916731 4.127581
0.895597 27.889076 4.128904
1.247900 27.841700 4.128553
1.579724 27.805910 4.124458
1.898629 27.787460 4.116783
2.210364 27.776255 4.107087
2.517698 27.759970 4.097114
2.818430 27.718260 4.089317
3.118003 27.655170 4.084009
3.421595 27.585917 4.080530
3.726086 27.495571 4.086040
4.036605 27.382711 4.095483
4.346551 27.224024 4.105998
4.678786 27.072172 4.118474
5.032526 26.914442 4.134310
5.377377 26.754017 4.154718
5.695896 26.601589 4.180975
5.992670 26.451147 4.211802
6.279801 26.322525 4.249466
6.556114 26.194098 4.290340
6.819093 26.055422 4.331674
7.087387 25.929899 4.375902
7.353050 25.795141 4.418760
7.620762 25.650629 4.459399
7.892626 25.492239 4.496687
8.183011 25.337027 4.531373
8.490648 25.174387 4.561531
8.822076 25.007429 4.586572
9.170892 24.836048 4.605660
9.508549 24.694668 4.621534
9.824929 24.563356 4.633177
10.128192 24.446777 4.641745
10.414727 24.324503 4.645197
10.687694 24.191555 4.642293
10.959079 24.062742 4.636614
11.229094 23.928604 4.627356
11.503296 23.787128 4.615522
11.785418 23.634787 4.601790
12.072405 23.457939 4.583285
12.367631 23.251440 4.559682
12.669249 23.009995 4.530238
12.961609 22.777090 4.504247
13.225887 22.549520 4.477854
13.477400 22.339365 4.455524
13.706903 22.127373 4.430916
13.924570 21.916500 4.405433
14.131787 21.703596 4.378030
14.324237 21.475880 4.346253
14.514611 21.241665 4.312050
14.723186 21.009346 4.275340
14.955309 20.778555 4.234572
15.200201 20.532646 4.187142
15.453736 20.262903 4.132765
15.721538 19.987696 4.068285
15.954874 19.720114 3.985001
16.167488 19.467127 3.888346
16.365929 19.226582 3.785376
16.553061 18.991159 3.681310
16.727451 18.753763 3.581794
16.883116 18.505962 3.490326
17.033726 18.248135 3.413474
17.190517 17.979601 3.359291
17.334545 17.683382 3.326110
17.485462 17.360891 3.323620
17.625290 16.999147 3.351121
17.759624 16.650366 3.402267
17.873367 16.318134 3.465118
18.002869 16.018721 3.551833
18.110767 15.727130 3.645617
18.227402 15.455745 3.754654
18.326208 15.187214 3.868619
18.423229 14.925780 3.989841
18.511425 14.664764 4.115431
18.605219 14.407641 4.246950
18.695435 14.146059 4.380789
18.784725 13.878531 4.515893
18.885332 13.606066 4.653928
18.997786 13.326973 4.792385
19.128798 13.039128 4.931800
19.290859 12.747891 5.069763
19.495211 12.455191 5.206232
19.711681 12.158252 5.335270
19.926680 11.894423 5.454794
20.121403 11.648664 5.565286
20.306816 11.413680 5.670231
20.485294 11.186263 5.769819
20.667591 10.965294 5.864993
20.848310 10.740890 5.956024
21.031717 10.510358 6.043004
21.221600 10.271269 6.126096
21.422520 10.020201 6.205780
21.643673 9.753343 6.283832
21.864447 9.448898 6.361107
22.064274 9.136003 6.428157
22.240274 8.836454 6.480953
22.390036 8.544228 6.521528
22.523592 8.260076 6.552309
22.635775 7.976452 6.574728
22.724287 7.687221 6.589774
22.834417 7.408255 6.604729
22.963179 7.132886 6.622369
23.103121 6.851945 6.643909
23.261909 6.565152 6.673135
23.446022 6.273259 6.712873
23.652390 5.968583 6.764555
23.869787 5.650866 6.826300
24.093216 5.364012 6.894709
24.327591 5.112432 6.968843
24.480885 4.821687 7.030774
24.661737 4.566910 7.100484
24.844917 4.326518 7.171818
25.010775 4.079326 7.241452
25.178606 3.837762 7.310575
25.347265 3.597048 7.377434
25.519360 3.353555 7.440916
25.703941 3.109455 7.499895
25.880808 2.843382 7.552290
26.018908 2.535653 7.595389
26.122059 2.190452 7.627218
26.380106 1.887801 7.659952
26.469110 1.512563 7.672533
26.548058 1.157450 7.676408
26.620077 0.823731 7.672882
26.719782 0.514058 7.665214
26.775734 0.206796 7.648906
26.819283 -0.092809 7.625666
26.877954 -0.385431 7.600304
26.988693 -0.659705 7.579268
27.140522 -0.930471 7.562839
27.194590 -1.224373 7.530858
27.252583 -1.523836 7.498170
27.331205 -1.828822 7.468553
27.421732 -2.142954 7.441814
27.539587 -2.465740 7.422019
27.653055 -2.805447 7.403322
27.821873 -3.152412 7.400305
27.826857 -3.549190 7.358900
27.956230 -3.906554 7.351810
28.066412 -4.248159 7.343371
28.171547 -4.574168 7.336697
28.268888 -4.887668 7.330640
28.370808 -5.189913 7.328310
28.478336 -5.482612 7.329997
28.525537 -5.782179 7.313756
28.575977 -6.077215 7.299170
28.643345 -6.371090 7.290485
28.720810 -6.667081 7.285334
28.745317 -6.974482 7.261418
28.757544 -7.292844 7.231677
28.741489 -7.623247 7.190102
28.730669 -7.966845 7.148144
28.705076 -8.326790 7.098341
28.719826 -8.702233 7.060866
28.796984 -9.087235 7.045553
28.920124 -9.451586 7.052389
28.980156 -9.801541 7.039557
28.984734 -10.135530 7.009745
29.000181 -10.457051 6.986361
29.025925 -10.767154 6.968162
29.049370 -11.071833 6.949377
29.063248 -11.372531 6.926875
29.066690 -11.670781 6.899594
29.063667 -11.971856 6.868245
29.054445 -12.277264 6.832229
29.025858 -12.590453 6.786715
28.996929 -12.915357 6.737122
28.962524 -13.254869 6.680336
28.921787 -13.612634 6.615796
28.845591 -13.991368 6.533134
28.826622 -14.368889 6.448157
28.857548 -14.725935 6.355256
28.883242 -15.064251 6.243373
28.917511 -15.387431 6.122406
28.955372 -15.698609 5.996474
29.007057 -16.001665 5.874856
29.043785 -16.298239 5.752424
29.084408 -16.592663 5.641679
29.123795 -16.887905 5.546433
29.144926 -17.186003 5.465456
29.146704 -17.489613 5.403468
29.128569 -17.802578 5.367399
29.079981 -18.126677 5.356397
29.002373 -18.464972 5.380364
28.928650 -18.824354 5.454345
28.704861 -19.167162 5.522854
28.400919 -19.463482 5.608733
28.210499 -19.722130 5.768996
28.039160 -19.940117 5.962412
27.946009 -20.123787 6.202168
27.920763 -20.298893 6.450314
28.027004 -20.497307 6.728834
28.074724 -20.698286 7.007319
28.031094 -20.870308 7.274949
27.947346 -21.037264 7.544129
27.831760 -21.198982 7.808300
27.698296 -21.371460 8.068406
27.550966 -21.562033 8.324291
27.392752 -21.780861 8.568660
27.221031 -22.032701 8.798783
26.969177 -22.247519 8.996265
26.665257 -22.393490 9.133873
26.460352 -22.612129 9.232660
26.248617 -22.826399 9.297213
26.019884 -23.037979 9.339007
25.763170 -23.225298 9.367483
25.473600 -23.382423 9.393448
25.154699 -23.522022 9.429341
24.792326 -23.596416 9.482319
24.404989 -23.617592 9.558953
24.038424 -23.614969 9.645288
23.705730 -23.654545 9.740543
23.402130 -23.707645 9.837077
23.108307 -23.639160 9.912480
22.821661 -23.570286 9.966651
22.561867 -23.565638 10.011252
22.260427 -23.540108 10.047190
21.924677 -23.541626 10.081301
21.491091 -23.554979 10.100599
21.054270 -23.552303 10.102442
20.673330 -23.471115 10.074829
20.327972 -23.361431 10.032798
20.004190 -23.221567 9.974199
19.719193 -23.036695 9.898131
19.504271 -22.795246 9.794217
19.323997 -22.518400 9.671143
19.170345 -22.242981 9.542908
18.990599 -22.001139 9.426953
18.778845 -21.794621 9.330210
18.586340 -21.564566 9.228096
18.421886 -21.308344 9.119035
18.260124 -21.041632 9.014584
18.107950 -20.756775 8.912722
17.944155 -20.460543 8.822019
17.717030 -20.179365 8.763678
17.461149 -19.884901 8.723357
17.396542 -19.507797 8.636419
17.376341 -19.171383 8.575609
17.313326 -18.865450 8.552328
17.271265 -18.579639 8.543462
17.246178 -18.290646 8.546974
17.245005 -17.988976 8.554227
17.216047 -17.682205 8.580901
17.181883 -17.361925 8.615384
17.129810 -17.030949 8.657520
17.096098 -16.692596 8.691556
17.077520 -16.346762 8.713623
17.093571 -15.984422 8.713964
17.133280 -15.598781 8.687826
17.163336 -15.210119 8.652716
17.166828 -14.848086 8.626445
17.162258 -14.506618 8.602282
17.118620 -14.185563 8.593628
17.093788 -13.874147 8.576515
17.063982 -13.571977 8.560610
17.009470 -13.276545 8.555355
16.911499 -12.987742 8.570670
16.811985 -12.697219 8.587194
16.739483 -12.396063 8.589038
16.670046 -12.083906 8.587436
16.601650 -11.756809 8.582687
16.537460 -11.410234 8.572339
16.464165 -11.042477 8.563280
16.386156 -10.661654 8.554288
16.294870 -10.307334 8.555320
16.217806 -9.973019 8.550122
16.131981 -9.658715 8.551244
16.040394 -9.360025 8.556286
15.977588 -9.063590 8.544202
15.923800 -8.769717 8.526123
15.860583 -8.478210 8.512069
15.791817 -8.183950 8.499082
15.709136 -7.884735 8.491084
15.618760 -7.574557 8.483733
15.533367 -7.245617 8.469455
15.433904 -6.898467 8.457866
15.328886 -6.527041 8.443672
15.220876 -6.162859 8.427013
15.103855 -5.824716 8.412303
15.009321 -5.500490 8.384879
14.936828 -5.186315 8.346164
14.825469 -4.894901 8.325788
14.723867 -4.609282 8.301276
14.623398 -4.328016 8.277488
14.538365 -4.043205 8.248955
14.454621 -3.755025 8.222940
14.370730 -3.460105 8.200767
14.284839 -3.155132 8.184060
14.199011 -2.835774 8.172642
14.111446 -2.498718 8.168060
14.024369 -2.139593 8.170221
13.920152 -1.764232 8.186900
13.880707 -1.391620 8.190710
13.844076 -1.042815 8.204710
13.773463 -0.722120 8.239668
13.672039 -0.423245 8.293110
13.637380 -0.120361 8.328888
13.603042 0.175702 8.369390
13.585292 0.472825 8.407637
13.565217 0.771393 8.448778
13.546888 1.076386 8.489937
13.476498 1.380937 8.547021
13.386101 1.695438 8.607334
13.294753 2.027689 8.664242
13.198656 2.381904 8.717109
13.088446 2.753290 8.768343
13.022699 3.116404 8.803392
12.977363 3.461353 8.830353
12.928984 3.787050 8.856372
12.862362 4.092670 8.885803
12.795198 4.388544 8.913643
12.698971 4.670010 8.948135
12.618976 4.955819 8.976178
12.524014 5.241163 9.007038
12.421363 5.533856 9.038870
12.312943 5.838912 9.071362
12.215837 6.166351 9.099253
12.132298 6.520866 9.121576
12.048615 6.899261 9.142838
12.002328 7.264733 9.150598
11.937841 7.597388 9.164993
11.825271 7.901776 9.199610
11.750575 8.200071 9.219438
11.693080 8.494019 9.230864
11.661018 8.791714 9.226781
11.612886 9.093588 9.226110
11.573903 9.412365 9.213363
11.526636 9.751656 9.196145
11.461687 10.118074 9.177935
11.373431 10.491008 9.163992
11.272636 10.826049 9.153868
11.168578 11.132783 9.142546
11.066484 11.422003 9.126765
10.965074 11.702675 9.107697
10.867408 11.985317 9.083336
10.767924 12.277404 9.058130
10.652731 12.583578 9.043259
10.531480 12.916368 9.031832
10.392507 13.276437 9.035695
10.268739 13.619291 9.050181
10.172192 13.938958 9.064392
10.098077 14.242290 9.071255
10.019987 14.533262 9.083424
9.935509 14.819736 9.093122
9.842186 15.115998 9.090779
9.732656 15.430345 9.072294
9.577832 15.766019 9.053203
9.360608 16.066227 9.063366
9.155035 16.317202 9.048084
8.906344 16.494658 9.071895
8.662133 16.675943 9.065228
8.399208 16.865143 9.051836
8.134874 17.112116 9.000120
7.875532 17.389208 8.934389
7.623103 17.611475 8.903415
7.373098 17.795853 8.895858
7.128278 17.970003 8.886345
6.872622 18.139458 8.876887
6.589499 18.311491 8.868791
6.267765 18.500063 8.852554
5.940615 18.679764 8.847855
5.641273 18.839842 8.851301
5.356678 18.977545 8.865568
5.082465 19.103281 8.876178
4.809637 19.226963 8.873795
4.527102 19.347713 8.860126
4.221567 19.469574 8.833638
3.879215 19.583467 8.801829
3.508343 19.688223 8.763268
3.159639 19.773336 8.723334
2.833997 19.849791 8.674636
2.519988 19.896906 8.637890
2.216945 19.937059 8.596889
1.917701 19.959427 8.563411
1.619565 19.987608 8.522202
1.317058 20.023706 8.475532
0.997503 20.028042 8.455492
0.660399 20.017332 8.452989
0.301477 20.003101 8.461912
-0.084445 19.987432 8.484281
-0.457609 19.980042 8.510977
-0.803573 19.973904 8.544089
-1.129261 19.973646 8.578261
-1.439436 19.970917 8.617582
-1.739081 19.959518 8.664865
-2.035549 19.949099 8.710642
-2.330237 19.920862 8.767866
-2.626136 19.869789 8.839474
-2.938624 19.829475 8.895619
-3.269278 19.784033 8.947076
-3.621406 19.726276 8.998121
-3.992664 19.638615 9.062778
-4.338313 19.535057 9.129500
-4.649752 19.428318 9.187980
-4.935684 19.317968 9.237807
-5.210289 19.207939 9.277472
-5.483698 19.091610 9.311212
-5.768507 18.976896 9.334453
-6.075990 18.861979 9.348254
-6.416159 18.748072 9.352033
-6.780571 18.618080 9.361408
-7.109310 18.484259 9.377729
-7.403787 18.352810 9.393483
-7.675558 18.216707 9.410437
-7.937192 18.069115 9.428748
-8.202594 17.907682 9.443980
-8.477955 17.714977 9.467937
-8.779822 17.491196 9.491330
-9.066107 17.264311 9.518928
-9.312366 17.049637 9.550515
-9.529811 16.836985 9.582366
-9.734744 16.618586 9.606626
-9.938202 16.383423 9.620631
-10.156289 16.123358 9.617963
-10.385500 15.820706 9.609636
-10.585270 15.524649 9.593884
-10.748820 15.250536 9.567932
-10.888422 14.985260 9.532594
-11.017448 14.712986 9.487805
-11.137238 14.412510 9.446639
-11.269076 14.068885 9.398960
-11.379963 13.707570 9.378022
-11.453433 13.364633 9.387952
-11.523380 13.045187 9.387576
-11.595951 12.744391 9.373122
-11.670347 12.453179 9.349658
-11.741233 12.164018 9.326571
-11.813272 11.870827 9.301599
-11.878868 11.565887 9.285043
-11.935085 11.242896 9.281157
-11.979403 10.895512 9.293190
-12.028593 10.519978 9.306597
-12.047634 10.138942 9.349768
-12.038085 9.789930 9.414041
-12.017484 9.464408 9.484359
-12.067330 9.160569 9.491302
-12.100961 8.862040 9.510986
-12.129660 8.564287 9.532725
-12.184456 8.260905 9.530844
-12.249914 7.949515 9.516455
-12.336256 7.622890 9.481406
-12.399688 7.271290 9.462073
-12.475627 6.893075 9.428295
-12.549186 6.526470 9.389509
-12.631848 6.186747 9.335808
-12.684843 5.859543 9.301598
-12.748976 5.550735 9.253151
-12.828433 5.259382 9.187562
-12.912790 4.977125 9.115127
-12.994810 4.698866 9.043442
-13.067920 4.415946 8.979858
-13.114991 4.118927 8.940946
-13.153891 3.808859 8.912697
-13.204946 3.489909 8.877427
-13.253784 3.152544 8.849701
-13.303384 2.794629 8.827568
-13.359080 2.413759 8.807178
-13.416714 2.032041 8.786654
-13.479050 1.675599 8.758064
-13.543292 1.339930 8.725151
-13.621690 1.025751 8.679719
-13.713478 0.728793 8.624903
-13.785884 0.434438 8.586340
-13.884610 0.154276 8.532173
-13.941316 -0.138242 8.509672
-13.990270 -0.435254 8.494751
-14.051419 -0.733740 8.475400
-14.124620 -1.037535 8.453964
-14.204386 -1.352130 8.434125
-14.318167 -1.672268 8.402618
-14.460947 -2.003295 8.363358
-14.607859 -2.357017 8.330053
-14.756195 -2.713599 8.303555
-14.880295 -3.052740 8.296501
-14.996685 -3.373008 8.298308
-15.108425 -3.677546 8.307318
-15.208519 -3.972787 8.326399
-15.300560 -4.261544 8.353749
-15.432456 -4.532495 8.356182
-15.559169 -4.804261 8.360913
-15.693987 -5.076806 8.357141
-15.801815 -5.364763 8.372589
-15.893023 -5.669097 8.400926
-15.980845 -5.990334 8.433453
-16.026199 -6.345297 8.507985
-16.136101 -6.703117 8.519867
-16.294706 -7.059488 8.475661
-16.419104 -7.403090 8.456522
-16.516293 -7.732730 8.457327
-16.587831 -8.054023 8.478050
-16.669060 -8.357055 8.479755
-16.751226 -8.650012 8.473007
-16.845787 -8.932130 8.445762
-16.953915 -9.207810 8.398298
-17.059250 -9.489185 8.350203
-17.160742 -9.781478 8.303416
-17.252712 -10.091864 8.264796
-17.342670 -10.421891 8.227040
-17.422729 -10.778906 8.198742
-17.528236 -11.149991 8.144506
-17.612928 -11.507950 8.100429
-17.686525 -11.843057 8.056080
-17.746048 -12.161747 8.016133
-17.780169 -12.471891 7.992040
-17.816462 -12.771033 7.960364
-17.861212 -13.063065 7.917805
-17.893333 -13.358703 7.884287
-17.953663 -13.652948 7.827360
-18.033966 -13.953010 7.756510
-18.065044 -14.281142 7.728249
-18.062708 -14.639755 7.729925
-18.144716 -15.003052 7.671354
-18.217154 -15.381060 7.617593
-18.222185 -15.753957 7.598494
-18.210640 -16.110720 7.582001
-18.184475 -16.455708 7.572807
-18.199959 -16.777210 7.525373
-18.230785 -17.085495 7.465034
-18.273689 -17.385746 7.401218
-18.382513 -17.662851 7.277223
-18.429094 -17.962769 7.241946
-18.484730 -18.266977 7.223564
-18.589972 -18.565680 7.183617
-18.728449 -18.868717 7.145307
-18.909760 -19.177498 7.104105
-19.075136 -19.516304 7.142084
-19.270914 -19.850821 7.182910
-19.468809 -20.167360 7.232999
-19.726318 -20.454782 7.241210
-19.937788 -20.732967 7.312335
-20.170212 -20.989515 7.388618
-20.353571 -21.235985 7.517116
-20.461826 -21.486946 7.702166
-20.509518 -21.753517 7.919425
-20.525696 -22.038607 8.139612
-20.662615 -22.281748 8.292015
-20.814974 -22.519739 8.434913
-20.989508 -22.754143 8.568019
-21.188055 -22.976252 8.686015
-21.415760 -23.191786 8.790753
-21.665075 -23.401651 8.882273
-21.939812 -23.596392 8.951833
-22.256649 -23.766851 8.999563
-22.592352 -23.933077 9.027903
-22.959400 -24.077843 9.030290
-23.279703 -24.220673 8.997750
-23.572781 -24.353895 8.927343
-23.864910 -24.387878 8.809282
