-22.455515 -21.916986 12.834164
-22.684338 -21.900944 13.037752
-22.927614 -21.863123 13.222299
-23.187637 -21.809999 13.395718
-23.456135 -21.763632 13.571522
-23.745737 -21.706511 13.743609
-24.055988 -21.634806 13.905035
-24.390116 -21.552074 14.059156
-24.743862 -21.456455 14.197696
-25.091444 -21.350376 14.300879
-25.426517 -21.235720 14.367986
-25.751165 -21.119936 14.407338
-26.066080 -21.001230 14.415958
-26.372038 -20.867306 14.382347
-26.666424 -20.714643 14.304537
-26.924109 -20.529198 14.172846
-27.128075 -20.292614 13.981646
-27.323132 -20.050535 13.758354
-27.502880 -19.810696 13.512691
-27.676176 -19.595745 13.266745
-27.828211 -19.393829 13.016724
-27.958899 -19.203091 12.763513
-28.072809 -19.022242 12.507646
-28.175457 -18.852015 12.251922
-28.269056 -18.689381 11.994684
-28.351976 -18.531818 11.738444
-28.423836 -18.376291 11.481987
-28.469934 -18.213772 11.223297
-28.505600 -18.050194 10.967282
-28.494316 -17.869444 10.708727
-28.457294 -17.681963 10.453146
-28.372343 -17.475067 10.195137
-28.271967 -17.267387 9.936206
-28.141792 -17.042404 9.675954
-28.178003 -16.843159 9.413016
-28.310148 -16.634050 9.162708
-28.528025 -16.414106 8.925237
-28.951414 -16.184462 8.731227
-29.270023 -15.909121 8.546209
-29.419168 -15.596763 8.382209
-29.446705 -15.283223 8.268252
-29.437880 -14.971845 8.211934
-29.412094 -14.660928 8.202931
-29.388144 -14.347677 8.236505
-29.352613 -14.029640 8.294814
-29.294216 -13.703490 8.360118
-29.301006 -13.361724 8.444695
-29.272186 -13.004924 8.503694
-29.213707 -12.632714 8.525872
-29.121157 -12.251952 8.503678
-29.032675 -11.886035 8.476255
-28.954678 -11.536654 8.450858
-28.866499 -11.204889 8.421920
-28.751858 -10.892980 8.385369
-28.689457 -10.581373 8.362561
-28.649710 -10.274616 8.345405
-28.638470 -9.967278 8.335274
-28.587608 -9.672297 8.314690
-28.526918 -9.382054 8.291762
-28.464825 -9.091239 8.268805
-28.405922 -8.797133 8.247185
-28.343916 -8.498284 8.225491
-28.281622 -8.192030 8.204620
-28.210032 -7.878520 8.182563
-28.152843 -7.548183 8.165437
-28.075745 -7.209231 8.144909
-27.945030 -6.870810 8.112744
-27.804554 -6.516633 8.079833
-27.651205 -6.157092 8.045644
-27.481112 -5.823368 8.009179
-27.318678 -5.505573 7.976429
-27.148178 -5.209116 7.942171
-27.005327 -4.916667 7.916769
-26.882629 -4.625702 7.897705
-26.777775 -4.337436 7.885202
-26.678680 -4.051192 7.875417
-26.569149 -3.773982 7.862806
-26.430260 -3.510496 7.840029
-26.296093 -3.244537 7.818281
-26.164310 -2.974093 7.796466
-26.057835 -2.686442 7.783926
-25.945641 -2.393253 7.768056
-25.902275 -2.060546 7.779838
-25.751081 -1.762491 7.745919
-25.687698 -1.413124 7.747327
-25.595461 -1.059536 7.734815
-25.508072 -0.686129 7.722206
-25.407663 -0.307229 7.701190
-25.309937 0.053961 7.678041
-25.231098 0.402900 7.659943
-25.147232 0.733641 7.636790
-25.078005 1.056335 7.617231
-24.997456 1.363560 7.590316
-24.908321 1.659644 7.557265
-24.821354 1.949966 7.523339
-24.731670 2.235135 7.486616
-24.656761 2.523484 7.455114
-24.578932 2.810599 7.421336
-24.474581 3.091629 7.375143
-24.374157 3.378343 7.330336
-24.256927 3.664290 7.278149
-24.140781 3.959911 7.226639
-24.018290 4.263515 7.172844
-23.885712 4.576787 7.115422
-23.748009 4.903944 7.056702
-23.597569 5.244266 6.993713
-23.444450 5.597908 6.930370
-23.296907 5.931882 6.867707
-23.142168 6.237159 6.800464
-22.970181 6.510085 6.725188
-22.814257 6.776686 6.655426
-22.667032 7.037999 6.588282
-22.532572 7.302554 6.525236
-22.401941 7.568775 6.463052
-22.255161 7.823779 6.395166
-22.092293 8.072250 6.322157
-21.913919 8.318688 6.244861
-21.717731 8.565658 6.162782
-21.513929 8.827486 6.079542
-21.294409 9.101724 5.992552
-21.065388 9.399107 5.903861
-20.841005 9.699137 5.819123
-20.633564 9.983576 5.742727
-20.454035 10.264404 5.678673
-20.293268 10.539970 5.624426
-20.154467 10.817238 5.582772
-20.029726 11.095550 5.551680
-19.890350 11.358345 5.514971
-19.727430 11.603101 5.464324
-19.570730 11.856477 5.417860
-19.392941 12.102058 5.356251
-19.190592 12.340147 5.275461
-18.982071 12.590404 5.190154
-18.785950 12.873892 5.116889
-18.611065 13.205317 5.063323
-18.418949 13.537642 4.994470
-18.241856 13.851586 4.926001
-18.072645 14.142971 4.852045
-17.891119 14.398865 4.764852
-17.703550 14.632461 4.673886
-17.507261 14.848272 4.584291
-17.317238 15.064787 4.501135
-17.130428 15.285432 4.419063
-16.935659 15.507692 4.335919
-16.724028 15.731602 4.250611
-16.520378 15.976314 4.165760
-16.321379 16.242195 4.080317
-16.148884 16.544386 3.996115
-16.008522 16.888733 3.913325
-15.823572 17.202662 3.822216
-15.651601 17.499805 3.728926
-15.527450 17.799007 3.638079
-15.388269 18.079357 3.546572
-15.228610 18.340466 3.455311
-15.072069 18.596161 3.367959
-14.905413 18.844141 3.285023
-14.718195 19.078798 3.206399
-14.525829 19.310713 3.135108
-14.326365 19.546677 3.074775
-14.088982 19.763933 3.018375
-13.880170 20.029467 2.985122
-13.635562 20.292721 2.962126
-13.327735 20.528603 2.940916
-13.000557 20.712620 2.934301
-12.721882 20.902840 2.965204
-12.447939 21.049704 3.015462
-12.199920 21.216457 3.088772
-11.955523 21.374872 3.176209
-11.700830 21.516363 3.273677
-11.435450 21.645504 3.378039
-11.159848 21.773870 3.487523
-10.863948 21.891695 3.596204
-10.565866 22.052021 3.710377
-10.241055 22.217937 3.818832
-9.909838 22.370007 3.919684
-9.607636 22.506910 4.017780
-9.344620 22.663666 4.119931
-9.124298 22.853155 4.228621
-8.911554 23.039583 4.336889
-8.702859 23.234318 4.446930
-8.474025 23.420980 4.555557
-8.214388 23.602606 4.663340
-7.900850 23.756197 4.766321
-7.546028 23.885258 4.860785
-7.228137 24.018606 4.949916
-6.937760 24.144621 5.030128
-6.680215 24.298079 5.109223
-6.419362 24.427603 5.179139
-6.150697 24.544882 5.243615
-5.864002 24.646631 5.303461
-5.555609 24.745302 5.362566
-5.218615 24.852154 5.424574
-4.849771 24.945704 5.484857
-4.503703 24.999384 5.528547
-4.186905 25.056126 5.564547
-3.884357 25.093109 5.590981
-3.587772 25.139954 5.616157
-3.285466 25.172693 5.638536
-2.967006 25.186544 5.661325
-2.624092 25.210892 5.689375
-2.238496 25.197096 5.708517
-1.866056 25.192757 5.735894
-1.529752 25.211926 5.777414
-1.223703 25.254868 5.829454
-0.934199 25.309954 5.879684
-0.645948 25.371113 5.924511
-0.347888 25.424099 5.961823
-0.023651 25.495213 5.994530
0.338564 25.578915 6.019349
0.716214 25.631912 6.025121
1.051384 25.600540 6.001424
1.353227 25.514957 5.956978
1.645677 25.466497 5.912419
1.938473 25.405586 5.860983
2.252468 25.360384 5.811032
2.599978 25.323042 5.763914
2.986527 25.319067 5.728744
3.344764 25.335011 5.710833
3.671402 25.323677 5.696309
3.980329 25.298855 5.681156
4.285592 25.255465 5.657681
4.584623 25.168583 5.614339
4.886040 25.016960 5.540294
5.206089 24.848915 5.438244
5.512872 24.660587 5.310538
5.735956 24.418810 5.162128
5.932652 24.209156 5.012839
6.132992 24.056744 4.870759
6.398716 23.977278 4.742109
6.693254 23.904083 4.617143
6.953201 23.764204 4.486643
7.197316 23.569496 4.357799
7.431879 23.312315 4.217741
7.692498 23.051493 4.088725
7.931746 22.803236 3.975592
8.165592 22.578157 3.883579
8.362370 22.327070 3.792196
8.552712 22.079666 3.706426
8.756180 21.851654 3.631594
8.993917 21.669006 3.572226
9.267357 21.525185 3.526539
9.557736 21.386644 3.487493
9.862291 21.240902 3.452145
10.238718 21.161167 3.434207
10.698321 21.162958 3.436006
11.088000 21.086323 3.422494
11.432497 20.977297 3.401962
11.734155 20.835661 3.375396
12.023000 20.689787 3.349346
12.289008 20.522606 3.321525
12.550650 20.356609 3.297336
12.800387 20.176552 3.274850
13.042740 19.984486 3.255497
13.289898 19.803905 3.244877
13.532571 19.609676 3.239134
13.792929 19.433556 3.245473
14.056883 19.246159 3.258332
14.338408 19.058756 3.281151
14.637339 18.858488 3.315485
14.942900 18.627378 3.357804
15.189256 18.341801 3.393154
15.394988 18.064280 3.435453
15.566165 17.788681 3.485259
15.699544 17.513103 3.537789
15.804635 17.235567 3.597320
15.890347 16.950069 3.664296
15.981710 16.672138 3.744888
16.045269 16.370541 3.830354
16.160221 16.081202 3.933685
16.342087 15.818374 4.035985
16.636889 15.594592 4.145600
16.971825 15.382600 4.262374
17.310844 15.159131 4.379993
17.609934 14.943155 4.492179
17.879684 14.740111 4.599577
18.117069 14.542918 4.702326
18.305798 14.323124 4.796421
18.479437 14.102421 4.887578
18.632366 13.864296 4.974119
18.782177 13.616508 5.060940
18.931070 13.355435 5.150712
19.083010 13.076542 5.236730
19.246952 12.784256 5.321894
19.427258 12.476781 5.407747
19.607721 12.137970 5.489755
19.787081 11.824668 5.567781
19.963892 11.544708 5.642508
20.144926 11.292768 5.716586
20.323503 11.055600 5.787498
20.493971 10.819352 5.852926
20.658188 10.577455 5.913941
20.828331 10.331094 5.974585
21.005341 10.072734 6.035467
21.190479 9.795336 6.097432
21.392338 9.497025 6.163399
21.601658 9.175815 6.231229
21.807943 8.874193 6.297014
22.002747 8.588637 6.358482
22.194515 8.321461 6.417816
22.383051 8.068485 6.475023
22.562702 7.821396 6.528765
22.736238 7.578277 6.579788
22.905540 7.336354 6.628622
23.068060 7.090058 6.674644
23.227922 6.838308 6.718923
23.370470 6.567529 6.757523
23.523590 6.293546 6.797879
23.688904 6.012716 6.840590
23.868660 5.721037 6.886508
24.053507 5.409238 6.933125
24.235966 5.069896 6.978252
24.405266 4.730139 7.018909
24.560749 4.404967 7.055048
24.708178 4.094385 7.088465
24.855289 3.798813 7.121663
25.001217 3.515007 7.154456
25.142313 3.237696 7.185692
25.269377 2.961693 7.212350
25.391783 2.687294 7.237399
25.494936 2.407648 7.255857
25.591543 2.124370 7.271742
25.695480 1.840934 7.289886
25.782078 1.544499 7.301199
25.869835 1.239806 7.311977
25.963802 0.925399 7.323807
26.070719 0.601796 7.339183
26.191305 0.266340 7.358314
26.330420 -0.081217 7.383262
26.507210 -0.429080 7.422655
26.690063 -0.759490 7.460445
26.847223 -1.083809 7.481991
26.996191 -1.396517 7.495396
27.154015 -1.690458 7.511759
27.334944 -1.960594 7.541711
27.498449 -2.229709 7.563066
27.647898 -2.499073 7.577308
27.796572 -2.763303 7.594198
27.946917 -3.023517 7.616409
28.100742 -3.280695 7.647942
28.242695 -3.545336 7.675592
28.375486 -3.817967 7.704362
28.491678 -4.105196 7.724519
28.586800 -4.411599 7.733494
28.681414 -4.728204 7.749999
28.778419 -5.055643 7.778812
28.896626 -5.384954 7.842120
28.994781 -5.742227 7.897494
29.064772 -6.131427 7.938114
29.198883 -6.470012 8.059358
29.275166 -6.822078 8.129804
29.365416 -7.147530 8.225926
29.451799 -7.458754 8.328067
29.525938 -7.762568 8.426584
29.594755 -8.056807 8.528425
29.654215 -8.345775 8.628664
29.701624 -8.633003 8.723899
29.744774 -8.915775 8.822008
29.788424 -9.193137 8.927732
29.812424 -9.479010 9.019038
29.834356 -9.764765 9.114620
29.846205 -10.056880 9.205575
29.862677 -10.348744 9.306964
29.907032 -10.628382 9.440937
29.914762 -10.935641 9.543290
29.950106 -11.234678 9.676404
29.995741 -11.538175 9.822480
30.075733 -11.834759 10.001539
30.146025 -12.150640 10.172788
30.266409 -12.456269 10.386201
30.332441 -12.805518 10.552486
30.363209 -13.163768 10.682673
30.390997 -13.509311 10.804255
30.464983 -13.818769 10.953053
30.582096 -14.095321 11.121929
30.688353 -14.368297 11.276331
30.773750 -14.643192 11.414458
30.820635 -14.927956 11.533407
30.902542 -15.191263 11.669496
30.919191 -15.475060 11.783935
30.978445 -15.738089 11.919447
30.936642 -16.029902 12.033568
30.974279 -16.292759 12.178527
30.989717 -16.560652 12.327191
31.019911 -16.828955 12.488536
31.059464 -17.099937 12.661348
31.119057 -17.378748 12.848930
31.162708 -17.671400 13.047050
31.097107 -17.979044 13.242970
31.041348 -18.296646 13.457243
30.996555 -18.603071 13.683086
30.918076 -18.875530 13.904908
30.825579 -19.118504 14.124804
30.727940 -19.338724 14.344820
30.638031 -19.541935 14.567370
30.548199 -19.734104 14.793697
30.468208 -19.921261 15.027307
30.390734 -20.108160 15.269450
30.317875 -20.298058 15.520219
30.185200 -20.482594 15.750670
30.022963 -20.668514 15.965692
29.828211 -20.864031 16.166075
29.619259 -21.073179 16.357073
29.377518 -21.300756 16.526699
29.085804 -21.542048 16.658653
28.766895 -21.778149 16.745279
28.482880 -21.998838 16.815344
28.236761 -22.216492 16.888550
28.031816 -22.413368 16.953903
27.839153 -22.627104 17.023104
27.651958 -22.813583 17.066402
27.468531 -23.031300 17.115734
27.240923 -23.282852 17.144756
26.975279 -23.536856 17.137068
26.653015 -23.756369 17.066704
26.318933 -23.896149 16.946232
25.991148 -23.992729 16.805223
25.676331 -24.070892 16.658674
25.380539 -24.141056 16.513266
25.096603 -24.180107 16.348625
24.838486 -24.190857 16.175215
24.606575 -24.176889 15.990347
24.376957 -24.164852 15.792156
24.167891 -24.171322 15.600835
23.934027 -24.215645 15.382115
23.698019 -24.265169 15.143425
23.446331 -24.310577 14.854704
23.203205 -24.322245 14.526791
22.999016 -24.300558 14.195489
22.839201 -24.244581 13.866380
22.706793 -24.175924 13.535711
22.617668 -24.077139 13.211790
22.551188 -23.973568 12.887978
22.507957 -23.861990 12.570370
22.489815 -23.742743 12.261374
22.490335 -23.618708 11.957369
22.502140 -23.494509 11.659211
22.534903 -23.363441 11.366854
22.630028 -23.207268 11.081252
22.719162 -23.063482 10.795712
22.709805 -22.944508 10.507617
22.670792 -22.816277 10.218985
22.641747 -22.662060 9.932045
22.554762 -22.493143 9.653993
22.375900 -22.305054 9.391965
22.265524 -22.085285 9.138247
22.192764 -21.838182 8.884550
22.096540 -21.568710 8.640738
21.980095 -21.276751 8.406598
21.854481 -20.982222 8.207016
21.733507 -20.689327 8.045171
21.631931 -20.397415 7.911777
21.542423 -20.104410 7.806334
21.476217 -19.809879 7.720879
21.401682 -19.515186 7.661638
21.334650 -19.219080 7.621406
21.275263 -18.918396 7.594674
21.222170 -18.614172 7.580973
21.171968 -18.304914 7.575807
21.127104 -17.988541 7.576632
21.078764 -17.667229 7.582071
21.028849 -17.338873 7.588425
20.984064 -17.001305 7.589903
20.906044 -16.663378 7.596170
20.803839 -16.322296 7.600869
20.700165 -15.971253 7.592747
20.591434 -15.610186 7.569614
20.477222 -15.238573 7.528427
20.360123 -14.876688 7.482286
20.252853 -14.531854 7.435975
20.143095 -14.205188 7.393742
20.008945 -13.901119 7.363646
19.892290 -13.604150 7.329586
19.775278 -13.317365 7.297997
19.662724 -13.036243 7.266595
19.559475 -12.756499 7.233122
19.455177 -12.478848 7.201230
19.340437 -12.204382 7.174422
19.219273 -11.929149 7.150790
19.097677 -11.648144 7.127566
18.965176 -11.363044 7.108692
18.828295 -11.068495 7.091137
18.689766 -10.760726 7.073461
18.548433 -10.437501 7.055787
18.403118 -10.096646 7.038311
18.250076 -9.738456 7.022430
18.103239 -9.386108 7.007507
17.960463 -9.051687 6.996198
17.822176 -8.732769 6.987869
17.687216 -8.427186 6.982484
17.553020 -8.134126 6.980573
17.423531 -7.848801 6.980105
17.296070 -7.570558 6.981754
17.178343 -7.292540 6.982215
17.055353 -7.020119 6.986563
16.924414 -6.752485 6.994935
16.793297 -6.482915 7.004315
16.657427 -6.211430 7.015624
16.514585 -5.936711 7.029113
16.364105 -5.656371 7.044396
16.205780 -5.368244 7.061054
16.039009 -5.069716 7.078755
15.869392 -4.755742 7.095500
15.691722 -4.426236 7.112375
15.498681 -4.085529 7.131375
15.303066 -3.761146 7.152620
15.114536 -3.454783 7.174286
14.936167 -3.162480 7.195347
14.766180 -2.881013 7.216002
14.603086 -2.608913 7.236525
14.449394 -2.341147 7.255889
14.308363 -2.072997 7.273171
14.178440 -1.802201 7.288352
14.053671 -1.530471 7.303025
13.933102 -1.253652 7.316933
13.814229 -0.972709 7.330689
13.702598 -0.679821 7.342364
13.594401 -0.376810 7.352822
13.488398 -0.059422 7.361986
13.367865 0.267204 7.374258
13.268119 0.619502 7.379566
13.158937 0.989273 7.385963
13.068115 1.364872 7.386669
12.995052 1.720843 7.383243
12.918704 2.056572 7.381804
12.870076 2.381277 7.372725
12.788300 2.687479 7.375556
12.733734 2.989305 7.370661
12.687716 3.287121 7.363839
12.628974 3.580680 7.362686
12.578246 3.875500 7.359547
12.525062 4.172675 7.358084
12.486490 4.478629 7.350626
12.422960 4.787938 7.353696
12.352378 5.108282 7.359380
12.270535 5.439011 7.369257
12.162224 5.781340 7.389967
12.027221 6.134954 7.421265
11.865275 6.487948 7.464971
11.714150 6.805488 7.509282
11.575114 7.098250 7.551442
11.450477 7.374634 7.589250
11.328871 7.645472 7.626729
11.211432 7.917611 7.662637
11.098026 8.201468 7.696228
10.976184 8.498867 7.729337
10.849468 8.819845 7.758805
10.733554 9.179080 7.777672
10.622792 9.540928 7.784053
10.524862 9.870479 7.775838
10.434492 10.175848 7.757863
10.341147 10.465901 7.736695
10.239961 10.749387 7.717755
10.131019 11.034516 7.705007
10.000012 11.328460 7.706915
9.831620 11.629294 7.737304
9.638931 11.950333 7.790948
9.444762 12.247992 7.867734
9.247367 12.481432 7.972815
9.058340 12.686578 8.084714
8.887802 12.916243 8.186921
8.701222 13.153893 8.292761
8.520929 13.443923 8.374954
8.318929 13.764008 8.444434
8.156740 14.082562 8.478752
8.010605 14.378623 8.495899
7.852698 14.642270 8.523416
7.687832 14.892096 8.558280
7.519423 15.141473 8.591484
7.334404 15.388153 8.639228
7.130558 15.644930 8.692938
6.896255 15.908329 8.770235
6.633980 16.172331 8.876057
6.389046 16.396168 8.979173
6.156796 16.587717 9.060830
5.924631 16.766880 9.115386
5.676591 16.944387 9.146982
5.403151 17.131016 9.164236
5.091845 17.331032 9.186606
4.775046 17.507212 9.244194
4.489134 17.633102 9.319849
4.212225 17.731407 9.388998
3.919856 17.827036 9.426623
3.586727 17.938351 9.415446
3.223058 18.036507 9.418572
2.905493 18.079346 9.445774
2.607201 18.093130 9.482518
2.293697 18.104704 9.526200
1.930295 18.142597 9.564460
1.577112 18.199596 9.605897
1.264954 18.266634 9.626863
0.971366 18.330427 9.648302
0.673272 18.386568 9.665741
0.344996 18.423599 9.695163
-0.034271 18.435299 9.747347
-0.383411 18.447739 9.736770
-0.695663 18.450457 9.708071
-0.992307 18.443319 9.661077
-1.295116 18.424799 9.605656
-1.627420 18.393875 9.553794
-2.001078 18.353346 9.495045
-2.344373 18.311592 9.443827
-2.653910 18.262163 9.426906
-2.946513 18.206358 9.396247
-3.243307 18.142805 9.345583
-3.566641 18.056927 9.299263
-3.926467 17.950134 9.242843
-4.246852 17.852411 9.181723
-4.527693 17.757420 9.104553
-4.796671 17.638332 9.019816
-5.080046 17.474892 8.918854
-5.372687 17.261959 8.823245
-5.600900 17.043276 8.750265
-5.789983 16.823997 8.666580
-5.978328 16.595768 8.571820
-6.204172 16.355379 8.454770
-6.474868 16.120703 8.312046
-6.740703 15.930710 8.156089
-6.998081 15.773691 8.001618
-7.256630 15.650097 7.837005
-7.511034 15.519681 7.693529
-7.752880 15.356359 7.584456
-7.978604 15.131563 7.514550
-8.180644 14.878925 7.468223
-8.341140 14.554230 7.467996
-8.508258 14.239274 7.453337
-8.728827 13.937980 7.404350
-8.966491 13.639507 7.357181
-9.146236 13.330685 7.354066
-9.298155 13.030734 7.371892
-9.420752 12.738501 7.407180
-9.545868 12.455256 7.445959
-9.656749 12.174668 7.492921
-9.763561 11.892201 7.543313
-9.873998 11.608048 7.591492
-9.975192 11.315082 7.640913
-10.042305 11.000221 7.699679
-10.114412 10.669703 7.751760
-10.213157 10.321852 7.786658
-10.306656 9.942214 7.814914
-10.411821 9.585902 7.823594
-10.520038 9.262307 7.816750
-10.643622 8.968300 7.793299
-10.752520 8.683709 7.766523
-10.875534 8.414729 7.728460
-11.006110 8.147342 7.684426
-11.143591 7.874609 7.636024
-11.291646 7.584405 7.584037
-11.436425 7.258941 7.535640
-11.583510 6.900261 7.490392
-11.719042 6.549662 7.449198
-11.827619 6.210381 7.416653
-11.910324 5.882562 7.392580
-11.972119 5.563094 7.375477
-12.026556 5.254488 7.360209
-12.068800 4.951158 7.348993
-12.110397 4.653473 7.337238
-12.147088 4.357209 7.326944
-12.184409 4.060276 7.315876
-12.226983 3.760185 7.302237
-12.266689 3.452501 7.289656
-12.323152 3.137806 7.269707
-12.397974 2.814293 7.241684
-12.469529 2.473249 7.215410
-12.545808 2.113509 7.187548
-12.636708 1.736192 7.153724
-12.734118 1.370600 7.116186
-12.815705 1.019447 7.084466
-12.891521 0.683396 7.054010
-12.972345 0.363287 7.020211
-13.058911 0.057520 6.983081
-13.145148 -0.239113 6.945382
-13.232783 -0.528168 6.906641
-13.311908 -0.815626 6.870734
-13.406483 -1.095519 6.828840
-13.504133 -1.374494 6.785951
-13.595710 -1.659132 6.745360
-13.688738 -1.948785 6.704489
-13.785446 -2.245320 6.662762
-13.885994 -2.551181 6.620244
-14.001325 -2.864629 6.573635
-14.139295 -3.185295 6.520205
-14.287680 -3.520768 6.463860
-14.439618 -3.875505 6.406522
-14.586142 -4.226075 6.350873
-14.732646 -4.556414 6.294200
-14.877338 -4.869585 6.236397
-15.014220 -5.170388 6.179439
-15.133606 -5.465166 6.128268
-15.253611 -5.749218 6.074457
-15.363029 -6.029552 6.024336
-15.458491 -6.310669 5.981214
-15.544895 -6.592740 5.944188
-15.621484 -6.879817 5.915760
-15.697748 -7.169744 5.890736
-15.768184 -7.468754 5.875031
-15.842636 -7.774374 5.861633
-15.927280 -8.087001 5.845287
-16.015957 -8.411667 5.831751
-16.132090 -8.739361 5.796540
-16.256205 -9.082174 5.759006
-16.388954 -9.442316 5.718921
-16.553438 -9.783758 5.640841
-16.672096 -10.127531 5.608603
-16.796909 -10.448254 5.562687
-16.931479 -10.745399 5.499862
-17.079384 -11.018446 5.417977
-17.206690 -11.295947 5.359117
-17.324879 -11.572986 5.310341
-17.437714 -11.849829 5.268264
-17.545607 -12.128433 5.233376
-17.647863 -12.412980 5.207611
-17.736462 -12.707835 5.199204
-17.832384 -13.007946 5.190098
-17.953001 -13.302651 5.168412
-18.110535 -13.598812 5.127341
-18.290442 -13.914012 5.086250
-18.478840 -14.253293 5.054674
-18.642509 -14.608908 5.042923
-18.786945 -14.955546 5.028771
-18.918793 -15.291478 5.010382
-19.034374 -15.622322 4.995483
-19.129045 -15.945797 4.992701
-19.206532 -16.267893 5.006091
-19.261190 -16.581619 5.047770
-19.300306 -16.893343 5.117528
-19.341913 -17.196589 5.204105
-19.389612 -17.490681 5.301548
-19.438570 -17.780870 5.426587
-19.495010 -18.065138 5.570340
-19.553181 -18.345287 5.746982
-19.625977 -18.625095 5.944071
-19.714851 -18.907335 6.165821
-19.864988 -19.208311 6.372059
-20.013428 -19.493631 6.587281
-20.170683 -19.759584 6.798664
-20.386097 -20.026020 6.995122
-20.574522 -20.240557 7.226630
-20.782370 -20.429058 7.481368
-20.998043 -20.555738 7.763405
-21.131603 -20.629314 8.068657
-20.993948 -20.680195 8.418357
-20.561199 -20.837770 8.767995
-20.491957 -20.976757 9.063164
-20.519388 -21.097048 9.354076
-20.596798 -21.195227 9.647130
-20.700869 -21.277163 9.944607
-20.813902 -21.356153 10.246171
-20.927971 -21.447639 10.553407
-21.057484 -21.546288 10.867552
-21.199171 -21.661987 11.187863
-21.376850 -21.770014 11.513081
-21.585045 -21.846621 11.827355
-21.801596 -21.884241 12.111796
-22.019585 -21.903328 12.372442
-22.232552 -21.918409 12.611403
