-22.453516 -21.917177 12.832440
-22.682478 -21.901133 13.036165
-22.929134 -21.862791 13.223414
-23.185816 -21.810362 13.394545
-23.454453 -21.763943 13.570398
-23.744087 -21.706841 13.742701
-24.054411 -21.635197 13.904259
-24.388588 -21.552485 14.058524
-24.742476 -21.456860 14.197219
-25.090254 -21.350750 14.300582
-25.425514 -21.236069 14.367822
-25.750349 -21.120237 14.407284
-26.065470 -21.001524 14.415986
-26.371590 -20.867540 14.382442
-26.666105 -20.714798 14.304669
-26.923931 -20.529352 14.172952
-27.127985 -20.292709 13.981732
-27.323133 -20.050535 13.758354
-27.502953 -19.810604 13.512590
-27.676291 -19.595587 13.266566
-27.828384 -19.393593 13.016415
-27.959116 -19.202751 12.763059
-28.073034 -19.021875 12.507086
-28.175716 -18.851566 12.251239
-28.268930 -18.689608 11.995011
-28.352255 -18.531254 11.737514
-28.424124 -18.375658 11.480951
-28.470140 -18.213036 11.222147
-28.505774 -18.049358 10.965950
-28.494297 -17.868313 10.707298
-28.456982 -17.680817 10.451569
-28.373171 -17.476347 10.196972
-28.271069 -17.265734 9.934437
-28.142639 -17.042046 9.673135
-28.209988 -16.846497 9.413828
-28.318710 -16.634403 9.160668
-28.495115 -16.406965 8.919925
-28.956297 -16.182766 8.729704
-29.271820 -15.906302 8.544425
-29.419958 -15.593719 8.381021
-29.446703 -15.279923 8.267538
-29.437632 -14.968588 8.211551
-29.411879 -14.657510 8.203022
-29.387827 -14.344067 8.237141
-29.352081 -14.025764 8.295539
-29.293688 -13.699280 8.361017
-29.300968 -13.357263 8.445667
-29.271507 -12.999951 8.504232
-29.212610 -12.627623 8.525861
-29.119761 -12.246688 8.503263
-29.031635 -11.880823 8.475912
-28.953463 -11.531558 8.450467
-28.864607 -11.199944 8.421304
-28.750147 -10.888022 8.384823
-28.689070 -10.577085 8.362360
-28.649771 -10.269274 8.345301
-28.637918 -9.962053 8.335002
-28.586618 -9.667109 8.314303
-28.525784 -9.376767 8.291332
-28.463739 -9.085828 8.268410
-28.404793 -8.791494 8.246773
-28.342726 -8.492586 8.225093
-28.280371 -8.185892 8.204213
-28.207500 -7.872391 8.181863
-28.151720 -7.541260 8.165107
-28.073597 -7.202144 8.144396
-27.941988 -6.863479 8.111999
-27.801340 -6.508708 8.079100
-27.646896 -6.149513 8.044713
-27.477644 -5.815695 8.008464
-27.315294 -5.499278 7.975759
-27.143658 -5.202105 7.941278
-27.002804 -4.909012 7.916287
-26.879238 -4.618483 7.897231
-26.775169 -4.330012 7.884858
-26.675898 -4.043839 7.875166
-26.565842 -3.766891 7.862326
-26.426933 -3.503808 7.839495
-26.292059 -3.237557 7.817518
-26.160879 -2.966491 7.796024
-26.054323 -2.678836 7.783252
-25.946672 -2.383217 7.769483
-25.900396 -2.051382 7.779762
-25.748110 -1.753285 7.745617
-25.685448 -1.402973 7.747007
-25.592478 -1.048935 7.734334
-25.505264 -0.674556 7.721708
-25.404583 -0.295868 7.700493
-25.306980 0.064636 7.677269
-25.227671 0.413490 7.658947
-25.145018 0.744322 7.636123
-25.075279 1.066630 7.616434
-24.994844 1.373609 7.589337
-24.905338 1.669265 7.556219
-24.818333 1.959603 7.522104
-24.728544 2.245013 7.485323
-24.654245 2.533298 7.454041
-24.576368 2.821316 7.420187
-24.471220 3.101513 7.373653
-24.370287 3.388343 7.328605
-24.252430 3.674565 7.276151
-24.136528 3.970807 7.224762
-24.013412 4.275196 7.170714
-23.880629 4.588811 7.113238
-23.742481 4.916693 7.054368
-23.592260 5.258057 6.991510
-23.439419 5.611809 6.928255
-23.291553 5.944650 6.865394
-23.134968 6.248097 6.797319
-22.963634 6.520882 6.722253
-22.808296 6.787607 6.652663
-22.660717 7.048442 6.585337
-22.527380 7.313580 6.522669
-22.396425 7.579686 6.460353
-22.248631 7.834259 6.392042
-22.084736 8.082663 6.318778
-21.906240 8.329371 6.241423
-21.709013 8.577119 6.159078
-21.504642 8.838946 6.075754
-21.284340 9.114629 5.988554
-21.054787 9.412980 5.899806
-20.831459 9.712394 5.814902
-20.626875 9.997272 5.737741
-20.447470 10.276800 5.671330
-20.288658 10.552341 5.614813
-20.151812 10.829991 5.571014
-20.027081 11.107565 5.536927
-19.887993 11.370136 5.497715
-19.725082 11.614428 5.444968
-19.571793 11.870910 5.399939
-19.393845 12.116865 5.338613
-19.191170 12.356432 5.259651
-18.979267 12.606400 5.175705
-18.781725 12.892480 5.107844
-18.602373 13.223430 5.059578
-18.406122 13.553362 4.998848
-18.227938 13.866446 4.943025
-18.054888 14.154021 4.882138
-17.874243 14.412170 4.811868
-17.683310 14.644897 4.737456
-17.491192 14.867030 4.666733
-17.298460 15.085835 4.602077
-17.110830 15.312115 4.538858
-16.908854 15.538430 4.473832
-16.690676 15.770303 4.406615
-16.476326 16.024754 4.339022
-16.278179 16.311493 4.271496
-16.141586 16.657215 4.207743
-15.959705 16.984816 4.135605
-15.787901 17.291809 4.060519
-15.671510 17.601511 3.987832
-15.533268 17.887939 3.913278
-15.387672 18.160038 3.839365
-15.229922 18.419405 3.767183
-15.071096 18.674643 3.699202
-14.890581 18.916769 3.634442
-14.702968 19.155283 3.575524
-14.504352 19.394424 3.524153
-14.286865 19.633663 3.478974
-14.101211 19.924940 3.458365
-13.848771 20.191107 3.438713
-13.542685 20.432947 3.422431
-13.229971 20.620481 3.417824
-12.975365 20.837252 3.446659
-12.699190 20.985361 3.479660
-12.464388 21.181608 3.535026
-12.217643 21.349739 3.597675
-11.955441 21.490641 3.665018
-11.685532 21.627234 3.738764
-11.402377 21.756521 3.815577
-11.100203 21.879124 3.892822
-10.794462 22.038506 3.976196
-10.459215 22.196972 4.055624
-10.113767 22.342300 4.129732
-9.795603 22.469307 4.201831
-9.504995 22.595533 4.275562
-9.266995 22.775764 4.361763
-9.033371 22.946451 4.448268
-8.810986 23.133194 4.540245
-8.569355 23.304874 4.631834
-8.312680 23.484566 4.727721
-8.018171 23.650448 4.824771
-7.663160 23.775753 4.914594
-7.327238 23.903368 5.004824
-7.028073 24.029844 5.093678
-6.763073 24.171944 5.182168
-6.506841 24.307138 5.267139
-6.246448 24.429863 5.347750
-5.969982 24.538416 5.423912
-5.668978 24.633369 5.495984
-5.345210 24.755232 5.572071
-4.982168 24.861500 5.643120
-4.635767 24.924381 5.694527
-4.322077 24.994537 5.736512
-4.022269 25.042139 5.766534
-3.729053 25.106714 5.795544
-3.425361 25.144653 5.819646
-3.102132 25.172117 5.844807
-2.747137 25.202391 5.873927
-2.356438 25.189358 5.893484
-2.000520 25.195734 5.925313
-1.677693 25.221567 5.969071
-1.381219 25.276119 6.021826
-1.092943 25.326059 6.064007
-0.797023 25.373173 6.100314
-0.485896 25.427713 6.130505
-0.139337 25.491302 6.152638
0.245301 25.541332 6.159766
0.595912 25.518188 6.138184
0.903800 25.431398 6.092528
1.190617 25.348528 6.039310
1.479806 25.288029 5.985491
1.781439 25.222374 5.929100
2.112623 25.163893 5.875910
2.490122 25.141890 5.835069
2.863184 25.152723 5.813976
3.200225 25.151037 5.802999
3.514038 25.132034 5.794614
3.817709 25.106667 5.784350
4.122647 25.056557 5.762035
4.428132 24.949102 5.714734
4.738126 24.796537 5.638227
5.079295 24.649788 5.536643
5.369836 24.449501 5.407386
5.599423 24.230879 5.264210
5.809705 24.057180 5.122808
6.044711 23.942173 4.989236
6.331936 23.893818 4.868427
6.627718 23.824102 4.746641
6.894012 23.686129 4.623527
7.143512 23.483255 4.493797
7.404543 23.232016 4.358910
7.674294 22.985596 4.237639
7.930323 22.760170 4.135455
8.170255 22.540939 4.051566
8.380502 22.300234 3.963468
8.587881 22.066528 3.884265
8.810823 21.862143 3.817819
9.068529 21.713558 3.768805
9.351666 21.590832 3.730928
9.650045 21.471914 3.699430
9.967160 21.341108 3.670787
10.386776 21.324095 3.668957
10.838778 21.312260 3.671661
11.218952 21.226320 3.660233
11.553367 21.110895 3.643639
11.855414 20.968292 3.623082
12.132822 20.809248 3.601405
12.393517 20.637077 3.580007
12.642522 20.454451 3.560162
12.880189 20.257481 3.541870
13.109723 20.053204 3.527251
13.344564 19.852427 3.519163
13.578538 19.644140 3.516225
13.825501 19.441130 3.521619
14.087816 19.238514 3.534238
14.366197 19.030018 3.555434
14.653199 18.797762 3.582558
14.934627 18.530525 3.611220
15.156073 18.237827 3.634187
15.342044 17.950996 3.661993
15.501821 17.677073 3.696442
15.626778 17.399155 3.734808
15.731114 17.115446 3.778547
15.823075 16.833574 3.832078
15.916877 16.547552 3.895958
15.999244 16.244400 3.967978
16.150158 15.970461 4.044819
16.367819 15.709938 4.125437
16.702940 15.509152 4.224617
17.058659 15.299105 4.329308
17.397589 15.081104 4.435554
17.700605 14.879714 4.539754
17.951145 14.673409 4.638595
18.176079 14.470228 4.734813
18.360748 14.252318 4.826083
18.528910 14.026090 4.914814
18.679811 13.783979 5.000677
18.829178 13.531942 5.090650
18.981750 13.266183 5.180333
19.136084 12.981475 5.266487
19.306095 12.685786 5.351803
19.486029 12.364779 5.435565
19.666088 12.026933 5.514462
19.846127 11.726893 5.590819
20.025696 11.457670 5.665276
20.206781 11.212804 5.738573
20.382885 10.976877 5.807825
20.550362 10.738670 5.871901
20.715454 10.495474 5.932922
20.887447 10.245544 5.994056
21.067598 9.981871 6.055867
21.256763 9.697062 6.119072
21.465084 9.390234 6.186899
21.672794 9.071401 6.253999
21.875412 8.775646 6.318376
22.068928 8.496408 6.379053
22.257397 8.232646 6.437109
22.444834 7.983469 6.493616
22.623751 7.739056 6.546768
22.794230 7.495368 6.596632
22.962852 7.253520 6.644932
23.122765 7.004277 6.689910
23.275822 6.745680 6.732031
23.420736 6.473314 6.770875
23.574938 6.195429 6.811146
23.751770 5.915064 6.856762
23.932806 5.616661 6.902784
24.115120 5.294161 6.948390
24.297392 4.951312 6.993220
24.460911 4.616160 7.032009
24.611080 4.294999 7.066411
24.759638 3.990429 7.100122
24.906414 3.699281 7.133195
25.051781 3.418169 7.165794
25.187193 3.141509 7.195207
25.311556 2.865306 7.220906
25.427727 2.589297 7.243840
25.528889 2.308789 7.261503
25.627831 2.025601 7.278098
25.726446 1.738022 7.294160
25.812737 1.438701 7.305060
25.902716 1.130603 7.316233
25.998001 0.811973 7.328047
26.110733 0.484636 7.345116
26.236671 0.144511 7.365754
26.387005 -0.205930 7.394855
26.575178 -0.546617 7.438019
26.746086 -0.876064 7.468742
26.902157 -1.195485 7.488129
27.053349 -1.501741 7.501986
27.219542 -1.787222 7.522914
27.394077 -2.056792 7.549684
27.552963 -2.325896 7.568694
27.702297 -2.593070 7.583913
27.848539 -2.857401 7.600200
28.002483 -3.115179 7.627476
28.151276 -3.375364 7.656879
28.292757 -3.641234 7.687333
28.418802 -3.919406 7.712359
28.532217 -4.210801 7.732437
28.613508 -4.528357 7.731365
28.708868 -4.848934 7.751145
28.815208 -5.175965 7.794212
28.931973 -5.512031 7.860288
29.018957 -5.882287 7.909475
29.120596 -6.252244 7.988452
29.226566 -6.599821 8.083723
29.311495 -6.940089 8.167339
29.401533 -7.259652 8.267015
29.475153 -7.572990 8.358870
29.554905 -7.868794 8.466885
29.615204 -8.164062 8.562676
29.674738 -8.449650 8.665989
29.716320 -8.737710 8.757754
29.761070 -9.017589 8.860252
29.799850 -9.296549 8.963235
29.819572 -9.584460 9.052421
29.842911 -9.869430 9.151791
29.847639 -10.166546 9.237505
29.880526 -10.450241 9.357410
29.919237 -10.735426 9.487185
29.921188 -11.048833 9.585728
29.969078 -11.344362 9.732005
30.018997 -11.649830 9.882957
30.122303 -11.938655 10.082782
30.164246 -12.276073 10.229865
30.306860 -12.576607 10.461311
30.344120 -12.940180 10.601974
30.381691 -13.289871 10.734484
30.407896 -13.631418 10.853183
30.512747 -13.921042 11.019737
30.625078 -14.196647 11.182310
30.723722 -14.470347 11.330157
30.799555 -14.747046 11.462590
30.837473 -15.033048 11.578462
30.912367 -15.297240 11.712862
30.963705 -15.566099 11.841639
30.948915 -15.853149 11.956697
30.956572 -16.127357 12.088756
30.988632 -16.391878 12.235315
31.019840 -16.658514 12.391085
31.033821 -16.930725 12.552420
31.072886 -17.204979 12.729409
31.133755 -17.488041 12.921926
31.158426 -17.786650 13.122767
31.069048 -18.098282 13.321270
31.024555 -18.417091 13.542809
30.966524 -18.710228 13.767279
30.887484 -18.971706 13.989628
30.788094 -19.204603 14.208340
30.693609 -19.418148 14.429690
30.603720 -19.616383 14.653311
30.516882 -19.806044 14.882131
30.437878 -19.992449 15.118693
30.363350 -20.180931 15.365490
30.271570 -20.368631 15.609984
30.124245 -20.553381 15.834376
29.949194 -20.741541 16.043110
29.750963 -20.943382 16.241756
29.533445 -21.159334 16.427805
29.270060 -21.391806 16.581902
28.962248 -21.635180 16.696026
28.647694 -21.865173 16.771269
28.380915 -22.080667 16.839838
28.152969 -22.298111 16.916643
27.958176 -22.492737 16.981375
27.781601 -22.686199 17.039785
27.581282 -22.901363 17.089867
27.387230 -23.128880 17.133337
27.142841 -23.381998 17.146641
26.854134 -23.633501 17.118681
26.521862 -23.816269 17.022085
26.188808 -23.935743 16.891146
25.866320 -24.025106 16.748432
25.556953 -24.095919 16.599007
25.267839 -24.162907 16.452942
24.998459 -24.188190 16.285736
24.741297 -24.183735 16.099463
24.516573 -24.170176 15.914417
24.290560 -24.165834 15.713476
24.079599 -24.180424 15.517697
23.850424 -24.233774 15.299700
23.595642 -24.291201 15.034846
23.341942 -24.325550 14.726329
23.115610 -24.320442 14.396277
22.929455 -24.283859 14.064254
22.783712 -24.217724 13.736089
22.669125 -24.136805 13.405835
22.589275 -24.034435 13.079678
22.529118 -23.932316 12.761393
22.497734 -23.815466 12.446112
22.489891 -23.692152 12.139377
22.492128 -23.570276 11.837356
22.512899 -23.442789 11.542007
22.554138 -23.308628 11.250455
22.685101 -23.141800 10.967810
22.731085 -23.012436 10.680250
22.685591 -22.898355 10.391784
22.679394 -22.752518 10.104230
22.622004 -22.595720 9.817667
22.493078 -22.419149 9.546876
22.316151 -22.220547 9.290047
22.237307 -21.987480 9.034494
22.156836 -21.731833 8.784590
22.046768 -21.453045 8.545068
21.930775 -21.156511 8.320351
21.803221 -20.863087 8.137525
21.690727 -20.570349 7.986990
21.592270 -20.278227 7.866672
21.518637 -19.983738 7.766442
21.445063 -19.689718 7.694602
21.372740 -19.395393 7.642881
21.309736 -19.096487 7.609047
21.253073 -18.794939 7.587787
21.201071 -18.487770 7.577983
21.153547 -18.175756 7.575603
21.108173 -17.856968 7.578261
21.057941 -17.533140 7.584939
21.010477 -17.200903 7.589604
20.955826 -16.862129 7.592148
20.865570 -16.523371 7.598887
20.761978 -16.178368 7.598990
20.656563 -15.823045 7.584942
20.546152 -15.457253 7.554420
20.429634 -15.085773 7.508528
20.316801 -14.731084 7.462254
20.207132 -14.394301 7.418133
20.091990 -14.075647 7.379119
19.960896 -13.776028 7.348987
19.843546 -13.483707 7.316185
19.727070 -13.199854 7.285189
19.619572 -12.919189 7.252499
19.516548 -12.640154 7.219404
19.408409 -12.363810 7.189432
19.289490 -12.089771 7.164562
19.169361 -11.811832 7.140622
19.043694 -11.529061 7.119021
18.908026 -11.240699 7.101255
18.769495 -10.941192 7.084044
18.630913 -10.626577 7.065918
18.487865 -10.296099 7.048349
18.340034 -9.947227 7.031162
18.186998 -9.587585 7.015887
18.042484 -9.242723 7.002295
17.901894 -8.914799 6.992142
17.764389 -8.601847 6.985341
17.630714 -8.301357 6.981093
17.497938 -8.011875 6.980042
17.367014 -7.730989 6.981351
17.246746 -7.451335 6.981390
17.127573 -7.175679 6.983326
17.000540 -6.905652 6.989633
16.868923 -6.637667 6.998742
16.736322 -6.367114 7.008767
16.596769 -6.094789 7.021316
16.452080 -5.817072 7.035162
16.297239 -5.534146 7.051402
16.135162 -5.241678 7.068581
15.965214 -4.937721 7.086468
15.794854 -4.615748 7.102523
15.610544 -4.280174 7.120205
15.414198 -3.943161 7.140286
15.220974 -3.626973 7.161914
15.036657 -3.327198 7.183374
14.861503 -3.039721 7.204384
14.695023 -2.762491 7.224869
14.535284 -2.492671 7.245077
14.388328 -2.224290 7.263256
14.249418 -1.957118 7.280335
14.124560 -1.684361 7.294611
14.001269 -1.410191 7.308990
13.881258 -1.132542 7.322967
13.762909 -0.847053 7.336499
13.656162 -0.549102 7.346804
13.549199 -0.239253 7.356616
13.434105 0.079950 7.367949
13.323878 0.418544 7.376873
13.220031 0.778538 7.382655
13.111902 1.154580 7.388243
13.038185 1.524198 7.384437
12.961044 1.870636 7.382603
12.889367 2.198805 7.380286
12.838557 2.518625 7.372293
12.760043 2.820097 7.374736
12.715328 3.121146 7.366935
12.664122 3.417331 7.362318
12.604063 3.710228 7.362229
12.554747 4.006298 7.358882
12.504025 4.306575 7.356545
12.462460 4.614884 7.350295
12.391509 4.928654 7.356415
12.316068 5.254084 7.363875
12.221349 5.588919 7.379201
12.111898 5.939193 7.399549
11.957723 6.295907 7.438897
11.796192 6.633437 7.485139
11.648999 6.939399 7.529780
11.518890 7.223090 7.569509
11.396927 7.497828 7.607083
11.276937 7.766418 7.644263
11.161107 8.042787 7.679360
11.046041 8.332628 7.712010
10.919420 8.638436 7.744210
10.796985 8.975422 7.768698
10.679912 9.345759 7.782647
10.573216 9.693700 7.782102
10.474334 10.011816 7.770160
10.382926 10.312035 7.749183
10.275736 10.595517 7.730461
10.168228 10.879043 7.711411
10.035560 11.157981 7.705885
9.877831 11.444448 7.718241
9.691694 11.738354 7.754054
9.475927 12.049591 7.815944
9.263926 12.333846 7.893626
9.057251 12.562895 7.986812
8.852110 12.764130 8.089648
8.662873 12.975016 8.186931
8.477861 13.206668 8.282269
8.287601 13.465371 8.375704
8.099236 13.771141 8.455173
7.918377 14.100679 8.518159
7.782089 14.414309 8.550418
7.650488 14.702167 8.578704
7.510694 14.968264 8.617679
7.364056 15.228794 8.662766
7.203658 15.491069 8.717512
7.018246 15.758293 8.783092
6.795772 16.027639 8.880264
6.542121 16.284018 9.012480
6.304055 16.490774 9.130294
6.071770 16.667578 9.213683
5.824389 16.835703 9.263443
5.549299 17.006603 9.289317
5.234186 17.188885 9.308640
4.901877 17.349327 9.366301
4.602051 17.460989 9.434968
4.315900 17.543741 9.496921
4.023896 17.617926 9.538877
3.703522 17.710114 9.525172
3.337307 17.810173 9.513136
2.996131 17.874229 9.522593
2.690905 17.902628 9.549488
2.391119 17.921436 9.578849
2.066170 17.945395 9.626435
1.694405 18.004267 9.658436
1.358661 18.075388 9.701911
1.058524 18.157398 9.723276
0.769120 18.235050 9.744209
0.465214 18.300859 9.764608
0.115741 18.340033 9.809579
-0.258766 18.364952 9.825022
-0.586318 18.381378 9.801484
-0.886866 18.385021 9.757997
-1.184504 18.375570 9.699862
-1.505710 18.351170 9.646585
-1.872451 18.313864 9.592926
-2.228923 18.270533 9.545783
-2.545568 18.221069 9.522962
-2.841067 18.161293 9.513516
-3.134780 18.098087 9.475641
-3.447786 18.019550 9.440614
-3.800338 17.920761 9.402622
-4.147455 17.823231 9.358332
-4.447299 17.737886 9.306330
-4.725369 17.644947 9.235694
-5.009493 17.518124 9.154479
-5.323352 17.336868 9.068130
-5.591910 17.133747 9.004519
-5.805851 16.923529 8.947748
-6.006385 16.703053 8.873514
-6.236539 16.468084 8.769558
-6.510732 16.229893 8.640011
-6.782297 16.041506 8.489209
-7.042974 15.882523 8.345510
-7.305813 15.759247 8.189406
-7.560932 15.623494 8.059696
-7.800153 15.435336 7.971362
-8.005852 15.195723 7.924026
-8.171451 14.885060 7.917197
-8.330287 14.577535 7.899304
-8.517138 14.276351 7.854627
-8.751919 13.974783 7.783761
-8.969022 13.672473 7.730295
-9.137989 13.368270 7.707728
-9.285089 13.070166 7.698267
-9.403948 12.777140 7.703806
-9.533989 12.495388 7.705305
-9.643660 12.211082 7.717360
-9.752542 11.928375 7.729898
-9.862157 11.641726 7.742177
-9.968290 11.346517 7.755108
-10.041479 11.030453 7.779299
-10.112211 10.693636 7.801985
-10.208403 10.343130 7.811705
-10.298810 9.961450 7.818687
-10.399933 9.602014 7.813600
-10.507254 9.275279 7.798949
-10.628437 8.980536 7.773503
-10.741424 8.697580 7.746332
-10.864711 8.427968 7.712508
-10.995274 8.162987 7.673655
-11.133274 7.891305 7.630929
-11.282324 7.600239 7.583630
-11.428660 7.278256 7.537612
-11.575718 6.920013 7.492590
-11.712934 6.568088 7.450522
-11.821475 6.228672 7.417801
-11.906132 5.899211 7.392930
-11.968692 5.580153 7.375457
-12.023738 5.270151 7.360036
-12.066315 4.966971 7.348701
-12.108011 4.668746 7.337077
-12.144981 4.372345 7.326757
-12.182113 4.075243 7.315942
-12.224677 3.775472 7.302448
-12.264118 3.467820 7.290134
-12.319871 3.153563 7.270631
-12.394176 2.830239 7.242954
-12.466149 2.490302 7.216560
-12.541813 2.131217 7.189006
-12.631269 1.753806 7.155844
-12.730398 1.387599 7.117593
-12.811895 1.035452 7.085974
-12.888203 0.698530 7.055363
-12.968266 0.377661 7.021953
-13.055128 0.071047 6.984710
-13.141311 -0.226125 6.947084
-13.228765 -0.515329 6.908412
-13.308540 -0.803138 6.872282
-13.402224 -1.083262 6.830717
-13.500241 -1.362391 6.787682
-13.591754 -1.646851 6.747100
-13.684853 -1.936431 6.706203
-13.781149 -2.232841 6.664545
-13.881701 -2.538342 6.622070
-13.996000 -2.851707 6.575694
-14.133535 -3.172140 6.522439
-14.281401 -3.507073 6.466220
-14.433407 -3.861354 6.408859
-14.580559 -4.212720 6.353006
-14.727028 -4.543951 6.296416
-14.871702 -4.857962 6.238674
-15.009645 -5.159038 6.181421
-15.129106 -5.454346 6.130183
-15.249220 -5.738813 6.076499
-15.359299 -6.019517 6.026012
-15.455427 -6.300323 5.982532
-15.542330 -6.582802 5.945177
-15.618790 -6.869541 5.916678
-15.695454 -7.159762 5.891351
-15.765529 -7.458368 5.875637
-15.839906 -7.763859 5.862177
-15.924045 -8.076486 5.846097
-16.011852 -8.401276 5.833288
-16.128653 -8.728290 5.797236
-16.251657 -9.071147 5.760738
-16.383577 -9.431203 5.721429
-16.548403 -9.773255 5.643281
-16.668530 -10.117156 5.609572
-16.793100 -10.438865 5.564202
-16.926764 -10.737286 5.502645
-17.075577 -11.010268 5.419785
-17.203129 -11.287919 5.360681
-17.321524 -11.565145 5.311707
-17.434525 -11.842025 5.269442
-17.542444 -12.120588 5.234325
-17.645189 -12.404737 5.208179
-17.733889 -12.699143 5.199113
-17.829546 -12.999109 5.190707
-17.948553 -13.294213 5.169415
-18.107843 -13.593190 5.128256
-18.285496 -13.905532 5.087277
-18.474075 -14.244654 5.055352
-18.638929 -14.600503 5.043178
-18.783228 -14.946774 5.029131
-18.916063 -15.284078 5.010814
-19.032284 -15.615355 4.995578
-19.127106 -15.939297 4.992657
-19.205284 -16.261692 5.005853
-19.260258 -16.575815 5.046188
-19.299788 -16.887638 5.116088
-19.340136 -17.187832 5.201299
-19.388760 -17.485304 5.299535
-19.437183 -17.773489 5.423273
-19.493958 -18.059952 5.567335
-19.552044 -18.339823 5.743386
-19.624485 -18.619898 5.940221
-19.712790 -18.902134 6.161727
-19.862036 -19.203186 6.368752
-20.011518 -19.489376 6.583727
-20.167568 -19.756041 6.795866
-20.384298 -20.022987 6.992512
-20.590874 -20.245333 7.214349
-20.819519 -20.435753 7.465001
-21.017658 -20.556036 7.745971
-21.170454 -20.629501 8.056576
-20.990902 -20.679270 8.418698
-20.562950 -20.835850 8.763535
-20.492064 -20.974924 9.059250
-20.518713 -21.095633 9.350349
-20.595619 -21.194145 9.643479
-20.699444 -21.276245 9.940981
-20.812496 -21.355204 10.242573
-20.926682 -21.446581 10.549843
-21.056046 -21.545067 10.864149
-21.197609 -21.660791 11.184566
-21.374966 -21.768999 11.509914
-21.582945 -21.846258 11.824558
-21.801041 -21.884155 12.111076
-22.017550 -21.903236 12.370156
-22.230692 -21.918261 12.609279
