BEGIN_Polyline
-24.4275 10.086 7.9113
-24.3617 10.0974 7.87577
-24.3783 10.1668 7.90089
-24.3538 10.2072 7.89562
-24.3293 10.2475 7.89028
-24.3049 10.2879 7.88484
-24.2806 10.3283 7.87946
-24.2564 10.3688 7.87404
-24.2323 10.4092 7.86856
-24.2081 10.4497 7.86305
-24.1836 10.4898 7.85735
-24.1588 10.5299 7.85153
-24.1341 10.5699 7.84568
-24.1094 10.61 7.83978
-24.0845 10.6499 7.83368
-24.0595 10.6897 7.8275
-24.0346 10.7296 7.82129
-24.0098 10.7694 7.81504
-23.9849 10.8093 7.80876
-23.9601 10.8491 7.80248
-23.9353 10.8889 7.79619
-23.9105 10.9287 7.78993
-23.8857 10.9685 7.7837
-23.8608 11.0082 7.77752
-23.8359 11.048 7.77138
-23.811 11.0878 7.76526
-23.7861 11.1277 7.75906
-23.7611 11.1676 7.75292
-23.7349 11.2067 7.74602
-23.7066 11.2441 7.7377
-23.678 11.281 7.729
-23.6492 11.318 7.72047
-23.6202 11.3549 7.71207
-23.5903 11.3912 7.70309
-23.5625 11.4294 7.69577
-23.5337 11.4668 7.68781
-23.5047 11.5042 7.67997
-23.4757 11.5415 7.67226
-23.4467 11.5789 7.6646
-23.4179 11.6164 7.65717
-23.3897 11.6544 7.65026
-23.3615 11.6923 7.64338
-23.3333 11.7302 7.63645
-23.3053 11.7681 7.6295
-23.2773 11.8058 7.62254
-23.2494 11.8435 7.61557
-23.2215 11.8813 7.60876
-23.1958 11.9207 7.60335
-23.1702 11.9601 7.59791
-23.1445 11.9996 7.59241
-23.1186 12.0389 7.58675
-23.0934 12.0788 7.58138
-23.0681 12.1186 7.57599
-23.043 12.1584 7.57052
-23.018 12.1981 7.56499
-22.993 12.2377 7.55948
-22.9682 12.2774 7.55412
-22.9433 12.317 7.54891
-22.9194 12.3575 7.54441
-22.8959 12.3982 7.54036
-22.8725 12.4387 7.53626
-22.8486 12.4797 7.53261
-22.8237 12.5222 7.52989
-22.8019 12.5663 7.52835
-22.7807 12.611 7.52747
-22.8221 12.6855 7.55386
-22.7392 12.6994 7.5246
-22.7194 12.7426 7.52237
-22.6998 12.7854 7.51994
-22.6813 12.8278 7.51757
-22.6634 12.8703 7.51573
-22.6458 12.9124 7.51382
-22.6283 12.9544 7.51174
-22.6107 12.9962 7.50952
-22.5921 13.0379 7.50705
-22.5735 13.0796 7.50453
-22.5562 13.1219 7.50255
-22.5412 13.1651 7.50141
-22.5263 13.2082 7.50013
-22.5115 13.2512 7.49875
-22.4927 13.2928 7.49543
-22.4758 13.3352 7.49358
-22.4585 13.3776 7.49168
-22.44 13.4195 7.48929
-22.4216 13.4613 7.48676
-22.402 13.5026 7.4834
-22.3825 13.5441 7.48012
-22.3642 13.5857 7.47658
-22.3431 13.6258 7.47136
-22.3221 13.6658 7.46591
-22.301 13.7059 7.46065
-22.2801 13.7459 7.45517
-22.2592 13.7858 7.44945
-22.2382 13.8256 7.44309
-22.2173 13.8655 7.43649
-22.1965 13.9054 7.42967
-22.1776 13.9446 7.42097
-22.1275 13.9684 7.40081
-22.1406 14.0262 7.40962
-22.1204 14.068 7.40693
-22.1002 14.1099 7.40399
-22.0793 14.151 7.399
-22.059 14.1916 7.39171
-22.0396 14.2321 7.38325
-22.02 14.2728 7.37514
-22.0014 14.3142 7.36803
-21.9828 14.3556 7.36128
-21.9638 14.397 7.35456
-21.9449 14.4382 7.34785
-21.925 14.4788 7.34038
-21.9042 14.5189 7.33213
-21.8836 14.5588 7.32349
-21.863 14.5986 7.31476
-21.8407 14.637 7.3054
-21.8173 14.6745 7.29604
-21.7939 14.7118 7.28678
-21.7705 14.7493 7.27737
-21.7472 14.7866 7.2678
-21.7238 14.824 7.25823
-21.7005 14.8615 7.24834
-21.6771 14.8992 7.23824
-21.6535 14.9373 7.22769
-21.6299 14.9758 7.21703
-21.6063 15.0147 7.20613
-21.5824 15.0535 7.19516
-21.5551 15.0896 7.18296
-21.5281 15.1255 7.17055
-21.5007 15.1619 7.15833
-21.4746 15.1994 7.14663
-21.4063 15.204 7.12313
-21.4216 15.2747 7.12457
-21.3947 15.3126 7.11423
-21.3676 15.3507 7.1041
-21.3404 15.389 7.0941
-21.3132 15.4272 7.08387
-21.2856 15.4651 7.0734
-21.2566 15.5023 7.0626
-21.2283 15.5399 7.05186
-21.1993 15.5766 7.04071
-21.1691 15.6118 7.02867
-21.1389 15.647 7.01637
-21.1088 15.6823 7.00365
-21.0788 15.7177 6.99097
-21.049 15.7535 6.97805
-21.0193 15.7892 6.9649
-20.9894 15.825 6.9517
-20.9593 15.861 6.93881
-20.9293 15.897 6.92587
-20.8995 15.9328 6.91274
-20.8701 15.9684 6.89931
-20.8421 16.0051 6.88628
-20.8147 16.0414 6.8729
-20.7875 16.0774 6.85931
-20.7607 16.1131 6.84547
-20.7335 16.1493 6.83171
-20.7072 16.1855 6.81802
-20.6826 16.2224 6.80474
-20.6587 16.2586 6.7912
-20.6348 16.2948 6.77757
-20.6112 16.33 6.76372
-20.588 16.3647 6.74984
-20.5634 16.3978 6.7354
-20.5401 16.4331 6.72219
-20.5157 16.4669 6.70846
-20.4916 16.5002 6.69476
-20.4682 16.533 6.68106
-20.4448 16.5658 6.66728
-20.4234 16.5994 6.65421
-20.4029 16.633 6.64136
-20.3827 16.6665 6.62831
-20.3623 16.7002 6.6153
-20.342 16.7339 6.60206
-20.322 16.7674 6.5887
-20.3023 16.8007 6.57509
-20.2826 16.834 6.56139
-20.2632 16.8672 6.54763
-20.2433 16.8997 6.53343
-20.2223 16.9309 6.51884
-20.1996 16.9605 6.50394
-20.1769 16.9902 6.48894
-20.154 17.0201 6.47371
-20.1309 17.0503 6.45805
-20.1078 17.0807 6.44231
-20.0845 17.1115 6.42603
-20.0609 17.1426 6.4094
-20.0378 17.1745 6.39273
-20.0157 17.2064 6.37671
-19.9933 17.2386 6.3604
-19.9706 17.2715 6.34362
-19.9474 17.3051 6.32626
-19.9242 17.3387 6.30896
-19.9005 17.3733 6.29097
-19.8764 17.4083 6.27277
-19.827 17.4222 6.2442
-19.8278 17.4802 6.23286
-19.8025 17.5156 6.21209
-19.7761 17.5494 6.19299
-19.748 17.5831 6.17351
-19.7199 17.6167 6.15344
-19.6905 17.6505 6.13273
-19.6606 17.6848 6.11195
-19.6303 17.7195 6.09113
-19.6007 17.7538 6.07055
-19.5708 17.7884 6.0501
-19.5402 17.823 6.02953
-19.5078 17.8567 6.00877
-19.4785 17.8938 5.98872
-19.4488 17.9315 5.96873
-19.4202 17.9705 5.94917
-19.3918 18.0097 5.92963
-19.3637 18.0485 5.90981
-19.3358 18.0872 5.89017
-19.3078 18.1259 5.87084
-19.2797 18.1645 5.852
-19.2516 18.2031 5.83317
-19.2233 18.2417 5.815
-19.1951 18.2802 5.79732
-19.1624 18.3151 5.77908
-19.1329 18.3529 5.76124
-19.1041 18.3912 5.74406
-19.0754 18.4292 5.72734
-19.0468 18.4669 5.7114
-19.0194 18.5054 5.69583
-18.9928 18.544 5.68087
-18.9665 18.5822 5.66619
-18.9401 18.6201 5.65119
-18.9141 18.6586 5.63537
-18.8873 18.696 5.61919
-18.8603 18.7326 5.60326
-18.8356 18.7703 5.58841
-18.8113 18.8082 5.57373
-18.7853 18.844 5.5598
-18.7594 18.8794 5.54655
-18.7338 18.9147 5.53397
-18.708 18.9502 5.5208
-18.6823 18.9856 5.50835
-18.6553 19.0197 5.49649
-18.6287 19.0537 5.4858
-18.6024 19.0879 5.47531
-18.5776 19.1229 5.46589
-18.553 19.1581 5.45708
-18.5284 19.1932 5.44847
-18.5038 19.2286 5.43904
-18.479 19.2641 5.42966
-18.4542 19.2996 5.42076
-18.4292 19.3351 5.41249
-18.4039 19.3701 5.40425
-18.3785 19.4051 5.39678
-18.353 19.4401 5.38976
-18.3275 19.475 5.38335
-18.3011 19.5092 5.37674
-18.2745 19.5434 5.37039
-18.2478 19.5776 5.36408
-18.221 19.6119 5.35804
-18.1944 19.6461 5.35247
-18.1676 19.6804 5.34641
-18.1407 19.7149 5.34022
-18.0544 19.7025 5.32458
-18.0856 19.7846 5.3163
-18.0576 19.8197 5.3077
-18.0297 19.8547 5.29869
-18.0016 19.8891 5.29003
-17.9726 19.922 5.28182
-17.9443 19.955 5.27397
-17.9155 19.9877 5.26613
-17.8863 20.0201 5.25829
-17.8571 20.0525 5.25013
-17.8276 20.0849 5.24218
-17.7977 20.117 5.23451
-17.7675 20.1493 5.22751
-17.7372 20.1817 5.2208
-17.7067 20.2142 5.21469
-17.6761 20.2469 5.20889
-17.6455 20.2795 5.20297
-17.6158 20.3125 5.19634
-17.5863 20.3457 5.18968
-17.5562 20.3787 5.18334
-17.524 20.41 5.1776
-17.4925 20.442 5.17215
-17.4606 20.4741 5.16759
-17.4281 20.5061 5.1635
-17.3952 20.5382 5.15989
-17.3615 20.5691 5.15591
-17.3275 20.6002 5.15219
-17.2933 20.6315 5.14885
-17.2589 20.6632 5.146
-17.2244 20.6949 5.14326
-17.1897 20.7268 5.14083
-17.1541 20.7589 5.14049
-17.065 20.7311 5.14058
-17.0833 20.8221 5.13714
-17.0486 20.8531 5.13314
-17.0139 20.8841 5.12933
-16.979 20.9151 5.12563
-16.9441 20.9463 5.12222
-16.9089 20.9778 5.11951
-16.8736 21.0093 5.11722
-16.8381 21.0409 5.11549
-16.8028 21.0724 5.11349
-16.766 21.1026 5.11223
-16.7281 21.1318 5.1116
-16.6896 21.1611 5.11188
-16.6509 21.1904 5.11223
-16.612 21.22 5.11322
-16.573 21.2497 5.11467
-16.5341 21.2794 5.11609
-16.4955 21.3087 5.1167
-16.4571 21.3379 5.11732
-16.4186 21.3672 5.11842
-16.38 21.3966 5.12024
-16.3412 21.4261 5.12218
-16.3017 21.4552 5.12513
-16.262 21.4843 5.12873
-16.2221 21.5134 5.133
-16.1821 21.5419 5.13686
-16.1418 21.5705 5.14129
-16.1013 21.5993 5.14626
-16.0612 21.6292 5.15206
-16.0218 21.6599 5.158
-15.9822 21.6907 5.16452
-15.9425 21.7217 5.17127
-15.8789 21.7225 5.1778
-15.8585 21.7798 5.18582
-15.818 21.809 5.19175
-15.7776 21.8394 5.19756
-15.7371 21.8698 5.20353
-15.6966 21.9001 5.20972
-15.6561 21.9305 5.21634
-15.6156 21.9609 5.22319
-15.5749 21.9908 5.2303
-15.5337 22.0199 5.23719
-15.4926 22.049 5.24437
-15.4515 22.078 5.25181
-15.4096 22.1057 5.25951
-15.3675 22.1331 5.26715
-15.3255 22.1605 5.27505
-15.2834 22.1879 5.28313
-15.2412 22.2153 5.29137
-15.1988 22.2428 5.29957
-15.1564 22.2704 5.30776
-15.1139 22.2975 5.31592
-15.072 22.3251 5.32407
-15.0301 22.3527 5.33223
-14.9886 22.38 5.34021
-14.9474 22.4072 5.348
-14.9065 22.4341 5.3556
-14.8656 22.4611 5.36331
-14.825 22.4879 5.37073
-14.7858 22.5162 5.37814
-14.7472 22.5446 5.38495
-14.7069 22.571 5.3913
-14.6664 22.5968 5.397
-14.626 22.6224 5.40243
-14.5681 22.6201 5.40792
-14.5453 22.6737 5.41422
-14.5051 22.6993 5.42056
-14.4651 22.7247 5.42656
-14.4257 22.7498 5.43195
-14.3851 22.7729 5.43709
-14.3447 22.7951 5.44148
-14.3045 22.8172 5.44545
-14.2645 22.8387 5.44894
-14.2244 22.8602 5.45276
-14.1844 22.8811 5.45604
-14.1444 22.9012 5.45878
-14.1047 22.9212 5.46082
-14.065 22.9411 5.46281
-14.0256 22.9611 5.46427
-13.9862 22.9809 5.46536
-13.9469 23.0009 5.46637
-13.9076 23.0211 5.46788
-13.8683 23.0415 5.46938
-13.8289 23.0618 5.4706
-13.7895 23.0822 5.47151
-13.75 23.1026 5.47247
-13.7122 23.1262 5.47321
-13.6754 23.1514 5.47369
-13.6388 23.1766 5.47373
-13.6023 23.2015 5.47366
-13.5655 23.2259 5.47336
-13.5281 23.25 5.47303
-13.4896 23.2726 5.47268
-13.4506 23.2942 5.47221
-13.4112 23.3159 5.47223
-13.3715 23.3378 5.47263
-13.3387 23.373 5.4742
-13.2916 23.3819 5.4754
-13.2514 23.404 5.47767
-13.2108 23.4264 5.48027
-13.1698 23.4489 5.48318
-13.1288 23.4715 5.48595
-13.0874 23.4943 5.48852
-13.0458 23.5172 5.49093
-13.0039 23.5401 5.49302
-12.9621 23.5629 5.49537
-12.9221 23.5887 5.49683
-12.8819 23.6145 5.49789
-12.8416 23.6404 5.49836
-12.8012 23.6662 5.49883
-12.762 23.6939 5.49841
-12.723 23.7219 5.49744
-12.6842 23.7498 5.4963
-12.6454 23.7777 5.49574
-12.6064 23.8049 5.49496
-12.5673 23.8316 5.49369
-12.5286 23.8582 5.49151
-12.49 23.8851 5.48922
-12.4505 23.9102 5.48635
-12.411 23.9349 5.48281
-12.3716 23.9596 5.47864
-12.3321 23.9844 5.47495
-12.2926 24.0091 5.47076
-12.253 24.0334 5.4661
-12.2136 24.0573 5.46065
-12.1742 24.0811 5.455
-12.135 24.1048 5.4489
-12.0944 24.1278 5.44247
-12.0397 24.1259 5.44336
-12.014 24.1724 5.43178
-11.9741 24.1957 5.4272
-11.9342 24.2185 5.42254
-11.8941 24.2405 5.41763
-11.8541 24.2623 5.41257
-11.8145 24.2838 5.40676
-11.7749 24.3051 5.40043
-11.7354 24.3262 5.39359
-11.6959 24.3475 5.38719
-11.6564 24.3685 5.38016
-11.6169 24.389 5.37256
-11.5772 24.4088 5.36413
-11.5376 24.4285 5.35566
-11.4981 24.448 5.34639
-11.4587 24.4672 5.33658
-11.4193 24.4864 5.32648
-11.3798 24.5058 5.31695
-11.3401 24.5248 5.30736
-11.3003 24.5435 5.29744
-11.2606 24.5621 5.28703
-11.2209 24.5806 5.27658
-11.1812 24.599 5.26564
-11.1415 24.6173 5.25444
-11.1017 24.6356 5.24286
-11.0618 24.6539 5.23126
-11.0215 24.6719 5.21973
-10.981 24.689 5.20857
-10.9397 24.7056 5.19759
-10.897 24.72 5.18679
-10.8535 24.7337 5.1767
-10.8099 24.7476 5.16714
-10.7538 24.7277 5.16776
-10.7237 24.7756 5.15067
-10.6813 24.7897 5.14373
-10.639 24.804 5.13715
-10.597 24.8187 5.1312
-10.5547 24.8334 5.12473
-10.5124 24.8481 5.11815
-10.47 24.8628 5.11167
-10.4277 24.8774 5.10501
-10.3858 24.8929 5.09807
-10.3454 24.9124 5.08978
-10.3042 24.9301 5.08145
-10.263 24.9478 5.07254
-10.2219 24.9654 5.06366
-10.1807 24.983 5.05432
-10.1393 25.0005 5.04462
-10.0976 25.0179 5.03492
-10.0556 25.0355 5.0259
-10.0134 25.0531 5.01667
-9.97126 25.0706 5.00691
-9.92922 25.088 4.9963
-9.88729 25.1053 4.98558
-9.84569 25.1224 4.97381
-9.80426 25.1392 4.96128
-9.76187 25.1532 4.9485
-9.71832 25.1646 4.9368
-9.6748 25.1759 4.92438
-9.63151 25.187 4.9112
-9.58856 25.1978 4.89685
-9.5456 25.2086 4.8823
-9.50314 25.2191 4.86691
-9.46161 25.2289 4.85065
-9.41042 25.2103 4.84004
-9.37871 25.2513 4.82011
-9.33741 25.2623 4.80529
-9.2964 25.2732 4.79003
-9.25573 25.2839 4.77406
-9.21504 25.2945 4.75789
-9.17462 25.3052 4.74069
-9.13456 25.3163 4.72277
-9.09447 25.3274 4.70424
-9.05419 25.3386 4.68614
-9.01366 25.3496 4.66756
-8.97252 25.3587 4.64879
-8.93121 25.3677 4.62919
-8.88986 25.3767 4.60949
-8.84808 25.3845 4.58949
-8.80616 25.3918 4.56927
-8.76444 25.3992 4.54904
-8.72314 25.4065 4.52926
-8.68188 25.4138 4.5097
-8.6404 25.4212 4.49006
-8.59866 25.4293 4.47019
-8.55686 25.4377 4.4502
-8.51434 25.446 4.4301
-8.47128 25.4542 4.41001
-8.42788 25.4624 4.38979
-8.38503 25.4705 4.36949
-8.34168 25.4787 4.34918
-8.29762 25.4871 4.32904
-8.2528 25.4957 4.30889
-8.20803 25.5036 4.28863
-8.16237 25.5115 4.26854
-8.11496 25.52 4.2493
-8.07781 25.5653 4.22338
-8.01989 25.5426 4.20923
-7.97462 25.5549 4.1893
-7.92863 25.5676 4.16975
-7.88201 25.5807 4.15074
-7.8359 25.5952 4.13145
-7.78938 25.6111 4.11246
-7.74224 25.6274 4.09386
-7.69377 25.6416 4.07584
-7.64562 25.6554 4.05741
-7.59948 25.6738 4.03811
-7.55298 25.6924 4.01914
-7.50605 25.7114 4.00078
-7.45909 25.7305 3.98264
-7.41181 25.7499 3.96503
-7.36536 25.7713 3.9473
-7.31885 25.7931 3.92939
-7.27224 25.8147 3.91069
-7.22596 25.836 3.8918
-7.17659 25.8516 3.87522
-7.12609 25.8638 3.86021
-7.07618 25.8758 3.84525
-7.02693 25.8879 3.83101
-6.97795 25.9 3.81725
-6.92923 25.9122 3.80403
-6.88005 25.9244 3.79056
-6.83136 25.9366 3.77755
-6.78326 25.9488 3.76493
-6.73609 25.9608 3.7529
-6.68903 25.9728 3.74102
-6.64289 25.9846 3.72936
-6.5974 25.9962 3.71781
-6.55193 26.0068 3.70615
-6.50667 26.0203 3.69305
-6.46149 26.033 3.67972
-6.417 26.0455 3.66652
-6.37349 26.0577 3.65346
-6.33005 26.0699 3.64039
-6.28762 26.0816 3.628
-6.24502 26.0906 3.61707
-6.20302 26.0999 3.60643
-6.16059 26.1099 3.59522
-6.11859 26.1202 3.58453
-6.07797 26.1328 3.57337
-6.03891 26.1474 3.56224
-6.0001 26.1619 3.55119
-5.96186 26.1764 3.54084
-5.92324 26.1897 3.53144
-5.88448 26.2025 3.52243
-5.84538 26.2153 3.51293
-5.80616 26.2282 3.50357
-5.76736 26.242 3.4942
-5.7289 26.2566 3.48506
-5.69053 26.2712 3.47593
-5.65222 26.286 3.46736
-5.61387 26.3009 3.4591
-5.57557 26.3161 3.45133
-5.53742 26.3311 3.44364
-5.49877 26.3456 3.43643
-5.45973 26.3597 3.42932
-5.42023 26.3737 3.4223
-5.38059 26.3875 3.41563
-5.34043 26.4015 3.40861
-5.29988 26.4154 3.40124
-5.24936 26.4062 3.40234
-5.21836 26.4428 3.38473
-5.17735 26.4562 3.3756
-5.13592 26.4697 3.36615
-5.09389 26.4833 3.35635
-5.05184 26.497 3.34668
-5.0093 26.5109 3.33712
-4.96632 26.5247 3.32776
-4.92304 26.5385 3.31873
-4.88006 26.5522 3.30968
-4.83709 26.5663 3.30105
-4.79395 26.5806 3.29278
-4.75012 26.5941 3.28567
-4.7062 26.6075 3.27858
-4.66218 26.6212 3.27194
-4.61814 26.6351 3.26569
-4.5742 26.6489 3.25944
-4.53032 26.6624 3.25257
-4.48666 26.6759 3.24585
-4.44294 26.6892 3.23979
-4.39876 26.701 3.23539
-4.35453 26.7127 3.23121
-4.31039 26.7249 3.22792
-4.26635 26.7373 3.22525
-4.2222 26.7497 3.22332
-4.17798 26.7622 3.22071
-4.13407 26.7758 3.21822
-4.09023 26.7894 3.21639
-4.04648 26.8032 3.21558
-4.00278 26.817 3.21489
-3.95931 26.8311 3.21477
-3.91601 26.8453 3.21499
-3.87193 26.8568 3.21671
-3.82939 26.8733 3.21462
-3.7861 26.887 3.21395
-3.74304 26.9012 3.21326
-3.70061 26.9162 3.21269
-3.65778 26.9302 3.2128
-3.61457 26.9424 3.2147
-3.57152 26.9547 3.21702
-3.5286 26.9671 3.21977
-3.48558 26.9795 3.22217
-3.44265 26.992 3.22495
-3.3994 27.0029 3.22898
-3.35616 27.0137 3.23374
-3.31296 27.0246 3.23855
-3.26973 27.0353 3.24394
-3.22648 27.0459 3.24964
-3.18323 27.0566 3.2554
-3.13995 27.0671 3.26092
-3.09662 27.0776 3.26636
-3.05327 27.0882 3.27187
-3.00986 27.0988 3.27744
-2.96646 27.1094 3.28305
-2.92301 27.12 3.28872
-2.87952 27.1307 3.2944
-2.83603 27.1414 3.30012
-2.7926 27.1521 3.30593
-2.74915 27.1628 3.31167
-2.70565 27.1734 3.3173
-2.66207 27.1842 3.32262
-2.61853 27.196 3.32747
-2.57446 27.2047 3.33361
-2.53034 27.2133 3.33953
-2.48555 27.2169 3.34794
-2.44204 27.2305 3.3519
-2.3979 27.2381 3.35819
-2.35366 27.2451 3.36444
-2.30928 27.2516 3.37038
-2.265 27.2595 3.37568
-2.22063 27.2672 3.38046
-2.17621 27.2747 3.38491
-2.13199 27.2834 3.38855
-2.08807 27.293 3.39213
-2.04413 27.3025 3.39546
-2.00008 27.3119 3.39848
-1.95545 27.3185 3.40215
-1.91136 27.3278 3.4046
-1.86706 27.337 3.40668
-1.82261 27.3461 3.40855
-1.77785 27.3553 3.41043
-1.73298 27.3646 3.41269
-1.68791 27.3738 3.41504
-1.64256 27.382 3.41767
-1.59706 27.389 3.4205
-1.55142 27.3932 3.42451
-1.50574 27.3973 3.42812
-1.46002 27.4013 3.43148
-1.41429 27.4051 3.43448
-1.3685 27.4076 3.43811
-1.32275 27.4088 3.44202
-1.27709 27.4099 3.4458
-1.23156 27.411 3.44936
-1.186 27.412 3.45281
-1.14067 27.4131 3.45635
-1.09541 27.4137 3.46021
-1.05076 27.3982 3.47183
-1.00529 27.4155 3.46915
-0.960534 27.4164 3.47436
-0.915976 27.4179 3.47954
-0.871728 27.4193 3.4847
-0.82742 27.4202 3.49
-0.783425 27.42 3.49531
-0.739538 27.4196 3.50037
-0.696137 27.4182 3.50527
-0.6527 27.4154 3.51081
-0.610768 27.4056 3.51879
-0.567894 27.3974 3.52554
-0.524472 27.3891 3.53173
-0.481068 27.3808 3.53791
-0.437212 27.3723 3.54385
-0.393015 27.3636 3.54962
-0.348622 27.3549 3.55556
-0.304467 27.347 3.56179
-0.259947 27.3399 3.56789
-0.215021 27.3326 3.57383
-0.169017 27.3286 3.57796
-0.122701 27.3281 3.5804
-0.0754836 27.3273 3.58231
-0.0276304 27.3249 3.58439
0.0202094 27.3222 3.58637
0.067095 27.328 3.58505
0.114907 27.3349 3.58262
0.163556 27.3419 3.57981
0.213076 27.3487 3.57608
0.262186 27.3567 3.5716
0.310844 27.3682 3.56478
0.360544 27.3787 3.5575
0.416169 27.3681 3.56247
0.462272 27.3971 3.54526
0.514175 27.3993 3.54414
0.563611 27.4021 3.54266
0.613171 27.4062 3.5402
0.663308 27.4105 3.53753
0.714079 27.4148 3.53456
0.765187 27.4174 3.53233
0.816656 27.4177 3.53128
0.867858 27.418 3.53037
0.919298 27.4183 3.52926
0.971048 27.4174 3.52853
1.02311 27.4177 3.52665
1.07514 27.4204 3.52324
1.12734 27.4256 3.51798
1.17971 27.431 3.51239
1.23222 27.4364 3.50666
1.28455 27.442 3.50125
1.33682 27.4469 3.49625
1.38934 27.4486 3.49278
1.44159 27.4528 3.48767
1.49364 27.4581 3.48184
1.5457 27.4633 3.47581
1.59774 27.468 3.46989
1.6499 27.4721 3.46423
1.70225 27.4762 3.45864
1.75455 27.4802 3.45317
1.80663 27.4832 3.44819
1.8587 27.4862 3.44324
1.91144 27.4874 3.4392
1.96402 27.4875 3.43598
2.01654 27.487 3.43333
2.06963 27.4487 3.45054
2.12185 27.4852 3.42657
2.1741 27.4841 3.42326
2.22545 27.4832 3.42183
2.27615 27.4819 3.42113
2.32679 27.4804 3.42008
2.37676 27.4788 3.41899
2.42627 27.4773 3.41803
2.47544 27.4759 3.41705
2.52503 27.4743 3.41596
2.57433 27.4729 3.41468
2.62326 27.4721 3.41301
2.67161 27.4712 3.41139
2.71983 27.4693 3.41045
2.76764 27.4674 3.40951
2.81521 27.4654 3.40853
2.8628 27.4634 3.4075
2.91083 27.4614 3.40648
2.95896 27.4598 3.40517
3.00688 27.4591 3.40332
3.05452 27.4555 3.40288
3.10205 27.4519 3.40245
3.14922 27.4483 3.40198
3.19616 27.4448 3.40145
3.24275 27.4413 3.40092
3.28935 27.4378 3.40044
3.33572 27.4344 3.39997
3.38195 27.431 3.39951
3.42815 27.4275 3.39894
3.47431 27.423 3.39873
3.52088 27.4182 3.39855
3.56733 27.4134 3.39831
3.60931 27.3503 3.42829
3.66775 27.3962 3.40305
3.71391 27.3877 3.40469
3.76029 27.3791 3.4063
3.80641 27.3706 3.40795
3.85261 27.3622 3.40982
3.89851 27.3525 3.41221
3.94423 27.3421 3.41473
3.99035 27.3334 3.41614
4.03645 27.3251 3.41777
4.08234 27.3169 3.41956
4.12804 27.3085 3.42144
4.17327 27.2991 3.42388
4.21807 27.2881 3.42717
4.2627 27.2769 3.43054
4.30721 27.2657 3.43388
4.35168 27.2544 3.43717
4.39627 27.2432 3.44048
4.4408 27.2319 3.44372
4.48525 27.2206 3.44692
4.52893 27.2074 3.451
4.57261 27.1942 3.45509
4.61615 27.181 3.4591
4.65962 27.1678 3.46303
4.70294 27.1544 3.46697
4.7462 27.1407 3.47108
4.7894 27.127 3.47513
4.83261 27.1133 3.47919
4.87577 27.0998 3.48305
4.91895 27.0867 3.48664
4.96208 27.0736 3.49018
5.00589 27.0587 3.49481
5.03603 27.0114 3.51653
5.09208 27.0276 3.50487
5.13415 27.0123 3.50969
5.17633 26.9971 3.51443
5.21845 26.9822 3.51897
5.26073 26.9673 3.52349
5.30299 26.9523 3.52795
5.34517 26.9374 3.53238
5.38735 26.9224 3.53676
5.4296 26.9075 3.54115
5.47187 26.8925 3.54552
5.51411 26.8775 3.54988
5.55631 26.8625 3.55422
5.59851 26.8475 3.55856
5.64065 26.8325 3.56293
5.68246 26.8169 3.56767
5.72419 26.8013 3.57242
5.76558 26.785 3.57757
5.80664 26.7681 3.58313
5.84774 26.7512 3.58867
5.88842 26.7331 3.59483
5.9289 26.7147 3.60125
5.96914 26.6955 3.60814
6.0095 26.6761 3.61502
6.04995 26.6567 3.62191
6.09026 26.6374 3.62878
6.13068 26.618 3.63563
6.17125 26.5986 3.64248
6.212 26.5789 3.64928
6.25275 26.5593 3.65603
6.29369 26.5396 3.66278
6.33469 26.5197 3.66956
6.38351 26.5129 3.66884
6.41907 26.482 3.68128
6.46093 26.464 3.68728
6.50289 26.4458 3.69317
6.54489 26.4274 3.69925
6.58693 26.4089 3.70502
6.6291 26.3902 3.71073
6.67135 26.3716 3.71654
6.71365 26.353 3.72246
6.75605 26.3345 3.72838
6.7997 26.319 3.73261
6.84268 26.3017 3.73787
6.88572 26.2844 3.74321
6.92855 26.2667 3.74874
6.97137 26.2489 3.75443
7.01418 26.2311 3.76024
7.05702 26.2133 3.76605
7.09988 26.1954 3.77168
7.14268 26.1776 3.7774
7.18543 26.1599 3.78328
7.22808 26.1423 3.78946
7.27074 26.1247 3.79572
7.31326 26.1073 3.8023
7.35567 26.09 3.80909
7.39797 26.0727 3.81591
7.44033 26.0553 3.82236
7.48257 26.038 3.82892
7.52609 26.0241 3.83491
7.56859 26.0081 3.8419
7.61084 25.991 3.84886
7.6521 25.9719 3.85683
7.69321 25.9531 3.86512
7.72502 25.9172 3.8816
7.77671 25.9147 3.88225
7.81636 25.8943 3.89221
7.85585 25.8742 3.90247
7.89505 25.8546 3.91315
7.9364 25.8384 3.92186
7.97646 25.8203 3.93225
8.0161 25.8024 3.94273
8.05536 25.7847 3.95332
8.09785 25.7735 3.9607
8.14086 25.7623 3.96804
8.18385 25.751 3.97546
8.22689 25.7398 3.98294
8.26981 25.7286 3.99042
8.31266 25.7175 3.99791
8.35551 25.7063 4.00538
8.39834 25.6952 4.01282
8.44059 25.6824 4.02075
8.48423 25.6733 4.02732
8.52804 25.6656 4.03328
8.572 25.6578 4.03882
8.61595 25.65 4.04437
8.66008 25.642 4.04946
8.70434 25.6339 4.05421
8.74836 25.6236 4.05921
8.7925 25.6131 4.06447
8.83765 25.6082 4.0681
8.88297 25.6033 4.07139
8.92876 25.6003 4.07369
8.97452 25.5975 4.07587
9.02039 25.5947 4.07768
9.066 25.5875 4.08002
9.11176 25.5825 4.08214
9.15746 25.5793 4.08441
9.2029 25.5753 4.0869
9.24834 25.5713 4.0892
9.29374 25.5672 4.0912
9.33895 25.5611 4.09345
9.38419 25.5543 4.09528
9.42948 25.5475 4.09678
9.47485 25.5405 4.09796
9.52029 25.534 4.09933
9.56579 25.5275 4.10039
9.611 25.5189 4.10159
9.65633 25.5101 4.10235
9.7017 25.501 4.10315
9.74628 25.4883 4.10439
9.79101 25.4756 4.10543
9.83592 25.4639 4.10623
9.8806 25.4522 4.10731
9.92502 25.4398 4.10862
9.96915 25.4262 4.11002
10.0135 25.4126 4.11141
10.0581 25.3989 4.1129
10.1029 25.385 4.11424
10.1478 25.3712 4.11548
10.1925 25.3573 4.11626
10.2367 25.3436 4.11664
10.2809 25.3298 4.11683
10.326 25.3176 4.11711
10.3722 25.3076 4.11706
10.4183 25.2962 4.11725
10.4646 25.2834 4.11789
10.5109 25.2705 4.11884
10.5443 25.2104 4.13013
10.6051 25.2385 4.11908
10.6496 25.2234 4.12114
10.6942 25.2084 4.12335
10.7388 25.1935 4.12599
10.7841 25.1792 4.1285
10.8303 25.1674 4.13038
10.8763 25.1557 4.13222
10.9224 25.1441 4.13417
10.9685 25.1322 4.13623
11.0147 25.1193 4.13862
11.0608 25.1065 4.14098
11.1071 25.0935 4.14322
11.1533 25.0806 4.14541
11.1994 25.067 4.14765
11.2455 25.0532 4.14981
11.2917 25.0394 4.15192
11.3376 25.0245 4.15462
11.3834 25.0093 4.15732
11.4293 24.994 4.15979
11.4751 24.9786 4.16193
11.5205 24.9626 4.16428
11.5656 24.9458 4.16653
11.6107 24.9288 4.16851
11.6561 24.9116 4.17018
11.701 24.8926 4.17259
11.7459 24.8729 4.17498
11.7908 24.853 4.17728
11.8355 24.8328 4.17935
11.88 24.8126 4.18124
11.9245 24.7923 4.18307
11.9716 24.7707 4.18591
11.9798 24.6798 4.21483
12.061 24.7237 4.19401
12.103 24.7015 4.19775
12.145 24.6793 4.20145
12.1863 24.6574 4.20491
12.2279 24.6354 4.20836
12.2691 24.6134 4.21135
12.3105 24.5921 4.21372
12.3523 24.5713 4.21539
12.3945 24.5503 4.21717
12.4367 24.5292 4.21848
12.4788 24.5081 4.21945
12.5207 24.4869 4.22
12.5618 24.4644 4.221
12.6022 24.4412 4.22205
12.6424 24.4175 4.22306
12.6818 24.3929 4.22446
12.7213 24.3683 4.22616
12.7609 24.3437 4.22796
12.8004 24.3192 4.22967
12.8398 24.2946 4.23121
12.8793 24.27 4.2327
12.9187 24.2453 4.23393
12.958 24.2206 4.235
12.9974 24.1959 4.23591
13.0367 24.1712 4.23692
13.076 24.1465 4.23779
13.1152 24.1215 4.23858
13.1547 24.0968 4.23905
13.1946 24.0727 4.23928
13.2347 24.0487 4.23925
13.275 24.0246 4.23911
13.3172 24.0034 4.23845
13.3559 23.9763 4.23918
13.3962 23.9516 4.23925
13.4365 23.9265 4.23942
13.4768 23.9013 4.23956
13.5171 23.8762 4.23969
13.5574 23.851 4.2398
13.5976 23.826 4.23991
13.6393 23.8039 4.23932
13.6818 23.7833 4.23837
13.7243 23.763 4.23736
13.7675 23.7441 4.23615
13.8107 23.7251 4.23505
13.8538 23.7062 4.23397
13.897 23.6873 4.23305
13.9392 23.6667 4.2325
13.9823 23.6477 4.23193
14.0255 23.6291 4.23109
14.0687 23.6104 4.23027
14.1118 23.5919 4.22961
14.1547 23.5734 4.2292
14.1975 23.5549 4.22884
14.2402 23.5365 4.22876
14.2827 23.5182 4.22887
14.3252 23.4998 4.22909
14.3679 23.4814 4.22904
14.4103 23.4626 4.22914
14.452 23.4428 4.22947
14.4936 23.423 4.23014
14.5357 23.403 4.23081
14.5755 23.3791 4.23182
14.6151 23.355 4.23307
14.6453 23.3158 4.23447
14.6938 23.3074 4.23582
14.7328 23.2839 4.23726
14.7719 23.2607 4.2388
14.8108 23.2375 4.24067
14.8495 23.214 4.24258
14.8879 23.1902 4.24477
14.9256 23.1652 4.24711
14.9628 23.1396 4.24968
15.0001 23.1139 4.25223
15.0377 23.0887 4.25485
15.0753 23.0636 4.25752
15.113 23.0385 4.26022
15.1508 23.0136 4.26283
15.1889 22.9889 4.26542
15.2269 22.9643 4.26803
15.265 22.94 4.27073
15.3033 22.9161 4.27354
15.3414 22.8923 4.27635
15.3797 22.8684 4.27906
15.4176 22.8438 4.28162
15.4549 22.8181 4.28421
15.4921 22.7918 4.28655
15.5295 22.7653 4.28867
15.567 22.7386 4.29065
15.6043 22.7122 4.29287
15.6418 22.6856 4.29484
15.6795 22.6588 4.29652
15.7177 22.6318 4.29773
15.756 22.6048 4.29888
15.7947 22.5776 4.29959
15.8339 22.5499 4.29999
15.8663 22.5131 4.30083
15.9097 22.4914 4.30121
15.9475 22.4624 4.30189
15.9861 22.4336 4.30222
16.025 22.4047 4.30207
16.0661 22.3788 4.30163
16.1077 22.3527 4.3008
16.1493 22.3265 4.29965
16.1911 22.3002 4.29821
16.2327 22.274 4.29697
16.2743 22.2478 4.29552
16.316 22.2215 4.29387
16.3576 22.1952 4.29192
16.399 22.1683 4.28999
16.4389 22.1393 4.28818
16.479 22.1105 4.2863
16.5192 22.0816 4.28457
16.5594 22.0528 4.28303
16.5995 22.0239 4.2817
16.6391 21.9947 4.28046
16.6784 21.9655 4.2792
16.7177 21.9364 4.27785
16.7567 21.9075 4.27639
16.7956 21.8789 4.27487
16.8348 21.8512 4.27318
16.8741 21.8231 4.27163
16.9131 21.7952 4.27003
16.9518 21.7674 4.26831
16.9901 21.74 4.2665
17.0283 21.7127 4.26475
17.0662 21.6859 4.26279
17.1038 21.6592 4.26073
17.1299 21.6155 4.26104
17.1802 21.6048 4.25542
17.2176 21.5757 4.25274
17.2541 21.547 4.25047
17.2899 21.5181 4.24836
17.3255 21.4893 4.24629
17.3606 21.461 4.24442
17.3948 21.4322 4.24289
17.4282 21.403 4.24158
17.4621 21.3739 4.23998
17.4963 21.3456 4.23853
17.5303 21.3177 4.23739
17.5639 21.2901 4.23679
17.5975 21.2626 4.23632
17.6308 21.2353 4.23634
17.6639 21.2083 4.2367
17.6957 21.1797 4.23728
17.7268 21.15 4.23725
17.7584 21.1206 4.23733
17.7917 21.0937 4.23771
17.8248 21.0666 4.2388
17.8569 21.0384 4.24003
17.8886 21.0099 4.2422
17.9203 20.9814 4.24499
17.9521 20.9529 4.24852
17.984 20.9242 4.25184
18.0161 20.8955 4.25569
18.0482 20.8668 4.25985
18.0795 20.8369 4.26475
18.1103 20.8063 4.27003
18.1414 20.7755 4.27542
18.1728 20.7442 4.27996
18.1634 20.6723 4.28756
18.2355 20.6812 4.28717
18.2668 20.6497 4.29035
18.2983 20.618 4.29358
18.3301 20.586 4.29716
18.3618 20.5541 4.30093
18.3938 20.5221 4.30559
18.426 20.4899 4.31087
18.4582 20.4577 4.31681
18.4903 20.4256 4.32221
18.5228 20.3938 4.32848
18.5555 20.3623 4.33561
18.5882 20.3308 4.34409
18.6208 20.2991 4.35275
18.6516 20.2657 4.36261
18.6811 20.2314 4.37327
18.7111 20.1974 4.38399
18.7411 20.1635 4.39356
18.7711 20.1296 4.40319
18.8009 20.0959 4.41353
18.8307 20.0624 4.42488
18.8605 20.0288 4.43634
18.8902 19.9955 4.44912
18.9198 19.9623 4.46282
18.9484 19.9284 4.47753
18.976 19.8934 4.49172
19.0035 19.8584 4.50681
19.031 19.8235 4.52262
19.0582 19.7887 4.5395
19.0855 19.754 4.55659
19.1126 19.7194 4.5741
19.1396 19.6849 4.59188
19.1396 19.6289 4.60779
19.1957 19.6183 4.62369
19.2239 19.5845 4.63973
19.25 19.5491 4.65555
19.2776 19.5154 4.67192
19.3048 19.4814 4.68793
19.3318 19.4476 4.70442
19.3587 19.414 4.72147
19.3854 19.3805 4.73906
19.4122 19.3469 4.75631
19.4389 19.3134 4.77425
19.4648 19.2795 4.79277
19.4897 19.2451 4.81217
19.5155 19.2115 4.83171
19.5415 19.1782 4.85198
19.5675 19.1451 4.8727
19.5924 19.111 4.89342
19.6178 19.077 4.91348
19.6422 19.0423 4.93342
19.666 19.0071 4.95366
19.6904 18.9726 4.97454
19.7151 18.9383 4.99545
19.7397 18.9041 5.01708
19.7642 18.8701 5.03914
19.7886 18.8361 5.06192
19.8132 18.8024 5.08482
19.8378 18.7687 5.1081
19.8621 18.735 5.13133
19.8858 18.7009 5.15472
19.9085 18.666 5.17806
19.9311 18.6312 5.20152
19.9537 18.5965 5.22491
19.9453 18.5349 5.2391
20.0001 18.5257 5.2715
20.0234 18.49 5.2943
20.0448 18.454 5.31623
20.0662 18.4182 5.33779
20.0877 18.3823 5.35941
20.1094 18.3466 5.38087
20.1311 18.311 5.40212
20.1525 18.2752 5.42316
20.1732 18.2389 5.44423
20.194 18.2026 5.46521
20.2147 18.1664 5.48603
20.2356 18.1301 5.50659
20.2565 18.0938 5.52704
20.2775 18.0574 5.54728
20.2983 18.0209 5.56734
20.3188 17.9841 5.58736
20.3392 17.9474 5.60771
20.3603 17.9111 5.62832
20.3817 17.875 5.64881
20.4029 17.8386 5.66891
20.4238 17.802 5.68888
20.445 17.7653 5.7084
20.4664 17.7286 5.7276
20.488 17.6917 5.7464
20.508 17.6534 5.76462
20.5277 17.6146 5.78225
20.5486 17.5766 5.80015
20.573 17.5415 5.81911
20.5974 17.5064 5.83794
20.6225 17.4718 5.85687
20.648 17.4374 5.87588
20.6798 17.4096 5.89843
20.6981 17.3685 5.91437
20.7222 17.3338 5.93436
20.7464 17.2991 5.95421
20.7708 17.2643 5.97377
20.7953 17.2296 5.99313
20.8205 17.1951 6.01206
20.8463 17.1609 6.03069
20.8722 17.1266 6.04893
20.898 17.0923 6.06757
20.9239 17.0578 6.08555
20.9488 17.022 6.10217
20.9746 16.9865 6.11824
20.999 16.9493 6.13309
21.0227 16.9112 6.14667
21.0464 16.8728 6.15965
21.07 16.8344 6.17271
21.0931 16.7962 6.18662
21.1164 16.7583 6.20075
21.14 16.7206 6.21439
21.1656 16.6846 6.22837
21.1923 16.6496 6.24277
21.2195 16.6145 6.25634
21.249 16.5813 6.27029
21.2796 16.5486 6.28389
21.3101 16.5159 6.29768
21.3402 16.4824 6.31063
21.3695 16.4479 6.32272
21.3976 16.4119 6.33361
21.4257 16.3759 6.34439
21.4541 16.3398 6.35499
21.4825 16.3033 6.36512
21.4872 16.2458 6.36724
21.5391 16.2287 6.38697
21.5657 16.1904 6.39859
21.5907 16.1522 6.41
21.6165 16.1146 6.42146
21.6425 16.0768 6.43262
21.6688 16.0388 6.44319
21.6952 16.001 6.45346
21.7217 15.9631 6.46334
21.7482 15.9253 6.47348
21.7749 15.8876 6.48313
21.8019 15.85 6.49233
21.8281 15.8115 6.50038
21.8543 15.7732 6.5084
21.8808 15.7349 6.51581
21.9057 15.6954 6.52229
21.9303 15.6556 6.52851
21.9558 15.6164 6.53562
21.9812 15.5773 6.54265
22.0067 15.5382 6.54931
22.0324 15.4993 6.55548
22.058 15.4603 6.56159
22.0837 15.4215 6.5671
22.1098 15.3831 6.57236
22.1362 15.345 6.57727
22.1626 15.3068 6.58233
22.1891 15.2687 6.58714
22.2154 15.2308 6.59156
22.2418 15.193 6.59615
22.2672 15.1542 6.601
22.2913 15.1146 6.60582
22.3153 15.0751 6.61069
22.3145 15.0193 6.60328
22.3632 14.9966 6.62027
22.387 14.9576 6.62482
22.4107 14.9188 6.62938
22.4342 14.8803 6.6339
22.4578 14.8417 6.63847
22.4811 14.8032 6.64296
22.5044 14.7649 6.64739
22.5276 14.7268 6.6518
22.5508 14.6885 6.65628
22.5731 14.6496 6.66016
22.595 14.6107 6.66382
22.6169 14.5718 6.66726
22.6389 14.5329 6.67066
22.662 14.4947 6.67426
22.6852 14.4566 6.67772
22.7084 14.4185 6.68106
22.7316 14.3804 6.68449
22.7534 14.3414 6.68733
22.7755 14.3025 6.69012
22.7983 14.2639 6.69323
22.8205 14.225 6.6961
22.8421 14.1856 6.69863
22.8639 14.1461 6.70107
22.8857 14.1065 6.70333
22.9076 14.0671 6.70555
22.9295 14.0275 6.70765
22.9515 13.9878 6.70973
22.9734 13.9478 6.71168
22.9949 13.9076 6.71346
23.0165 13.8671 6.71524
23.038 13.8265 6.71711
23.0236 13.7652 6.70571
23.0819 13.7421 6.72034
23.1031 13.6999 6.72117
23.1216 13.6578 6.72243
23.1401 13.6156 6.72382
23.1587 13.5733 6.72511
23.1774 13.5307 6.72645
23.1962 13.488 6.72784
23.215 13.4452 6.72929
23.2337 13.4024 6.73078
23.2527 13.3596 6.7323
23.2704 13.3162 6.73337
23.2864 13.2717 6.73372
23.3021 13.2271 6.73395
23.3184 13.1824 6.73413
23.3347 13.1377 6.73423
23.351 13.0931 6.73431
23.3671 13.0487 6.73452
23.3833 13.0044 6.73476
23.4 12.9604 6.7351
23.4161 12.9162 6.7353
23.4307 12.8714 6.73518
23.446 12.8268 6.73517
23.4612 12.7821 6.73508
23.4756 12.7369 6.73431
23.49 12.6914 6.73326
23.5046 12.6458 6.73206
23.5179 12.6 6.73064
23.5343 12.5552 6.73035
23.5523 12.5111 6.73104
23.5704 12.467 6.73142
23.5886 12.4228 6.73166
23.6325 12.3892 6.74367
23.6222 12.3342 6.72839
23.6394 12.2886 6.72627
23.6565 12.2431 6.72438
23.6782 12.1997 6.72528
23.6976 12.1563 6.72651
23.7159 12.1132 6.72788
23.7344 12.0701 6.72915
23.7563 12.0291 6.73279
23.7785 11.9881 6.73634
23.8012 11.9475 6.74007
23.8216 11.9056 6.74212
23.8432 11.8643 6.74485
23.8648 11.8231 6.74776
23.8864 11.782 6.75067
23.908 11.7409 6.75356
23.9295 11.6998 6.75647
23.951 11.6588 6.7594
23.9726 11.6178 6.76234
23.9941 11.5767 6.76527
24.0156 11.5357 6.76818
24.0371 11.4946 6.77099
24.0598 11.454 6.7746
24.083 11.4138 6.77859
24.1062 11.3736 6.7826
24.1293 11.3334 6.78663
24.1514 11.2925 6.78988
24.173 11.2511 6.79275
24.1946 11.2097 6.79563
24.2162 11.1683 6.79845
24.2379 11.1267 6.80133
24.2597 11.0851 6.80419
24.2558 11.0282 6.78723
24.3028 10.9999 6.81103
24.3241 10.9572 6.81377
24.3451 10.9147 6.81601
24.3662 10.8721 6.81823
24.3872 10.8295 6.82057
24.4077 10.7868 6.82242
24.4272 10.7435 6.82327
24.4455 10.6999 6.82306
24.4629 10.6561 6.82221
24.4802 10.6125 6.82136
24.4974 10.569 6.82048
24.5146 10.5255 6.8196
24.5319 10.4819 6.81873
24.5491 10.4383 6.81789
24.5663 10.3947 6.81709
24.5834 10.3511 6.81632
24.5996 10.3073 6.81481
24.615 10.2631 6.81275
24.6304 10.219 6.81073
24.646 10.1751 6.80885
24.6616 10.1313 6.80694
24.6772 10.0875 6.80509
24.6928 10.0437 6.8033
24.7084 9.99951 6.80174
24.724 9.95472 6.80038
24.7396 9.90976 6.79913
24.754 9.86482 6.79695
24.7728 9.8215 6.79773
24.7932 9.77909 6.79955
24.8136 9.73658 6.80152
24.8327 9.69422 6.80324
24.8796 9.66466 6.8217
24.8718 9.60624 6.80894
24.8938 9.56553 6.81136
24.9158 9.5249 6.81379
24.9373 9.48413 6.81585
24.9585 9.44302 6.81789
24.9798 9.40189 6.81998
25.001 9.36086 6.82209
25.0227 9.32013 6.82454
25.0449 9.27958 6.82723
25.0658 9.23825 6.82935
25.0858 9.1965 6.83112
25.1067 9.15533 6.83348
25.1276 9.11414 6.83586
25.1486 9.07297 6.83829
25.1694 9.0318 6.84075
25.1902 8.9906 6.84315
25.2101 8.94893 6.84504
25.23 8.90723 6.84689
25.2499 8.86552 6.84876
25.27 8.82382 6.85068
25.2886 8.78143 6.85201
25.3082 8.73936 6.85373
25.3281 8.69744 6.85562
25.3479 8.65555 6.85763
25.3675 8.61378 6.85975
25.3872 8.57199 6.86194
25.4075 8.53034 6.86425
25.4295 8.48942 6.86726
25.4507 8.44826 6.87012
25.4721 8.40697 6.87286
25.4935 8.3656 6.87559
25.4952 8.31296 6.86825
25.5362 8.28075 6.8772
25.5568 8.23876 6.87945
25.5766 8.19614 6.88101
25.5962 8.15322 6.88249
25.6158 8.11038 6.88376
25.6362 8.0679 6.88531
25.6571 8.02571 6.88719
25.6779 7.98351 6.88917
25.697 7.94048 6.89049
25.7156 7.89718 6.89171
25.7339 7.85371 6.89291
25.7521 7.81019 6.89419
25.7704 7.76667 6.89544
25.7885 7.72307 6.89673
25.8068 7.67952 6.89813
25.8254 7.63607 6.89966
25.8439 7.59261 6.90115
25.8617 7.54885 6.90243
25.8787 7.5048 6.9035
25.8954 7.46069 6.90461
25.9099 7.41585 6.90483
25.9244 7.37094 6.90519
25.9383 7.32579 6.90538
25.9515 7.28035 6.9054
25.9647 7.23488 6.90537
25.9782 7.18944 6.90547
25.9919 7.14406 6.90574
26.0065 7.09909 6.90647
26.0201 7.05398 6.90684
26.0331 7.00879 6.90688
26.0461 6.96367 6.90689
26.071 6.92169 6.9121
26.0727 6.87242 6.90617
26.0864 6.82663 6.90573
26.1021 6.78206 6.90663
26.1185 6.73793 6.9079
26.1351 6.69397 6.90931
26.1517 6.65016 6.91072
26.1682 6.6064 6.91213
26.1848 6.56271 6.91357
26.2013 6.51895 6.91502
26.2183 6.47545 6.9168
26.236 6.43231 6.919
26.2536 6.38923 6.92121
26.2712 6.34617 6.92339
26.2888 6.30315 6.92559
26.3065 6.26021 6.92787
26.3243 6.21736 6.93041
26.3434 6.17495 6.93386
26.3605 6.13174 6.93606
26.3777 6.08855 6.93826
26.3949 6.04546 6.9404
26.4122 6.00245 6.94259
26.4319 5.96066 6.94639
26.4516 5.91886 6.95011
26.4706 5.87642 6.95308
26.4891 5.83357 6.95584
26.5078 5.79067 6.9585
26.5287 5.74867 6.96263
26.5535 5.70928 6.96935
26.5776 5.66967 6.97561
26.6001 5.62924 6.98045
26.6224 5.58879 6.98493
26.6491 5.55128 6.99308
26.6659 5.50759 6.99357
26.6875 5.46701 6.99806
26.7091 5.42647 7.00248
26.7307 5.38601 7.00679
26.7508 5.34451 7.00973
26.7692 5.30206 7.01115
26.7884 5.25988 7.013
26.8086 5.21806 7.01534
26.8286 5.17622 7.01771
26.8488 5.13428 7.01999
26.8689 5.09222 7.0221
26.8893 5.05009 7.02413
26.9098 5.00796 7.0262
26.9303 4.96582 7.02821
26.9509 4.92366 7.03019
26.9714 4.88166 7.03221
26.9917 4.83986 7.0343
27.012 4.79817 7.03649
27.033 4.75678 7.03918
27.0541 4.71522 7.04186
27.0753 4.67356 7.04451
27.0966 4.63161 7.04712
27.1181 4.58946 7.04971
27.1397 4.54722 7.0523
27.1611 4.50529 7.05492
27.1826 4.46316 7.05756
27.2043 4.42075 7.0603
27.2265 4.37778 7.06279
27.2491 4.33467 7.06491
27.2707 4.29007 7.06572
27.2925 4.24513 7.0665
27.2835 4.18431 7.04725
27.3339 4.15206 7.06765
27.3539 4.10646 7.06826
27.3741 4.06056 7.06894
27.3946 4.01442 7.06983
27.4152 3.96811 7.0706
27.4359 3.92154 7.07134
27.4559 3.87457 7.07168
27.475 3.82724 7.07135
27.4933 3.77983 7.0704
27.5114 3.73252 7.06948
27.5296 3.68518 7.06862
27.5477 3.6378 7.06785
27.5645 3.58989 7.06622
27.5808 3.5418 7.0644
27.5989 3.49436 7.06392
27.6167 3.44667 7.06311
27.6346 3.39875 7.06203
27.6517 3.35055 7.0603
27.6686 3.30251 7.0587
27.6864 3.25517 7.05804
27.7036 3.20775 7.05709
27.7199 3.16058 7.056
27.7357 3.11363 7.05488
27.7511 3.06675 7.05374
27.7668 3.01944 7.05243
27.7822 2.97243 7.05129
27.7974 2.92589 7.05035
27.8115 2.87981 7.04925
27.8249 2.83361 7.04777
27.838 2.78803 7.04652
27.8509 2.74285 7.04541
27.8443 2.69279 7.03149
27.8766 2.65288 7.04321
27.8903 2.60811 7.04251
27.9047 2.56354 7.04218
27.9185 2.51958 7.04193
27.9323 2.47575 7.04176
27.9447 2.4324 7.04128
27.9563 2.3893 7.04056
27.9677 2.34661 7.04
27.98 2.30381 7.03985
27.9903 2.2609 7.03864
28.0003 2.21831 7.03752
28.0099 2.17616 7.03671
28.0195 2.13403 7.03593
28.0289 2.09218 7.03538
28.0385 2.05055 7.03519
28.0482 2.009 7.03512
28.0577 1.96718 7.03456
28.0672 1.92524 7.03394
28.0761 1.88318 7.0329
28.0848 1.841 7.03175
28.0952 1.79906 7.03195
28.1053 1.75708 7.03206
28.113 1.71476 7.03012
28.1225 1.67296 7.03023
28.1319 1.63115 7.03037
28.1413 1.5892 7.03052
28.1508 1.54713 7.03065
28.1606 1.50481 7.03062
28.1701 1.4624 7.03034
28.18 1.41969 7.02973
28.19 1.37674 7.02894
28.1981 1.33318 7.02633
28.2103 1.29083 7.02702
28.221 1.2479 7.02621
28.2335 1.20503 7.02645
28.2463 1.16174 7.02644
28.2592 1.11842 7.0264
28.2722 1.0747 7.02625
28.2854 1.0307 7.02603
28.2968 0.986021 7.02454
28.3061 0.941208 7.02202
28.3156 0.896251 7.01971
28.3258 0.851161 7.01768
28.3375 0.806115 7.01646
28.3492 0.761061 7.01518
28.3609 0.715827 7.01387
28.3727 0.670481 7.01258
28.3845 0.62514 7.01129
28.3962 0.579972 7.00999
28.4079 0.534884 7.00876
28.4189 0.48956 7.00715
28.4276 0.443737 7.00446
28.4357 0.397806 7.0015
28.4437 0.351725 6.99857
28.4522 0.305622 6.99591
28.4609 0.259459 6.99321
28.4695 0.213397 6.99039
28.4782 0.167285 6.98755
28.4868 0.121118 6.98496
28.4959 0.0748241 6.9823
28.5052 0.0283704 6.97906
28.5128 -0.0184372 6.97495
28.5203 -0.0652141 6.97093
28.505 -0.114929 6.96084
28.5351 -0.1582 6.96363
28.5423 -0.20435 6.96054
28.5495 -0.250421 6.95764
28.5572 -0.296351 6.95517
28.5659 -0.342266 6.95283
28.5734 -0.388405 6.9503
28.5801 -0.4346 6.94768
28.5867 -0.480785 6.94507
28.5935 -0.526978 6.94224
28.5997 -0.57319 6.93923
28.6035 -0.619595 6.93566
28.6073 -0.666052 6.93212
28.6111 -0.712548 6.92859
28.6147 -0.759063 6.92514
28.6182 -0.805583 6.92168
28.6208 -0.852082 6.91813
28.6232 -0.898519 6.91454
28.6256 -0.944895 6.91105
28.6279 -0.991296 6.90762
28.6289 -1.0377 6.90388
28.6312 -1.08442 6.90047
28.6377 -1.13056 6.89814
28.6388 -1.17706 6.89452
28.64 -1.22352 6.89082
28.6426 -1.26986 6.8874
28.6467 -1.3162 6.88423
28.6508 -1.36278 6.88109
28.6531 -1.40937 6.87726
28.6544 -1.45553 6.87301
28.6553 -1.50182 6.86837
28.6557 -1.54799 6.8635
28.6891 -1.59578 6.86983
28.666 -1.64637 6.85229
28.6735 -1.69094 6.84997
28.6784 -1.73753 6.84657
28.6833 -1.78404 6.84317
28.6883 -1.83057 6.8397
28.6959 -1.87689 6.8375
28.704 -1.92318 6.83556
28.7121 -1.96941 6.83362
28.7192 -2.01575 6.83115
28.7244 -2.06195 6.82785
28.7333 -2.10764 6.82683
28.7422 -2.15345 6.82576
28.7512 -2.19947 6.82463
28.7602 -2.24556 6.82341
28.7663 -2.29194 6.82021
28.7724 -2.33835 6.81707
28.7807 -2.38448 6.8156
28.79 -2.43056 6.81481
28.7992 -2.47666 6.81402
28.8085 -2.52281 6.81321
28.8182 -2.56885 6.8128
28.8283 -2.61485 6.81261
28.8382 -2.66092 6.81212
28.8482 -2.70699 6.81153
28.8582 -2.75306 6.81095
28.8689 -2.79897 6.81082
28.8797 -2.84484 6.81068
28.8906 -2.89071 6.81046
28.9025 -2.93639 6.81115
28.9144 -2.9821 6.81188
28.9263 -3.02771 6.81248
28.95 -3.07023 6.82398
28.9501 -3.11951 6.814
28.9625 -3.16486 6.81545
28.9748 -3.21012 6.81693
28.9871 -3.25527 6.81841
28.9995 -3.30046 6.81987
29.0117 -3.34554 6.82126
29.0237 -3.39055 6.82251
29.0367 -3.43509 6.82464
29.0497 -3.47969 6.82676
29.0627 -3.52421 6.82884
29.0758 -3.56866 6.83091
29.0887 -3.61302 6.83297
29.1017 -3.65736 6.83505
29.1147 -3.70169 6.83711
29.1277 -3.74601 6.83916
29.1403 -3.79057 6.84076
29.1523 -3.83538 6.84186
29.1645 -3.88031 6.84293
29.1766 -3.92529 6.84398
29.1866 -3.97086 6.84324
29.1963 -4.01639 6.84225
29.206 -4.06195 6.84127
29.2157 -4.10755 6.84031
29.2254 -4.15323 6.83941
29.2351 -4.19899 6.83854
29.2447 -4.24473 6.83772
29.2539 -4.29039 6.83669
29.2622 -4.33628 6.83483
29.2706 -4.38237 6.83283
29.2786 -4.42862 6.83078
29.2864 -4.47508 6.82854
29.2439 -4.52831 6.78542
29.3015 -4.56918 6.82467
29.3089 -4.61648 6.82297
29.3146 -4.66352 6.81982
29.3199 -4.71073 6.81655
29.3232 -4.75698 6.81092
29.3258 -4.80278 6.80459
29.3302 -4.84884 6.8001
29.3345 -4.89482 6.79561
29.339 -4.94067 6.79102
29.342 -4.9864 6.78514
29.3443 -5.03207 6.77859
29.3456 -5.07783 6.7713
29.347 -5.12375 6.76399
29.3483 -5.16981 6.75673
29.3496 -5.2159 6.74956
29.3509 -5.26191 6.74253
29.3522 -5.30776 6.73556
29.354 -5.35353 6.72912
29.3568 -5.39935 6.72353
29.3596 -5.44522 6.71795
29.361 -5.49104 6.71125
29.3644 -5.53713 6.70606
29.368 -5.58323 6.70094
29.3716 -5.62944 6.69574
29.3753 -5.67563 6.69058
29.379 -5.72192 6.6853
29.3813 -5.76824 6.67881
29.383 -5.81466 6.67156
29.3846 -5.86105 6.66433
29.3863 -5.90757 6.65691
29.3882 -5.95414 6.64934
29.3811 -6.00018 6.63524
29.3913 -6.04778 6.63368
29.3919 -6.09445 6.62511
29.392 -6.14078 6.61577
29.3921 -6.18718 6.6063
29.3922 -6.23363 6.59685
29.3923 -6.28017 6.58733
29.3924 -6.32677 6.57778
29.3947 -6.37372 6.56974
29.3964 -6.42054 6.56131
29.3977 -6.46737 6.5527
29.3991 -6.51424 6.54414
29.4011 -6.56123 6.53628
29.4036 -6.60825 6.52883
29.4064 -6.65535 6.52179
29.4095 -6.7025 6.5152
29.4126 -6.74967 6.50867
29.4158 -6.7968 6.50199
29.419 -6.84393 6.49543
29.4223 -6.8911 6.48928
29.4276 -6.93835 6.48502
29.4331 -6.98565 6.4807
29.4359 -7.0329 6.47502
29.4393 -7.0802 6.47006
29.4441 -7.12736 6.46652
29.4485 -7.17452 6.46255
29.4522 -7.22161 6.45849
29.4558 -7.26867 6.45457
29.4593 -7.31565 6.45088
29.4628 -7.36257 6.44727
29.4662 -7.4095 6.44366
29.4697 -7.45648 6.43996
29.501 -7.50288 6.45312
29.4762 -7.55038 6.43183
29.4794 -7.59816 6.42649
29.4827 -7.64573 6.42114
29.4884 -7.69316 6.41732
29.494 -7.74002 6.4136
29.4993 -7.78648 6.41025
29.5045 -7.83292 6.40715
29.5097 -7.87923 6.40449
29.5153 -7.92563 6.40185
29.5194 -7.97197 6.39881
29.5232 -8.01821 6.39614
29.5287 -8.06411 6.39546
29.5365 -8.10965 6.39656
29.544 -8.15526 6.39801
29.5513 -8.20089 6.39977
29.5571 -8.24681 6.40046
29.5623 -8.29279 6.40006
29.5674 -8.33886 6.39983
29.573 -8.38495 6.40052
29.5795 -8.43085 6.40302
29.586 -8.47667 6.40558
29.5919 -8.52248 6.4086
29.5946 -8.56893 6.40872
29.5963 -8.61543 6.40849
29.6 -8.66152 6.40994
29.6048 -8.70731 6.41296
29.6093 -8.75313 6.4162
29.6136 -8.79895 6.41981
29.6177 -8.84477 6.42353
29.6217 -8.89066 6.42742
29.6261 -8.93661 6.43169
29.6341 -8.98196 6.43907
29.6368 -9.02848 6.44042
29.6421 -9.07455 6.44398
29.6469 -9.12079 6.44717
29.6516 -9.16704 6.45054
29.6585 -9.21279 6.45663
29.6657 -9.25842 6.46358
29.6715 -9.30435 6.46926
29.6772 -9.35005 6.47524
29.6838 -9.39538 6.48191
29.6901 -9.4405 6.48885
29.6929 -9.48652 6.49233
29.6949 -9.53254 6.49627
29.699 -9.57785 6.50299
29.7025 -9.62324 6.50996
29.7051 -9.66884 6.5165
29.7076 -9.71471 6.52317
29.7107 -9.76077 6.5295
29.7111 -9.80772 6.53233
29.7107 -9.85483 6.53457
29.7084 -9.90228 6.53529
29.706 -9.94962 6.53611
29.7029 -9.99703 6.53762
29.6979 -10.0445 6.53695
29.6926 -10.0919 6.53646
29.687 -10.1388 6.53467
29.6799 -10.1854 6.53115
29.6712 -10.2314 6.52646
29.6662 -10.2797 6.5271
29.6565 -10.3271 6.522
29.6465 -10.3749 6.51633
29.6367 -10.4223 6.51053
29.6184 -10.4663 6.49453
29.6267 -10.5133 6.51727
29.6216 -10.5673 6.50959
29.612 -10.6103 6.49998
29.6054 -10.6546 6.4945
29.5995 -10.7 6.49062
29.593 -10.7459 6.48707
29.5864 -10.7913 6.48375
29.5793 -10.8367 6.48075
29.5719 -10.8823 6.47689
29.5637 -10.9278 6.47338
29.5576 -10.9738 6.47345
29.5514 -11.0197 6.47503
29.5458 -11.0654 6.47735
29.5396 -11.1109 6.48021
29.5329 -11.1563 6.48349
29.5262 -11.2016 6.48685
29.5201 -11.2471 6.48958
29.5118 -11.2925 6.49
29.5028 -11.3376 6.49072
29.4935 -11.3828 6.4926
29.4842 -11.428 6.49457
29.4741 -11.4731 6.49743
29.4633 -11.5182 6.50081
29.4525 -11.5632 6.50533
29.4426 -11.6082 6.5104
29.4323 -11.6532 6.51587
29.4211 -11.6981 6.52087
29.4091 -11.7432 6.52637
29.3974 -11.7882 6.53265
29.3849 -11.8334 6.53841
29.3724 -11.8787 6.54426
29.3609 -11.9245 6.55011
29.3493 -11.9703 6.55438
29.3387 -12.0165 6.55866
29.328 -12.0627 6.56299
29.3168 -12.1091 6.56726
29.3051 -12.1553 6.57144
29.2927 -12.2015 6.5761
29.2799 -12.2475 6.58118
29.2662 -12.2934 6.58643
29.2528 -12.3394 6.5913
29.2389 -12.3851 6.59688
29.2235 -12.4304 6.60236
29.2085 -12.4756 6.60988
29.194 -12.5208 6.61787
29.1788 -12.5657 6.62671
29.1631 -12.6102 6.63615
29.1474 -12.6547 6.64577
29.1322 -12.6995 6.65459
29.1174 -12.7442 6.66393
29.1025 -12.7886 6.67405
29.0867 -12.8325 6.68466
29.0727 -12.8766 6.69679
29.0582 -12.9203 6.70997
29.042 -12.9633 6.72272
29.0248 -13.0059 6.73588
29.0079 -13.0487 6.74879
28.9906 -13.091 6.7621
28.9731 -13.1332 6.77572
28.9551 -13.1749 6.78979
28.937 -13.2165 6.80405
28.919 -13.258 6.81824
28.9032 -13.2956 6.83408
28.8627 -13.3394 6.82508
28.87 -13.3867 6.86405
28.8521 -13.4287 6.87286
28.8345 -13.4714 6.88229
28.8201 -13.5137 6.89441
28.8037 -13.557 6.90696
28.7828 -13.5983 6.91615
28.7674 -13.6404 6.92977
28.752 -13.6818 6.94356
28.7343 -13.7235 6.95605
28.7106 -13.7631 6.96326
28.6865 -13.8022 6.97091
28.6625 -13.8409 6.98103
28.6389 -13.8796 6.99203
28.6148 -13.9176 7.00358
28.5902 -13.9552 7.01533
28.5654 -13.9929 7.0263
28.5414 -14.0314 7.03635
28.5173 -14.0698 7.04575
28.4934 -14.1077 7.05602
28.4694 -14.1452 7.0677
28.4451 -14.1828 7.07957
28.4221 -14.2196 7.09531
28.3989 -14.2565 7.11136
28.3708 -14.289 7.12247
28.3437 -14.32 7.13251
28.3169 -14.3507 7.14251
28.2896 -14.3824 7.15241
28.2656 -14.4172 7.16814
28.2426 -14.4519 7.1878
28.2147 -14.487 7.20414
28.1859 -14.523 7.22103
28.1115 -14.5466 7.18572
28.1424 -14.605 7.23306
28.1182 -14.6466 7.25072
28.0928 -14.6884 7.26681
28.0535 -14.724 7.27286
28.025 -14.7624 7.28388
27.9974 -14.7993 7.29453
27.9677 -14.8352 7.3047
27.9351 -14.8682 7.31268
27.9028 -14.9011 7.32035
27.8706 -14.933 7.32884
27.8381 -14.9642 7.33806
27.8016 -14.9918 7.34486
27.763 -15.0177 7.34926
27.7244 -15.0439 7.35585
27.6866 -15.0706 7.36446
27.649 -15.0973 7.37288
27.6121 -15.1251 7.38022
27.5767 -15.1538 7.38878
27.5437 -15.1838 7.40084
27.5103 -15.2131 7.41372
27.4768 -15.2422 7.42675
27.4427 -15.2703 7.44102
27.4082 -15.2977 7.45618
27.3723 -15.3235 7.4712
27.3366 -15.3496 7.48567
27.3004 -15.375 7.50087
27.2636 -15.3997 7.51877
