BEGIN_Polyline
-19.2975 13.6368 6.95982
-19.2746 13.6755 6.96163
-19.2518 13.7142 6.96346
-19.2289 13.7529 6.96536
-19.206 13.7915 6.96734
-19.183 13.8303 6.96938
-19.1596 13.8691 6.97118
-19.1347 13.9071 6.97207
-19.11 13.9455 6.97317
-19.0878 13.9854 6.97582
-19.0653 14.0254 6.97873
-19.0428 14.0654 6.98171
-19.0202 14.1054 6.98497
-18.997 14.1458 6.98891
-19.0214 14.2102 7.01755
-18.9543 14.2208 6.98594
-18.9253 14.2598 6.98907
-18.9005 14.3006 6.99454
-18.8758 14.3426 7.00175
-18.8537 14.3831 7.00737
-18.8325 14.4232 7.0127
-18.8107 14.4639 7.01858
-18.7889 14.5047 7.02451
-18.7673 14.5452 7.03027
-18.7457 14.5859 7.03591
-18.724 14.6268 7.04156
-18.7023 14.6679 7.04717
-18.6805 14.7091 7.05281
-18.6586 14.7505 7.05841
-18.6362 14.7919 7.06376
-18.6123 14.8325 7.06815
-18.5882 14.8727 7.07256
-18.5642 14.913 7.0769
-18.5401 14.9535 7.0811
-18.5161 14.9942 7.08503
-18.492 15.035 7.08894
-18.4681 15.0762 7.09251
-18.4452 15.1181 7.09649
-18.4223 15.1602 7.10025
-18.3994 15.2022 7.10425
-18.3765 15.2443 7.108
-18.354 15.2868 7.11167
-18.3319 15.3297 7.11503
-18.3103 15.3731 7.11867
-18.2895 15.4169 7.12238
-18.2687 15.4608 7.12586
-18.2546 15.5074 7.13338
-18.2264 15.5473 7.13339
-18.2044 15.5901 7.13645
-18.1825 15.6329 7.13928
-18.1607 15.6759 7.14171
-18.1389 15.7189 7.14409
-18.1173 15.7622 7.146
-18.0957 15.8056 7.14758
-18.0742 15.8491 7.1489
-18.0526 15.8926 7.15048
-18.0325 15.9368 7.15256
-18.0129 15.9814 7.15455
-17.9933 16.0261 7.15618
-17.9738 16.071 7.15787
-17.951 16.1145 7.15765
-17.9282 16.158 7.15697
-17.9054 16.2014 7.15622
-17.8826 16.2447 7.1556
-17.8597 16.2878 7.15488
-17.8364 16.3308 7.15378
-17.815 16.3746 7.15377
-17.7947 16.419 7.15446
-17.7744 16.4636 7.1551
-17.7541 16.5082 7.15571
-17.7338 16.5528 7.15621
-17.7135 16.5974 7.15655
-17.6926 16.6417 7.15652
-17.6715 16.6861 7.1566
-17.6503 16.7306 7.15685
-17.6292 16.7751 7.15707
-17.6078 16.8197 7.15761
-17.5845 16.8638 7.15789
-17.5539 16.9045 7.15347
-17.5375 16.9523 7.15862
-17.5141 16.9966 7.15895
-17.4907 17.041 7.15966
-17.467 17.0853 7.16066
-17.443 17.1295 7.16145
-17.4186 17.1733 7.16222
-17.3941 17.2171 7.16313
-17.3697 17.2608 7.16411
-17.3456 17.3048 7.16528
-17.3219 17.3487 7.16656
-17.2983 17.3925 7.16786
-17.2749 17.4359 7.16915
-17.2515 17.4794 7.17047
-17.2283 17.5225 7.17175
-17.2052 17.5654 7.17297
-17.1822 17.6083 7.17416
-17.159 17.6514 7.17545
-17.1359 17.6945 7.17662
-17.1132 17.7374 7.17783
-17.0912 17.7801 7.179
-17.0684 17.8224 7.17972
-17.0444 17.8635 7.17901
-17.0207 17.9042 7.17815
-16.9972 17.9448 7.17715
-16.9737 17.9855 7.17639
-16.9488 18.025 7.17426
-16.924 18.0644 7.17201
-16.8994 18.1038 7.16941
-16.875 18.1432 7.16644
-16.8502 18.1824 7.16316
-16.8247 18.2212 7.15929
-16.7894 18.2536 7.15027
-16.7725 18.2998 7.15244
-16.7459 18.3394 7.14949
-16.7193 18.3791 7.14645
-16.6928 18.4188 7.14322
-16.6664 18.4584 7.13987
-16.6381 18.496 7.13479
-16.61 18.5334 7.1294
-16.5823 18.5705 7.12375
-16.5544 18.6076 7.11834
-16.5271 18.6444 7.11262
-16.5001 18.6809 7.10661
-16.4738 18.7169 7.1001
-16.4475 18.7528 7.09343
-16.4213 18.7882 7.08622
-16.3955 18.8233 7.07879
-16.3696 18.8583 7.07147
-16.3395 18.8901 7.06223
-16.3089 18.9218 7.05264
-16.2785 18.9534 7.0428
-16.2486 18.9848 7.03263
-16.2191 19.0162 7.0226
-16.1904 19.0472 7.01219
-16.1621 19.0779 7.00156
-16.1342 19.1085 6.99055
-16.1059 19.1394 6.97948
-16.0768 19.1686 6.96744
-16.0469 19.1957 6.95466
-16.0176 19.2224 6.94171
-15.9882 19.2491 6.92877
-15.958 19.2734 6.91526
-15.928 19.2972 6.90191
-15.8922 19.3113 6.88553
-15.868 19.3446 6.8764
-15.838 19.368 6.86423
-15.8083 19.3912 6.85223
-15.779 19.4141 6.8404
-15.7497 19.437 6.82844
-15.7208 19.4597 6.81635
-15.6923 19.4822 6.8042
-15.664 19.5046 6.79187
-15.6357 19.5271 6.77956
-15.607 19.5488 6.76668
-15.5758 19.5661 6.75214
-15.5441 19.5828 6.7367
-15.5126 19.5996 6.72123
-15.4825 19.6193 6.70603
-15.4523 19.6391 6.69048
-15.422 19.6591 6.67485
-15.3918 19.6788 6.65975
-15.3608 19.6973 6.64417
-15.3292 19.7151 6.62795
-15.2973 19.7332 6.61115
-15.2654 19.7512 6.5943
-15.2332 19.7697 6.57676
-15.2006 19.7883 6.55877
-15.1675 19.8067 6.54017
-15.1343 19.8244 6.52165
-15.1008 19.8423 6.50283
-15.0672 19.8604 6.48371
-15.0332 19.8787 6.46413
-14.999 19.8972 6.44442
-14.9649 19.9157 6.42453
-14.9311 19.9352 6.40495
-14.8973 19.9527 6.38508
-14.8653 19.9732 6.3669
-14.8331 19.9918 6.34844
-14.8003 20.0091 6.32946
-14.7671 20.0258 6.3101
-14.7338 20.0426 6.29068
-14.6998 20.0598 6.27081
-14.6652 20.0772 6.25062
-14.63 20.095 6.22998
-14.5953 20.1133 6.2097
-14.5599 20.1323 6.18896
-14.5244 20.1533 6.16847
-14.4879 20.1751 6.1475
-14.4516 20.1979 6.12683
-14.4147 20.2212 6.10587
-14.3774 20.2446 6.08472
-14.3404 20.2679 6.06381
-14.3047 20.2906 6.04355
-14.2692 20.3132 6.0235
-14.2331 20.3358 6.00316
-14.1957 20.3581 5.98198
-14.1579 20.3806 5.96053
-14.1188 20.4041 5.93854
-14.0786 20.4281 5.91623
-14.0371 20.4505 5.89293
-13.9967 20.4727 5.87033
-13.9544 20.4923 5.8461
-13.9109 20.5122 5.82133
-13.8654 20.533 5.79568
-13.8201 20.5554 5.77044
-13.7731 20.5788 5.74441
-13.7252 20.6027 5.71793
-13.6854 20.6555 5.70021
-13.6285 20.6513 5.66335
-13.5821 20.6804 5.6376
-13.5366 20.7098 5.61341
-13.4872 20.7337 5.58541
-13.4399 20.7645 5.55933
-13.3917 20.7969 5.53312
-13.3412 20.8256 5.50569
-13.2906 20.8547 5.47845
-13.2407 20.8836 5.45128
-13.1909 20.9123 5.42455
-13.1407 20.941 5.39809
-13.0902 20.9698 5.37223
-13.039 20.9978 5.34619
-12.9869 21.0238 5.32024
-12.9373 21.0554 5.29629
-12.8886 21.0896 5.27296
-12.8403 21.1248 5.24891
-12.793 21.162 5.22568
-12.7465 21.2001 5.20356
-12.7003 21.2376 5.18261
-12.6522 21.2721 5.16086
-12.6046 21.3053 5.14054
-12.5575 21.338 5.12143
-12.5137 21.3747 5.10456
-12.4714 21.4143 5.08725
-12.4289 21.4526 5.07117
-12.3867 21.4895 5.05621
-12.3464 21.5259 5.04321
-12.3062 21.562 5.03051
-12.2673 21.5969 5.01885
-12.2292 21.631 5.00782
-12.212 21.6894 5.00097
-12.1526 21.7 4.98286
-12.1142 21.7349 4.96896
-12.0768 21.7688 4.9557
-12.041 21.8012 4.94356
-12.0053 21.8334 4.93185
-11.9718 21.8646 4.92211
-11.9398 21.8951 4.91369
-11.9082 21.9242 4.90629
-11.8758 21.9541 4.89778
-11.8429 21.9818 4.89026
-11.8108 22.0085 4.88413
-11.78 22.034 4.88001
-11.7495 22.0592 4.87613
-11.7198 22.0836 4.87387
-11.6906 22.1076 4.87262
-11.6613 22.1316 4.87174
-11.631 22.1565 4.86955
-11.6003 22.1817 4.86739
-11.5699 22.2067 4.86594
-11.5397 22.2314 4.86537
-11.5097 22.256 4.86485
-11.4805 22.2805 4.86544
-11.4529 22.3061 4.86679
-11.4256 22.3313 4.86905
-11.3975 22.3559 4.87129
-11.369 22.3795 4.87381
-11.3408 22.403 4.87637
-11.3127 22.4263 4.87892
-11.2847 22.4495 4.88167
-11.2568 22.4727 4.88357
-11.2289 22.496 4.88472
-11.1613 22.4722 4.87966
-11.1726 22.543 4.88418
-11.1443 22.5667 4.88212
-11.116 22.5906 4.87925
-11.0874 22.6148 4.8754
-11.0589 22.6389 4.87173
-11.0301 22.6632 4.86789
-11.0008 22.6874 4.86387
-10.9701 22.7099 4.86007
-10.9396 22.7322 4.85659
-10.909 22.7548 4.85386
-10.8783 22.7775 4.85151
-10.8471 22.8005 4.84974
-10.815 22.823 4.84784
-10.7827 22.8455 4.84643
-10.7504 22.8681 4.84549
-10.7187 22.8902 4.84467
-10.688 22.9117 4.84314
-10.6574 22.9328 4.84194
-10.6265 22.9541 4.84138
-10.5941 22.9748 4.84181
-10.5612 22.9952 4.8424
-10.5269 23.0164 4.84416
-10.4915 23.0382 4.84672
-10.4549 23.0606 4.8497
-10.4191 23.0828 4.85166
-10.3819 23.1057 4.85414
-10.3422 23.1268 4.85739
-10.3002 23.1488 4.86176
-10.2579 23.1711 4.8662
-10.2135 23.1944 4.87155
-10.1693 23.2188 4.87746
-10.0847 23.1731 4.87958
-10.0803 23.2682 4.88931
-10.0355 23.293 4.89496
-9.98966 23.3183 4.90107
-9.94226 23.3444 4.90792
-9.89465 23.3707 4.91501
-9.84563 23.3976 4.92278
-9.79461 23.423 4.93081
-9.74261 23.4479 4.93886
-9.6921 23.4736 4.94634
-9.64074 23.4981 4.95369
-9.5886 23.5222 4.96144
-9.53581 23.5465 4.96988
-9.48251 23.5703 4.97831
-9.4276 23.5916 4.98725
-9.37198 23.6114 4.99652
-9.31617 23.6313 5.00622
-9.26036 23.6513 5.01581
-9.20505 23.6713 5.02558
-9.15012 23.6912 5.0355
-9.09544 23.7092 5.04536
-9.04068 23.7265 5.05498
-8.98685 23.7435 5.06448
-8.93378 23.7603 5.07393
-8.88094 23.777 5.08356
-8.82687 23.7941 5.09365
-8.7734 23.8105 5.1036
-8.72055 23.8246 5.11302
-8.66962 23.8382 5.12189
-8.61854 23.8499 5.13035
-8.56926 23.8613 5.13775
-8.52146 23.8724 5.14465
-8.46013 23.831 5.14271
-8.41931 23.894 5.15219
-8.37073 23.9021 5.15861
-8.32358 23.9099 5.16373
-8.27888 23.9172 5.16811
-8.23429 23.9245 5.17158
-8.19208 23.9312 5.1737
-8.15146 23.9374 5.17524
-8.11223 23.9435 5.17643
-8.07173 23.9497 5.17833
-8.03221 23.9558 5.18022
-7.99386 23.9617 5.18176
-7.95729 23.9679 5.1829
-7.92117 23.9742 5.18392
-7.88601 23.9804 5.18461
-7.85124 23.9863 5.18514
-7.81594 23.9918 5.18556
-7.77941 23.9976 5.18606
-7.74206 24.0034 5.18675
-7.70481 24.0092 5.18755
-7.66799 24.0161 5.18874
-7.63153 24.023 5.18997
-7.59575 24.0297 5.1915
-7.56031 24.0364 5.19328
-7.52529 24.0427 5.19511
-7.49006 24.049 5.19652
-7.45528 24.0553 5.19821
-7.42091 24.0614 5.20032
-7.387 24.0674 5.20312
-7.353 24.0733 5.20599
-7.31932 24.0791 5.20964
-7.28585 24.0846 5.21383
-7.25165 24.0845 5.2177
-7.21952 24.0958 5.22275
-7.18629 24.1007 5.22724
-7.15293 24.1055 5.23228
-7.11929 24.1103 5.23807
-7.08565 24.115 5.24393
-7.0515 24.1201 5.25046
-7.01692 24.1253 5.2574
-6.98188 24.1307 5.2646
-6.94718 24.1364 5.27144
-6.91171 24.1413 5.27822
-6.87568 24.1464 5.2852
-6.83868 24.1515 5.29239
-6.80138 24.1567 5.29959
-6.76348 24.162 5.30697
-6.7252 24.1674 5.31442
-6.68743 24.1727 5.32207
-6.65107 24.1783 5.32995
-6.61492 24.1838 5.33775
-6.57809 24.1895 5.34538
-6.54006 24.1954 5.35262
-6.50173 24.2014 5.35977
-6.46164 24.2083 5.36644
-6.42057 24.2168 5.37276
-6.37805 24.2247 5.37887
-6.33657 24.232 5.38553
-6.29372 24.2396 5.39175
-6.24943 24.2476 5.39736
-6.2032 24.257 5.40198
-6.15711 24.2685 5.40652
-6.10932 24.2804 5.41003
-6.06042 24.2925 5.41283
-6.01087 24.3024 5.41515
-5.96391 24.3157 5.41819
-5.91614 24.3246 5.42072
-5.86741 24.3343 5.42258
-5.81714 24.3442 5.42348
-5.76621 24.3525 5.4243
-5.71316 24.3603 5.42424
-5.65886 24.3682 5.42361
-5.6034 24.3763 5.4226
-5.54887 24.3843 5.4221
-5.49319 24.3903 5.4214
-5.43635 24.3946 5.42017
-5.37836 24.4012 5.41876
-5.32058 24.4105 5.41756
-5.26175 24.4201 5.4161
-5.20234 24.4295 5.41452
-5.14272 24.4388 5.41272
-5.08395 24.4491 5.41097
-5.02546 24.4593 5.40928
-4.96691 24.4705 5.40789
-4.90919 24.4856 5.40714
-4.85139 24.5007 5.4064
-4.79335 24.5151 5.40609
-4.73526 24.5292 5.40615
-4.6767 24.5416 5.40635
-4.61776 24.5535 5.40607
-4.55909 24.5654 5.4062
-4.50117 24.579 5.40693
-4.44382 24.5919 5.40854
-4.38666 24.6047 5.41022
-4.33058 24.6185 5.41288
-4.27531 24.6327 5.41615
-4.21935 24.643 5.41988
-4.16452 24.6612 5.42276
-4.10923 24.6755 5.4261
-4.05483 24.6895 5.43008
-4.00173 24.7032 5.43501
-3.94877 24.7171 5.44004
-3.89726 24.7307 5.44596
-3.84676 24.7441 5.45243
-3.79681 24.7559 5.45934
-3.74595 24.7671 5.46577
-3.6957 24.7778 5.47241
-3.64622 24.7884 5.47941
-3.59789 24.7987 5.48685
-3.54982 24.809 5.49437
-3.50243 24.8191 5.50219
-3.45538 24.8291 5.51012
-3.408 24.8391 5.51809
-3.35919 24.8466 5.52602
-3.30973 24.8536 5.53369
-3.26043 24.8604 5.54121
-3.21147 24.8672 5.5485
-3.16279 24.8739 5.55588
-3.11487 24.8804 5.563
-3.06706 24.8848 5.5698
-3.01963 24.888 5.57644
-2.97205 24.8913 5.58343
-2.92486 24.8946 5.5901
-2.87796 24.8978 5.59635
-2.83151 24.9005 5.60195
-2.78528 24.9032 5.60748
-2.73903 24.9058 5.61234
-2.69268 24.9085 5.61676
-2.64195 24.8465 5.62188
-2.59776 24.9139 5.62535
-2.54927 24.9167 5.62961
-2.50082 24.9165 5.63376
-2.45199 24.9159 5.63708
-2.4047 24.9154 5.64052
-2.35839 24.9149 5.64318
-2.31205 24.9144 5.6452
-2.26601 24.9138 5.64675
-2.21978 24.9133 5.64882
-2.17392 24.9104 5.65055
-2.12846 24.9059 5.65177
-2.08331 24.9002 5.65228
-2.03807 24.8945 5.65271
-1.99297 24.8894 5.65256
-1.94808 24.8845 5.65207
-1.90339 24.8795 5.65146
-1.8586 24.8746 5.65127
-1.81403 24.8697 5.65109
-1.76968 24.8648 5.65072
-1.72563 24.86 5.65011
-1.68162 24.8552 5.64946
-1.63781 24.8503 5.64855
-1.59414 24.8455 5.6475
-1.55058 24.8393 5.6462
-1.50677 24.8327 5.64482
-1.46265 24.8287 5.64344
-1.4185 24.8267 5.64218
-1.37439 24.8246 5.64096
-1.33031 24.8226 5.6396
-1.28634 24.8208 5.63858
-1.24242 24.8194 5.63777
-1.19798 24.8315 5.63825
-1.15368 24.817 5.63772
-1.11 24.818 5.63794
-1.06631 24.819 5.63844
-1.02266 24.82 5.63928
-0.97899 24.8209 5.64008
-0.935245 24.8217 5.641
-0.891462 24.8224 5.64197
-0.847551 24.8231 5.64293
-0.803591 24.8238 5.64381
-0.759494 24.8245 5.64455
-0.715339 24.8253 5.6452
-0.671122 24.826 5.64572
-0.626744 24.8236 5.64612
-0.58258 24.8173 5.6462
-0.538144 24.8127 5.64618
-0.49405 24.8067 5.64612
-0.450432 24.8002 5.64627
-0.406983 24.7937 5.64636
-0.363364 24.7875 5.64627
-0.31947 24.782 5.64586
-0.275517 24.7766 5.64536
-0.231181 24.7711 5.64447
-0.186594 24.7655 5.64329
-0.141674 24.76 5.64206
-0.0968546 24.7544 5.64131
-0.0517234 24.7488 5.64036
-0.00641234 24.7432 5.63895
0.0394394 24.7384 5.637
0.0857494 24.7355 5.63512
0.132409 24.7336 5.63279
0.179381 24.7332 5.63008
0.226321 24.7443 5.62658
0.272652 24.7326 5.62443
0.318857 24.7323 5.62154
0.365212 24.7322 5.61845
0.411851 24.7321 5.61498
0.458605 24.7315 5.61147
0.505804 24.7307 5.6076
0.553265 24.73 5.60354
0.601027 24.7292 5.5993
0.648621 24.728 5.59526
0.69647 24.7262 5.59117
0.744537 24.7236 5.587
0.79294 24.7208 5.58269
0.841331 24.7172 5.57844
0.889918 24.7135 5.5741
0.938619 24.7099 5.56973
0.987247 24.7063 5.56534
1.03562 24.7027 5.56093
1.08386 24.6991 5.55661
1.13215 24.6955 5.55239
1.18052 24.6919 5.54832
1.22892 24.6878 5.54428
1.2775 24.6837 5.54047
1.32614 24.6792 5.53683
1.37479 24.6741 5.53344
1.42334 24.6689 5.52997
1.47199 24.6637 5.52666
1.52076 24.6586 5.52344
1.56967 24.6536 5.5205
1.6186 24.6495 5.51758
1.66768 24.6455 5.51483
1.71694 24.6408 5.51203
1.76536 24.6264 5.51039
1.81556 24.6298 5.50602
1.86485 24.6243 5.50288
1.91414 24.6188 5.4999
1.96335 24.6131 5.49725
2.01248 24.607 5.49468
2.06145 24.6011 5.49262
2.1104 24.5958 5.49089
2.15928 24.5912 5.4895
2.20818 24.5857 5.48798
2.25675 24.5791 5.48703
2.30513 24.5724 5.48648
2.3532 24.5659 5.48656
2.40119 24.5594 5.48679
2.44894 24.5529 5.48737
2.49653 24.5465 5.48816
2.54408 24.5393 5.48878
2.59186 24.5308 5.48882
2.63963 24.5222 5.48866
2.68716 24.5137 5.48871
2.73452 24.5071 5.48915
2.78176 24.5007 5.48988
2.82847 24.4947 5.49122
2.87481 24.489 5.49298
2.92091 24.4833 5.49474
2.96758 24.4769 5.49584
3.01309 24.4674 5.49697
3.05914 24.4647 5.49914
3.10473 24.4625 5.50193
3.15006 24.4602 5.50484
3.19498 24.4579 5.50846
3.23971 24.4554 5.51253
3.2855 24.4749 5.52004
3.33008 24.4505 5.5212
3.37565 24.448 5.52572
3.42094 24.4455 5.53065
3.46575 24.4431 5.53612
3.51041 24.4414 5.54164
3.55435 24.4394 5.54753
3.59784 24.4373 5.55369
3.64087 24.4353 5.56001
3.68422 24.4333 5.5661
3.72714 24.4313 5.57216
3.76963 24.4293 5.57831
3.81145 24.4273 5.58452
3.8531 24.4244 5.59064
3.89437 24.4216 5.59676
3.93541 24.4188 5.60284
3.97664 24.4159 5.60904
4.01846 24.413 5.61551
4.06048 24.4101 5.62187
4.10227 24.4068 5.62795
4.14368 24.4031 5.63356
4.18495 24.3994 5.63912
4.22565 24.3959 5.64405
4.26598 24.3923 5.64851
4.30586 24.3877 5.65253
4.34594 24.3819 5.65694
4.38569 24.3762 5.66088
4.425 24.3705 5.66428
4.46372 24.3651 5.6668
4.50262 24.3616 5.66915
4.54103 24.3582 5.67089
4.57921 24.3549 5.67225
4.61721 24.354 5.67374
4.65553 24.3535 5.67611
4.69372 24.3516 5.67858
4.73178 24.3497 5.68059
4.76967 24.3478 5.68183
4.80751 24.3459 5.6829
4.84529 24.3439 5.68286
4.88312 24.3428 5.68207
4.92103 24.3425 5.68053
4.95895 24.3422 5.67954
4.99705 24.3419 5.67784
5.03523 24.3415 5.67541
5.07365 24.341 5.6719
5.1122 24.3394 5.66828
5.15086 24.3378 5.6639
5.18954 24.3347 5.65914
5.22783 24.3314 5.65444
5.26541 24.3282 5.65058
5.30289 24.3248 5.64689
5.34071 24.3206 5.6429
5.37929 24.3162 5.6384
5.41799 24.3119 5.63375
5.45793 24.3076 5.62835
5.49869 24.3019 5.62254
5.54002 24.2949 5.61624
5.5804 24.288 5.61019
5.62184 24.281 5.60377
5.66451 24.2738 5.597
5.70895 24.2659 5.58983
5.75338 24.2578 5.58268
5.79969 24.2493 5.57541
5.84834 24.2398 5.56901
5.88271 24.1589 5.56084
5.94628 24.2185 5.55477
5.99386 24.2073 5.54736
6.04182 24.1959 5.54036
6.09052 24.1828 5.53387
6.13933 24.1697 5.5279
6.18938 24.1562 5.52216
6.24033 24.1425 5.51612
6.292 24.129 5.50986
6.34304 24.1161 5.50362
6.39421 24.1021 5.49706
6.44584 24.0873 5.49025
6.49751 24.0697 5.48317
6.54935 24.0523 5.47611
6.6018 24.0345 5.46872
6.65386 24.0146 5.46115
6.70618 23.9947 5.4535
6.75835 23.9748 5.44605
6.81052 23.9557 5.43856
6.8624 23.9361 5.43088
6.91312 23.915 5.42298
6.96371 23.8939 5.41507
7.01378 23.873 5.40691
7.06343 23.8524 5.39856
7.11316 23.8316 5.39012
7.16387 23.8104 5.38193
7.21381 23.7886 5.37359
7.26194 23.7652 5.36496
7.30831 23.7417 5.35616
7.35431 23.7179 5.34767
7.39886 23.6948 5.33894
7.44214 23.6723 5.32923
7.46018 23.6007 5.32265
7.52905 23.6273 5.30788
7.57284 23.6047 5.2985
7.61535 23.5828 5.28914
7.65532 23.5615 5.28029
7.69321 23.5382 5.27183
7.72922 23.516 5.2638
7.76447 23.4944 5.25595
7.79912 23.4734 5.24836
7.8347 23.4517 5.24062
7.86952 23.4293 5.23327
7.90371 23.4073 5.22614
7.93767 23.3866 5.21935
7.97148 23.366 5.21278
8.00474 23.3458 5.20637
8.0376 23.3254 5.20005
8.07028 23.305 5.19324
8.10313 23.2844 5.1857
8.13628 23.2636 5.17784
8.16957 23.2427 5.1702
8.20323 23.2216 5.1631
8.23692 23.2006 5.15624
8.27081 23.179 5.15037
8.30593 23.1585 5.14498
8.34142 23.1388 5.14012
8.37606 23.1196 5.1348
8.41109 23.1001 5.13003
8.44659 23.0804 5.12618
8.48408 23.0595 5.12261
8.52341 23.0376 5.11764
8.56418 23.0161 5.11397
8.6081 22.9976 5.1104
8.6822 23.045 5.11409
8.69927 22.9589 5.10526
8.7458 22.9424 5.1036
8.7901 22.9279 5.10093
8.83525 22.9106 5.09943
8.88137 22.8922 5.09864
8.92905 22.8729 5.09902
8.97701 22.8536 5.09957
9.02523 22.8348 5.10039
9.07413 22.8208 5.10123
9.12322 22.807 5.10219
9.17287 22.7937 5.10348
9.22341 22.7808 5.10522
9.27469 22.7694 5.1072
9.32655 22.758 5.10949
9.37855 22.7464 5.11191
9.43048 22.7349 5.11447
9.48195 22.7227 5.11696
9.53327 22.7123 5.11944
9.58442 22.702 5.12181
9.6352 22.6919 5.12392
9.686 22.6818 5.126
9.73646 22.6716 5.12771
9.78705 22.6637 5.12926
9.83778 22.6567 5.13072
9.88901 22.6495 5.1326
9.94004 22.6426 5.13415
9.99064 22.6359 5.13523
10.0404 22.6293 5.13554
10.0902 22.6234 5.13575
10.1391 22.6193 5.13517
10.1874 22.6152 5.13401
10.2351 22.6098 5.13245
10.2838 22.6069 5.1317
10.3318 22.6027 5.1305
10.3791 22.5992 5.12866
10.4252 22.5961 5.12587
10.4712 22.5922 5.12297
10.5161 22.5883 5.11907
10.5602 22.5845 5.11452
10.6039 22.5807 5.10944
10.6481 22.5769 5.10486
10.692 22.573 5.09993
10.7353 22.5679 5.09451
10.7777 22.5618 5.08843
10.82 22.5557 5.08222
10.8618 22.5498 5.07567
10.9033 22.5441 5.06898
10.9449 22.5385 5.06245
10.9867 22.5329 5.05629
11.0288 22.5272 5.05044
11.0708 22.5214 5.04461
11.1128 22.5157 5.03879
11.1549 22.51 5.03287
11.1968 22.5043 5.02683
11.2391 22.4996 5.02083
11.2808 22.4927 5.01462
11.3221 22.4851 5.00835
11.3635 22.4773 5.00203
11.4053 22.4695 4.9957
11.4474 22.4617 4.98939
11.4896 22.4538 4.98315
11.5323 22.4458 4.97692
11.5754 22.436 4.97051
11.6176 22.4212 4.96378
11.6612 22.414 4.95718
11.7043 22.403 4.95048
11.748 22.3918 4.9439
11.7923 22.3804 4.93757
11.8367 22.3691 4.93127
11.8816 22.3577 4.92537
11.9269 22.3458 4.91972
11.972 22.332 4.91432
12.0167 22.3183 4.90868
12.0615 22.3046 4.90334
12.1064 22.2901 4.89832
12.1514 22.2751 4.89381
12.1964 22.26 4.88941
12.2407 22.2419 4.88537
12.2847 22.2232 4.88157
12.3287 22.2044 4.87768
12.3729 22.1868 4.87325
12.4171 22.1696 4.86881
12.4603 22.1497 4.86463
12.5022 22.1272 4.86089
12.544 22.1048 4.85722
12.5859 22.0824 4.8543
12.6278 22.0599 4.85189
12.6698 22.0373 4.84999
12.7128 22.0161 4.84781
12.7559 21.995 4.84611
12.7989 21.9739 4.84485
12.8415 21.9528 4.84437
12.8824 21.9285 4.84391
12.923 21.9042 4.84394
12.9634 21.8801 4.84415
12.9983 21.8475 4.84286
13.0437 21.8323 4.84284
13.0837 21.8086 4.84129
13.1233 21.7851 4.83989
13.1626 21.7618 4.83885
13.2019 21.7384 4.83804
13.2398 21.7133 4.83776
13.2773 21.6879 4.8379
13.3152 21.6633 4.83866
13.3532 21.6387 4.83896
13.3912 21.614 4.83985
13.429 21.5893 4.84136
13.4668 21.5645 4.84379
13.5044 21.5394 4.84629
13.5419 21.5142 4.84953
13.5794 21.489 4.85326
13.617 21.4636 4.85719
13.6539 21.4375 4.86038
13.6906 21.4107 4.86357
13.7272 21.3836 4.86713
13.7638 21.3561 4.87117
13.8004 21.3286 4.87524
13.8371 21.3009 4.87991
13.8739 21.273 4.88492
13.9101 21.2442 4.89028
13.9459 21.2151 4.89551
13.9818 21.1859 4.90096
14.0178 21.1566 4.9065
14.054 21.1273 4.91215
14.0903 21.0979 4.9179
14.1268 21.0685 4.92333
14.1634 21.0386 4.92883
14.1884 20.9945 4.93058
14.2355 20.9779 4.93766
14.2714 20.9478 4.94092
14.3075 20.9178 4.94386
14.3437 20.8876 4.94642
14.3802 20.8577 4.94917
14.4168 20.8278 4.95201
14.4536 20.7979 4.95488
14.4904 20.7678 4.95794
14.5272 20.7377 4.96098
14.5644 20.7081 4.96456
14.6018 20.6786 4.96853
14.6392 20.6491 4.97303
14.6767 20.6195 4.97754
14.7141 20.5899 4.98251
14.7513 20.56 4.98779
14.7872 20.5286 4.99287
14.8232 20.4972 4.99742
14.859 20.4659 5.00215
14.8948 20.4346 5.00733
14.9305 20.4032 5.01316
14.9665 20.3721 5.01908
15.0025 20.3411 5.02584
15.0385 20.3101 5.03314
15.0744 20.279 5.04101
15.1103 20.2479 5.04859
15.1463 20.2167 5.0566
15.1807 20.1838 5.06469
15.214 20.1496 5.07311
15.2471 20.1155 5.08167
15.2803 20.0813 5.09049
15.3134 20.0471 5.09943
15.3418 20.0079 5.10659
15.3837 19.9835 5.11674
15.4194 19.9505 5.12511
15.4524 19.9161 5.13254
15.4854 19.8816 5.14033
15.5184 19.8469 5.14857
15.5516 19.8128 5.15743
15.5875 19.7821 5.16704
15.6231 19.7516 5.17709
15.6571 19.7187 5.18663
15.6902 19.6852 5.19663
15.7231 19.6517 5.20705
15.7557 19.6184 5.21815
15.7881 19.585 5.22928
15.8203 19.5517 5.24085
15.8524 19.5184 5.2527
15.8847 19.4851 5.26454
15.9178 19.452 5.27594
15.9509 19.4189 5.28724
15.9839 19.3859 5.29877
16.0169 19.3534 5.3107
16.0497 19.3211 5.32273
16.0821 19.289 5.33525
16.1141 19.2572 5.34808
16.1455 19.2251 5.36111
16.1782 19.1938 5.3741
16.211 19.163 5.3874
16.2433 19.1325 5.40097
16.2752 19.1027 5.41492
16.3072 19.0731 5.42891
16.3386 19.044 5.44312
16.3696 19.0151 5.45745
16.4064 18.9936 5.47278
16.4313 18.9579 5.48605
16.4616 18.9287 5.5001
16.4913 18.8993 5.51407
16.5207 18.8702 5.52799
16.5499 18.8412 5.54193
16.5789 18.8125 5.55582
16.6086 18.7851 5.56982
16.6383 18.7578 5.5838
16.6685 18.7305 5.59801
16.6958 18.7003 5.61146
16.7231 18.6701 5.62484
16.7504 18.6399 5.63802
16.7776 18.6099 5.65106
16.8049 18.5799 5.66397
16.8321 18.5499 5.67679
16.8594 18.5199 5.68981
16.8866 18.4898 5.70326
16.9139 18.4596 5.71675
16.9428 18.4304 5.73038
16.9759 18.4061 5.74444
17.0094 18.383 5.75855
17.0437 18.3595 5.7721
17.0786 18.3356 5.78528
17.1138 18.3116 5.79807
17.1485 18.2879 5.81114
17.1837 18.2641 5.82378
17.2195 18.24 5.83601
17.2563 18.2155 5.84755
17.2932 18.1908 5.85894
17.331 18.1657 5.86988
17.3693 18.1403 5.88053
17.4068 18.1135 5.89121
17.4415 18.0842 5.90225
17.479 18.0585 5.91395
17.5169 18.0327 5.92518
17.5547 18.005 5.93571
17.5932 17.9779 5.94616
17.6327 17.9507 5.95576
17.6728 17.9232 5.96479
17.7133 17.8955 5.97329
17.7533 17.8681 5.98227
17.7935 17.8405 5.99066
17.8341 17.8127 5.99842
17.8752 17.7846 6.00525
17.9154 17.7552 6.01192
17.955 17.7241 6.01782
17.9948 17.693 6.02327
18.0345 17.6618 6.02865
18.0733 17.63 6.03462
18.112 17.5984 6.04063
18.1495 17.5651 6.04619
18.1867 17.5314 6.05124
18.2238 17.4975 6.05623
18.2611 17.4637 6.06062
18.2984 17.4297 6.06466
18.3358 17.3958 6.06826
18.3733 17.3617 6.07198
18.4108 17.3277 6.07547
18.4482 17.2937 6.07882
18.4853 17.2598 6.08195
18.5218 17.2252 6.08479
18.5582 17.1907 6.08805
18.5945 17.155 6.09321
18.5868 17.0753 6.09368
18.6656 17.0851 6.10678
18.7016 17.0501 6.11146
18.7374 17.0153 6.11652
18.7728 16.9809 6.12161
18.8057 16.9444 6.12629
18.8375 16.9076 6.13083
18.8693 16.8709 6.1354
18.9009 16.8346 6.13982
18.9324 16.7984 6.14419
18.9636 16.7627 6.14822
18.9945 16.7273 6.15205
19.025 16.6923 6.15558
19.0557 16.6572 6.1592
19.0845 16.6209 6.1622
19.1126 16.5843 6.16484
19.1387 16.5463 6.16686
19.1649 16.5081 6.16904
19.1914 16.4699 6.17119
19.2179 16.4319 6.17316
19.2444 16.3939 6.1749
19.2708 16.3559 6.17664
19.2973 16.3181 6.17812
19.3237 16.2803 6.17943
19.3501 16.2426 6.18057
19.3767 16.2051 6.18185
19.4034 16.1678 6.18306
19.4301 16.1305 6.18421
19.4569 16.0932 6.18514
19.4837 16.0559 6.18584
19.5104 16.0184 6.18654
19.537 15.9808 6.18702
19.5302 15.919 6.18035
19.5903 15.9042 6.19104
19.6162 15.8652 6.19354
19.642 15.8267 6.19417
19.6679 15.7882 6.19464
19.6938 15.7496 6.19516
19.7197 15.711 6.19561
19.7454 15.6723 6.19591
19.771 15.6337 6.19621
19.7963 15.5949 6.19656
19.8213 15.556 6.19683
19.8454 15.5165 6.19676
19.8689 15.4767 6.19635
19.8925 15.4368 6.19585
19.9161 15.3969 6.1952
19.9396 15.357 6.19447
19.9629 15.317 6.19381
19.9863 15.277 6.19332
20.0096 15.2371 6.19296
20.0323 15.1968 6.19245
20.0547 15.1564 6.1919
20.077 15.1156 6.19113
20.0961 15.0736 6.18989
20.116 15.0317 6.18865
20.1352 14.9895 6.18721
20.1545 14.9472 6.18576
20.1738 14.905 6.18425
20.193 14.8627 6.18271
20.2123 14.8204 6.18112
20.2316 14.7781 6.17949
20.2509 14.7359 6.1779
20.2723 14.695 6.17678
20.2872 14.6505 6.1746
20.3161 14.6134 6.17508
20.338 14.5724 6.17438
20.3599 14.5315 6.17371
20.3809 14.4904 6.17283
20.4003 14.4486 6.17148
20.42 14.407 6.17018
20.4397 14.3655 6.1689
20.4593 14.3239 6.16765
20.479 14.2824 6.16639
20.4987 14.2408 6.16514
20.5184 14.1992 6.1639
20.5381 14.1576 6.16268
20.5578 14.116 6.16146
20.5779 14.0746 6.16035
20.5974 14.0328 6.15907
20.6178 13.9913 6.15797
20.6365 13.949 6.15642
20.6552 13.9066 6.15485
20.6749 13.8646 6.15356
20.6966 13.8236 6.15284
20.7183 13.7826 6.15214
20.7401 13.7415 6.15139
20.7618 13.7005 6.15062
20.7836 13.6595 6.14971
20.8054 13.6185 6.1487
20.8272 13.5776 6.14761
20.8494 13.5368 6.14676
20.8724 13.4966 6.14611
20.8943 13.4559 6.14503
20.9162 13.415 6.1438
20.9392 13.3734 6.14228
20.9987 13.353 6.15458
20.9922 13.2924 6.14117
21.0175 13.2535 6.14114
21.0429 13.2145 6.14108
21.0682 13.1759 6.14124
21.0942 13.1376 6.14178
21.1201 13.0995 6.14237
21.1461 13.0613 6.14291
21.1721 13.023 6.14337
21.198 12.9846 6.14379
21.224 12.9461 6.14415
21.2499 12.9075 6.14445
21.2761 12.8691 6.14482
21.3054 12.8331 6.1468
21.3349 12.7971 6.14868
21.3644 12.7609 6.15052
21.3939 12.7248 6.15236
21.423 12.6886 6.15412
21.4521 12.6524 6.15589
21.4812 12.6161 6.15765
21.5102 12.5799 6.1594
21.5392 12.5438 6.16118
21.5683 12.5076 6.16292
21.5964 12.4706 6.16416
21.6246 12.4333 6.16525
21.653 12.3959 6.16626
21.6815 12.3583 6.16721
21.7082 12.3194 6.16732
21.733 12.2792 6.16652
21.7577 12.2389 6.16568
21.7825 12.1986 6.16484
21.8074 12.1584 6.16396
21.8097 12.1045 6.15423
21.8567 12.0783 6.16429
21.8821 12.0382 6.16371
21.9062 11.9982 6.16276
21.9306 11.9586 6.16205
21.9549 11.9187 6.16124
21.9792 11.8787 6.16047
22.0035 11.8388 6.1597
22.0278 11.7989 6.15895
22.0516 11.7586 6.15794
22.0751 11.7181 6.15678
22.0982 11.6773 6.15548
22.1209 11.6363 6.15405
22.1443 11.5956 6.15288
22.1675 11.5548 6.15173
22.1906 11.514 6.15065
22.2148 11.4738 6.15008
22.2393 11.4338 6.14969
22.2642 11.3941 6.14958
22.2892 11.3543 6.14952
22.314 11.3146 6.14954
22.3369 11.2736 6.14872
22.3617 11.2336 6.14862
22.3876 11.1946 6.14913
22.4136 11.1556 6.14969
22.4395 11.1166 6.15027
22.4654 11.0776 6.15084
22.4914 11.0386 6.15137
22.5169 10.9993 6.15165
22.5421 10.9599 6.15181
22.5674 10.9206 6.15184
22.5927 10.8812 6.15177
22.6222 10.8445 6.15347
22.6428 10.8023 6.15099
22.6673 10.7623 6.15012
22.6918 10.7224 6.14921
22.7164 10.6825 6.14818
22.7407 10.6424 6.14694
22.7642 10.602 6.14548
22.7876 10.5615 6.14414
22.8115 10.5214 6.14313
22.8361 10.4815 6.14234
22.8617 10.4422 6.1421
22.89 10.4049 6.14303
22.9183 10.3676 6.14434
22.9465 10.3303 6.14567
22.9747 10.293 6.14727
23.0028 10.2557 6.14907
23.0308 10.2185 6.15085
23.058 10.1806 6.15194
23.0843 10.1421 6.15279
23.1102 10.1035 6.15382
23.1361 10.0649 6.15522
23.162 10.0263 6.15668
23.1877 9.9877 6.15865
23.2133 9.94911 6.16099
23.2388 9.91051 6.16368
23.2644 9.87188 6.16614
23.2905 9.83363 6.16909
23.3177 9.79622 6.17264
23.3443 9.75851 6.1766
23.371 9.72081 6.18063
23.3976 9.6831 6.18485
23.4242 9.6454 6.1892
23.4498 9.607 6.19308
23.4775 9.57002 6.19687
23.5045 9.53246 6.20025
23.5328 9.49593 6.20401
23.5601 9.4587 6.20782
23.5871 9.42123 6.21167
23.614 9.38374 6.21602
23.6408 9.34624 6.2207
23.6676 9.30871 6.22573
23.6944 9.27117 6.23051
23.721 9.23347 6.23566
23.7473 9.19564 6.24117
23.7735 9.15779 6.24726
23.801 9.12111 6.25367
23.8224 9.07967 6.25932
23.8457 9.03985 6.26566
23.869 9.00013 6.27202
23.8924 8.96054 6.27785
23.915 8.92056 6.28347
23.9375 8.88052 6.28937
23.9601 8.84038 6.29566
23.9826 8.8002 6.302
24.0051 8.75986 6.30888
24.0276 8.71941 6.31609
24.05 8.67885 6.32376
24.0724 8.63837 6.33132
24.0951 8.59793 6.33925
24.1165 8.55665 6.34703
24.1377 8.51495 6.35505
24.1588 8.47322 6.36314
24.18 8.4313 6.37136
24.2012 8.38927 6.37962
24.2115 8.34075 6.38357
24.2409 8.3031 6.39464
24.2616 8.26092 6.40186
24.2826 8.2186 6.40908
24.3038 8.17616 6.41625
24.3247 8.13359 6.42346
24.3457 8.09086 6.43078
24.3666 8.04806 6.43815
24.3876 8.0052 6.44561
24.4085 7.96242 6.45303
24.4294 7.91962 6.4606
24.4503 7.87677 6.46829
24.4711 7.83387 6.47615
24.492 7.79099 6.48397
24.5128 7.74806 6.49195
24.533 7.70482 6.49983
24.5531 7.66144 6.50779
24.5733 7.61799 6.51575
24.5934 7.57457 6.52378
24.6136 7.53118 6.53185
24.6336 7.48792 6.53995
24.6536 7.44471 6.54804
24.6763 7.40313 6.55722
24.699 7.36189 6.56642
24.7191 7.31899 6.57436
24.7394 7.27612 6.58245
24.7598 7.23343 6.59043
24.7801 7.19096 6.59827
24.8008 7.14907 6.60606
24.8222 7.10764 6.61417
24.8436 7.0665 6.62196
24.8649 7.02561 6.62953
24.8964 6.99109 6.64233
24.908 6.94355 6.64485
24.9302 6.9032 6.65277
24.9524 6.86307 6.66045
24.9746 6.82328 6.6678
24.9967 6.7835 6.67512
25.0189 6.74405 6.68212
25.0404 6.70448 6.68863
25.0624 6.66534 6.69526
25.084 6.62577 6.70183
25.1055 6.58629 6.70833
25.127 6.54695 6.71471
25.1485 6.50779 6.72091
25.17 6.46868 6.72708
25.1915 6.42968 6.73314
25.213 6.39071 6.73915
25.2345 6.35169 6.74514
25.2561 6.31254 6.75116
25.2777 6.2733 6.75727
25.3006 6.23492 6.76414
25.3235 6.19648 6.77107
25.3464 6.15803 6.77801
25.3692 6.11959 6.78502
25.3921 6.08114 6.7921
25.4129 6.04155 6.79811
25.4319 6.00103 6.80295
25.4509 5.9604 6.80787
25.4703 5.9199 6.81315
25.4897 5.87925 6.81865
25.51 5.8391 6.82467
25.5305 5.79893 6.83109
25.5511 5.75861 6.8377
25.5688 5.71657 6.84291
25.5878 5.67543 6.84864
25.6073 5.63449 6.85488
25.6271 5.59355 6.86147
25.6458 5.55177 6.86766
25.6645 5.50997 6.87386
25.6831 5.46793 6.88026
25.7033 5.42653 6.8876
25.7239 5.38526 6.89529
25.7446 5.34413 6.90285
25.7658 5.30327 6.91077
25.7877 5.26265 6.91909
25.8098 5.22189 6.92753
25.8319 5.1811 6.936
25.8541 5.1402 6.9445
25.8763 5.09925 6.953
25.8984 5.05837 6.96151
25.9205 5.01766 6.97005
25.9426 4.97704 6.97852
25.9647 4.93641 6.98693
25.9866 4.89557 6.99509
26.0083 4.85453 7.00309
26.0302 4.81338 7.01096
26.052 4.77212 7.01869
26.074 4.73078 7.02639
26.0958 4.68946 7.03422
26.1176 4.64795 7.04188
26.139 4.60607 7.04916
26.1606 4.56412 7.05628
26.1825 4.52256 7.06371
26.2052 4.48134 7.07133
26.2281 4.44016 7.07891
26.2384 4.39031 7.07821
26.274 4.35764 7.09408
26.297 4.31633 7.10163
26.3201 4.27499 7.10904
26.3434 4.23366 7.1162
26.366 4.19192 7.12285
26.3878 4.14962 7.1287
26.4096 4.10716 7.13436
26.4316 4.06482 7.14005
26.4535 4.02256 7.1458
26.4746 3.97982 7.15081
26.4953 3.93688 7.15547
26.516 3.89394 7.15998
26.5369 3.85093 7.1645
26.5571 3.80762 7.16856
26.5764 3.76386 7.17195
26.5957 3.72015 7.17535
26.6149 3.67646 7.17877
26.635 3.63333 7.18291
26.6554 3.5904 7.18729
26.6756 3.54748 7.19175
26.6958 3.50444 7.19616
26.7148 3.46079 7.19981
26.7339 3.41719 7.20364
26.752 3.37325 7.2069
26.7701 3.3295 7.21007
26.7882 3.28569 7.21328
26.8064 3.24165 7.21657
26.8247 3.19755 7.22011
26.844 3.15413 7.22433
26.8633 3.1104 7.22874
26.8826 3.06652 7.23325
26.8713 3.0062 7.21779
26.9172 2.97248 7.23972
26.9344 2.92693 7.24281
26.9517 2.88125 7.24599
26.9689 2.83539 7.24934
26.9862 2.78917 7.25282
27.004 2.74339 7.25678
27.0242 2.69941 7.26257
27.042 2.65459 7.26656
27.0568 2.6083 7.26788
27.0723 2.56247 7.27
27.0901 2.51803 7.27416
27.1069 2.47348 7.278
27.1181 2.42656 7.27675
27.1327 2.38097 7.28004
27.1471 2.33544 7.28344
27.1617 2.28969 7.28686
27.1766 2.24368 7.29001
27.1906 2.19725 7.29205
27.2035 2.15066 7.29302
27.2162 2.10435 7.2946
27.2293 2.05828 7.29682
27.2419 2.01255 7.29939
27.254 1.96708 7.30218
27.2657 1.92179 7.30526
27.2766 1.87579 7.30692
27.2867 1.82996 7.30822
27.2967 1.7846 7.30991
27.3065 1.73998 7.31212
27.3162 1.6954 7.31441
27.3258 1.65157 7.3166
27.3354 1.60827 7.31869
27.3439 1.56499 7.31826
27.3553 1.52199 7.32103
27.3658 1.47906 7.32167
27.3764 1.43661 7.32227
27.3871 1.39485 7.32312
27.3974 1.35292 7.32348
27.4061 1.31136 7.32273
27.4164 1.2705 7.32441
27.4263 1.2298 7.3263
27.4375 1.18915 7.3294
27.449 1.14869 7.33403
27.4601 1.10826 7.33893
27.4706 1.06778 7.34426
27.481 1.02726 7.34963
27.4903 0.986511 7.3545
27.4991 0.945715 7.35954
27.5078 0.905169 7.36463
27.5171 0.865092 7.36958
27.5267 0.825175 7.37524
27.5359 0.784983 7.38122
27.5446 0.74424 7.38765
27.5533 0.703353 7.39413
27.5615 0.661671 7.40118
27.5693 0.619406 7.40862
27.5753 0.576093 7.4142
27.5811 0.533405 7.41917
27.5866 0.490051 7.42443
27.5921 0.445878 7.42994
27.5978 0.400656 7.43644
27.6046 0.355775 7.4447
27.6116 0.309685 7.45319
27.6187 0.262767 7.46179
27.6265 0.215431 7.47034
27.6352 0.169252 7.47922
27.6447 0.122794 7.48825
27.653 0.0750599 7.4957
27.6623 0.0264994 7.50441
27.672 -0.0221305 7.51367
27.6815 -0.0718196 7.52339
27.6908 -0.122127 7.53343
27.6991 -0.173106 7.54278
27.7059 -0.223883 7.55022
27.7123 -0.274985 7.55765
27.718 -0.326769 7.56522
27.7211 -0.379596 7.57089
27.7263 -0.432409 7.57863
27.7352 -0.484283 7.5909
27.7438 -0.536342 7.60346
27.7507 -0.589126 7.61455
27.7568 -0.64202 7.62442
27.7628 -0.694596 7.6343
27.7688 -0.746927 7.64446
27.7745 -0.798836 7.65479
27.7801 -0.850728 7.66514
27.7855 -0.902123 7.67566
27.7906 -0.953093 7.68628
27.795 -1.00407 7.69646
27.7994 -1.05568 7.70657
27.8036 -1.10686 7.7167
27.8077 -1.15738 7.72682
27.8111 -1.20702 7.73643
27.8138 -1.2566 7.74569
27.8167 -1.30532 7.7545
27.8194 -1.35335 7.76328
27.7901 -1.40921 7.73943
27.8301 -1.45146 7.77582
27.8356 -1.50114 7.78023
27.8383 -1.54914 7.7874
27.8403 -1.59586 7.79424
27.8422 -1.64238 7.80083
27.8439 -1.6875 7.80732
27.845 -1.73186 7.81348
27.8455 -1.77558 7.81923
27.8466 -1.81998 7.82537
27.8485 -1.86375 7.83203
27.8503 -1.90682 7.8387
27.8495 -1.94924 7.84395
27.8477 -1.99159 7.84846
27.8458 -2.03335 7.8531
27.8438 -2.07474 7.85785
27.8417 -2.11599 7.86275
27.8396 -2.15765 7.86766
27.8375 -2.19942 7.87272
27.8352 -2.24105 7.87788
27.8329 -2.28259 7.88318
27.83 -2.32414 7.88813
27.8265 -2.36557 7.89274
27.8237 -2.40698 7.89781
27.8211 -2.44813 7.90297
27.8183 -2.48897 7.90807
27.8152 -2.52983 7.91276
27.8123 -2.57096 7.91728
27.8095 -2.61248 7.92159
27.8065 -2.6539 7.92593
27.8038 -2.69611 7.92991
27.8013 -2.73887 7.93369
27.8391 -2.78253 7.96568
27.7989 -2.82735 7.93955
27.7974 -2.87152 7.94324
27.796 -2.91629 7.94676
27.7948 -2.96175 7.95019
27.7936 -3.00724 7.95361
27.7937 -3.05303 7.95802
27.795 -3.09908 7.96347
27.7978 -3.14473 7.97061
27.8007 -3.18962 7.97814
27.8034 -3.23421 7.98588
27.806 -3.27892 7.99369
27.8085 -3.3239 8.00161
27.8135 -3.36859 8.01165
27.8176 -3.41387 8.02086
27.8208 -3.45938 8.02913
27.824 -3.50482 8.03731
27.8274 -3.55007 8.04535
27.8313 -3.59497 8.05392
27.8375 -3.63914 8.06487
27.8443 -3.6832 8.0767
27.8511 -3.7272 8.08853
27.8572 -3.77185 8.09989
27.8633 -3.81674 8.11122
27.8692 -3.86217 8.12291
27.8749 -3.90784 8.1349
27.8805 -3.9538 8.147
27.8869 -3.99952 8.15927
27.8946 -4.04465 8.17316
27.9019 -4.08978 8.18753
27.9093 -4.13503 8.2018
27.9193 -4.17921 8.21248
27.9767 -4.20055 8.28215
27.9382 -4.26933 8.23238
27.9453 -4.31604 8.24388
27.9521 -4.36293 8.25675
27.9612 -4.40887 8.27329
27.9695 -4.4521 8.28907
27.9773 -4.49406 8.30456
27.9851 -4.53646 8.32024
27.9931 -4.57887 8.33585
28.0014 -4.62139 8.35131
28.0096 -4.66426 8.36639
28.0175 -4.70741 8.38116
28.0254 -4.75064 8.39607
28.0329 -4.79369 8.41113
28.0405 -4.83695 8.42634
28.0481 -4.88043 8.44156
28.055 -4.92496 8.45554
28.0619 -4.96968 8.46927
28.0691 -5.0148 8.48289
28.0765 -5.06008 8.4965
28.0838 -5.10543 8.51009
28.0905 -5.15091 8.523
28.0967 -5.19634 8.53563
28.1047 -5.24112 8.55023
28.1157 -5.28383 8.56841
28.1268 -5.32643 8.58653
28.1378 -5.36904 8.60473
28.149 -5.41185 8.62291
28.1596 -5.45436 8.64139
28.1691 -5.49614 8.66041
28.178 -5.5387 8.67835
28.1869 -5.58109 8.69649
28.2389 -5.59732 8.75606
28.2109 -5.67 8.73699
28.2236 -5.71002 8.75552
28.2353 -5.75108 8.77484
28.2468 -5.79184 8.79404
28.2583 -5.83267 8.81333
28.2697 -5.87332 8.83262
28.281 -5.9138 8.85188
28.2921 -5.9542 8.87116
28.3034 -5.99473 8.89047
28.3146 -6.03524 8.90983
28.3257 -6.07569 8.92922
28.3368 -6.11595 8.94875
28.348 -6.15613 8.96833
28.3587 -6.19665 8.98742
28.3691 -6.23729 9.00634
28.3794 -6.27805 9.02527
28.3895 -6.31909 9.0439
28.3996 -6.36022 9.06259
28.4097 -6.40134 9.0813
28.4198 -6.44246 9.10002
28.4298 -6.48357 9.11874
28.4399 -6.52462 9.13741
28.45 -6.56563 9.15604
28.4601 -6.60656 9.1746
28.4699 -6.6476 9.193
28.4799 -6.68856 9.21131
28.4898 -6.72945 9.22955
28.4999 -6.77034 9.24771
28.5105 -6.81096 9.2665
28.5223 -6.85063 9.2867
28.5333 -6.89091 9.30526
28.5518 -6.92495 9.3337
28.5553 -6.97299 9.34283
28.5675 -7.01238 9.36329
28.5797 -7.05176 9.38367
28.5921 -7.09109 9.40395
28.6044 -7.13043 9.42424
28.6169 -7.16971 9.44442
28.6293 -7.20891 9.46452
28.6418 -7.24805 9.48455
28.6543 -7.28723 9.50464
28.6667 -7.32633 9.52467
28.6792 -7.36535 9.54463
28.6918 -7.40409 9.56475
28.7044 -7.44282 9.58507
28.7153 -7.48311 9.60283
28.7262 -7.52337 9.6206
28.737 -7.56364 9.63839
28.7476 -7.60422 9.65573
28.758 -7.64498 9.67286
28.7682 -7.68582 9.6899
28.7781 -7.72675 9.70684
28.788 -7.76766 9.72377
28.7977 -7.80853 9.74077
28.8073 -7.84936 9.75783
28.8168 -7.89015 9.77493
28.8263 -7.93095 9.79201
28.8357 -7.97171 9.80911
28.8451 -8.01242 9.82621
28.8543 -8.05308 9.84333
28.8634 -8.09389 9.86018
28.8724 -8.1347 9.87703
28.8815 -8.17549 9.89386
28.8796 -8.22739 9.88976
28.9001 -8.25725 9.92732
28.9097 -8.2982 9.94395
28.9193 -8.33915 9.96051
28.9286 -8.38022 9.97686
28.938 -8.42125 9.99316
28.9471 -8.46221 10.0095
28.9553 -8.50387 10.0245
28.9631 -8.54569 10.0392
28.9708 -8.58763 10.0536
28.9779 -8.62981 10.0674
28.9848 -8.67199 10.0814
28.9923 -8.71339 10.0973
29 -8.75465 10.1134
29.0074 -8.79589 10.1297
29.014 -8.83757 10.1453
29.0194 -8.88001 10.1591
29.0248 -8.92275 10.1718
29.0313 -8.96425 10.1873
29.0376 -9.0058 10.2029
29.0436 -9.04745 10.2187
29.0496 -9.08911 10.2346
29.0553 -9.13092 10.2506
29.0609 -9.17287 10.2667
29.0662 -9.21496 10.283
29.071 -9.25737 10.2981
29.0755 -9.30028 10.3126
29.08 -9.34333 10.3271
29.0844 -9.3868 10.3418
29.0888 -9.43028 10.3578
29.0929 -9.47435 10.3723
29.0962 -9.51941 10.3845
29.096 -9.56737 10.3859
29.1059 -9.60676 10.4104
29.1126 -9.65029 10.4255
29.1195 -9.69389 10.4404
29.1266 -9.73773 10.4554
29.1336 -9.78158 10.4704
29.1403 -9.82562 10.4857
29.1462 -9.87052 10.4991
29.1516 -9.91561 10.5125
29.1573 -9.96065 10.5253
29.1624 -10.0057 10.5384
29.1671 -10.0508 10.5517
29.1709 -10.0961 10.5653
29.1745 -10.1416 10.5791
29.1778 -10.1868 10.594
29.1813 -10.2309 10.611
29.1842 -10.2757 10.626
29.1878 -10.3203 10.6416
29.1912 -10.3647 10.6576
29.1939 -10.409 10.6737
29.1945 -10.4548 10.6862
29.195 -10.5006 10.6981
29.195 -10.5456 10.713
29.1942 -10.5906 10.728
29.1923 -10.6358 10.7425
29.1907 -10.6811 10.7566
29.188 -10.7269 10.7691
29.1846 -10.7732 10.7802
29.1807 -10.819 10.7934
29.1764 -10.8648 10.8066
29.172 -10.9107 10.8198
29.1676 -10.9568 10.8331
29.1636 -11.0042 10.8421
29.162 -11.0495 10.8592
29.1606 -11.0961 10.872
29.1592 -11.1426 10.8848
29.1578 -11.1888 10.8991
29.1561 -11.2349 10.9136
29.1533 -11.2807 10.9282
29.1498 -11.3265 10.9429
29.1455 -11.372 10.9577
29.1416 -11.4179 10.9717
29.1365 -11.4636 10.9853
29.1303 -11.509 10.9992
29.1226 -11.554 11.0132
29.1147 -11.5989 11.0275
29.1059 -11.6431 11.0429
29.0962 -11.6871 11.0584
29.0864 -11.731 11.074
29.0779 -11.7755 11.0894
29.0692 -11.82 11.1044
29.0594 -11.8644 11.1188
29.0485 -11.9084 11.1333
29.0374 -11.9523 11.1477
29.0247 -11.9955 11.1622
29.0111 -12.0379 11.1782
28.9963 -12.0794 11.1954
28.9818 -12.1211 11.2126
28.9664 -12.1624 11.2298
28.9504 -12.2033 11.2469
28.9334 -12.2439 11.2634
28.9158 -12.2849 11.2784
28.898 -12.3254 11.2937
28.88 -12.3663 11.3081
28.8629 -12.4126 11.3057
28.8495 -12.4477 11.3369
28.8347 -12.4884 11.3544
28.82 -12.5289 11.3718
28.8051 -12.5691 11.3892
28.7896 -12.6098 11.4043
28.7734 -12.65 11.4194
28.7566 -12.69 11.434
28.7391 -12.73 11.4473
28.7221 -12.7701 11.4611
28.7041 -12.81 11.4739
28.6853 -12.8494 11.4867
28.6654 -12.8882 11.4994
28.6455 -12.9264 11.5136
28.6247 -12.9641 11.5277
28.6029 -13.0015 11.5413
28.5812 -13.0403 11.5501
28.5606 -13.0795 11.559
28.5396 -13.1187 11.5677
28.5179 -13.1577 11.5764
28.4952 -13.1963 11.5847
28.4725 -13.2349 11.5931
28.4486 -13.2726 11.6025
28.4239 -13.3096 11.6136
28.3983 -13.346 11.6252
28.373 -13.3821 11.6373
28.3473 -13.4182 11.6494
28.3213 -13.4542 11.6614
28.2949 -13.4901 11.6737
28.2682 -13.5259 11.686
28.2416 -13.5619 11.6985
28.2153 -13.5982 11.7112
28.1894 -13.6322 11.7305
28.165 -13.6714 11.7376
28.141 -13.7085 11.7511
28.1174 -13.7459 11.7649
28.0939 -13.7837 11.7779
28.0702 -13.8214 11.7911
28.0462 -13.8591 11.8043
28.022 -13.8969 11.8175
27.9975 -13.9347 11.8307
27.9732 -13.9725 11.8439
27.9482 -14.0102 11.857
27.9226 -14.0474 11.8708
27.8959 -14.083 11.8872
27.8693 -14.1191 11.9026
27.8419 -14.1549 11.9178
27.814 -14.1904 11.933
27.7858 -14.2249 11.9493
27.7582 -14.2597 11.9657
27.7304 -14.2941 11.9819
27.702 -14.3282 11.998
27.6728 -14.3621 12.0138
27.6435 -14.396 12.0296
27.6135 -14.4309 12.0429
27.5832 -14.4661 12.0551
27.5525 -14.5011 12.067
27.5222 -14.5361 12.0791
27.4916 -14.5711 12.0911
27.4608 -14.6061 12.103
27.4297 -14.6412 12.1149
27.3978 -14.6755 12.128
27.3653 -14.7077 12.1458
27.3329 -14.7398 12.1641
27.3008 -14.7744 12.179
27.2688 -14.8105 12.1903
27.2374 -14.8469 12.2025
27.2071 -14.8822 12.2187
27.1768 -14.9174 12.2353
27.146 -14.9524 12.2518
27.1148 -14.9872 12.2684
27.0839 -15.0222 12.2866
27.0538 -15.0536 12.3099
27.0226 -15.0876 12.3296
26.9925 -15.1254 12.3371
26.9608 -15.1607 12.3509
26.9278 -15.1941 12.3657
26.8949 -15.2277 12.3798
26.8613 -15.2605 12.3933
26.8273 -15.2924 12.4061
26.7923 -15.324 12.4203
26.7562 -15.3548 12.4407
26.721 -15.3873 12.4563
26.6906 -15.4256 12.4565
26.6561 -15.4563 12.4648
26.6208 -15.4883 12.4737
26.5847 -15.5203 12.4822
26.5481 -15.5517 12.49
26.512 -15.5831 12.4979
26.4781 -15.6163 12.5061
26.4446 -15.65 12.5132
26.4098 -15.6828 12.5192
26.3729 -15.7146 12.5253
26.336 -15.7478 12.531
26.2986 -15.7823 12.5333
26.2607 -15.8167 12.5355
26.2299 -15.8616 12.4975
26.1864 -15.8883 12.5397
26.1483 -15.9205 12.5399
26.1119 -15.9548 12.5427
26.0753 -15.988 12.5448
26.0388 -16.0212 12.553
26.0024 -16.0531 12.5641
25.9661 -16.0898 12.5668
25.9348 -16.1285 12.5566
25.8997 -16.1634 12.5572
25.8644 -16.1969 12.5569
25.8284 -16.2293 12.5557
25.7917 -16.2602 12.5532
25.7552 -16.2914 12.5499
25.7177 -16.3209 12.5474
25.6798 -16.3496 12.5444
25.6418 -16.378 12.5413
25.6047 -16.4081 12.5374
25.5694 -16.439 12.5292
25.533 -16.4692 12.5228
25.4961 -16.4982 12.5171
25.4593 -16.5267 12.5115
25.4218 -16.5542 12.5056
25.3834 -16.581 12.5009
25.3441 -16.6077 12.4961
25.3064 -16.6365 12.4853
25.2674 -16.665 12.4733
25.2298 -16.6923 12.456
25.192 -16.7197 12.4359
25.1522 -16.7488 12.4192
25.1136 -16.7773 12.4015
25.0759 -16.8048 12.3797
25.0636 -16.8205 12.298
25.0043 -16.8695 12.3276
24.9716 -16.8949 12.3033
24.9375 -16.9184 12.2792
24.9034 -16.941 12.2555
24.869 -16.9645 12.2309
24.8317 -16.9898 12.2126
24.7945 -17.0131 12.1943
24.7598 -17.0343 12.1707
24.725 -17.0567 12.1466
24.6897 -17.0792 12.1225
24.654 -17.1011 12.0986
24.6177 -17.1221 12.0747
24.5823 -17.1421 12.049
24.5471 -17.1609 12.0218
24.5115 -17.1793 11.9947
24.4758 -17.1976 11.9675
24.4403 -17.2166 11.9404
24.4037 -17.2366 11.9156
24.3667 -17.2563 11.8909
24.3313 -17.2737 11.8629
24.2957 -17.2913 11.8354
24.2598 -17.3082 11.8081
24.2241 -17.3242 11.7801
24.1882 -17.3396 11.7518
24.1523 -17.3553 11.7237
24.1167 -17.3702 11.6948
24.0817 -17.3841 11.6645
24.0465 -17.3978 11.6346
24.0115 -17.4112 11.6049
23.9768 -17.4249 11.5753
23.9423 -17.4386 11.5459
23.9364 -17.4286 11.4704
23.8719 -17.4674 11.4776
23.8408 -17.4812 11.4447
23.8099 -17.495 11.4119
23.7795 -17.5089 11.3796
23.7489 -17.5226 11.3471
23.7186 -17.5359 11.3151
23.6883 -17.5488 11.2835
23.6582 -17.5611 11.2523
23.6276 -17.574 11.2216
23.5968 -17.5863 11.1914
23.5676 -17.5963 11.159
23.5391 -17.6048 11.1258
23.5108 -17.6134 11.0926
23.4822 -17.6216 11.0596
23.4532 -17.6295 11.0267
23.424 -17.6374 10.9937
23.395 -17.6458 10.9605
23.3656 -17.6541 10.9271
23.3371 -17.661 10.8921
23.3116 -17.6643 10.8541
23.2862 -17.6676 10.8166
23.2602 -17.6703 10.7791
23.2337 -17.6725 10.7413
23.2066 -17.6743 10.7032
23.1815 -17.6748 10.6635
23.1588 -17.6727 10.6217
23.136 -17.6699 10.5795
23.1125 -17.6668 10.5371
23.089 -17.6636 10.4948
23.0655 -17.6603 10.4527
23.0421 -17.6569 10.4107
23.0614 -17.6215 10.3485
22.9971 -17.6519 10.328
22.9755 -17.65 10.2873
22.9542 -17.6483 10.247
22.9329 -17.6462 10.2074
22.9112 -17.6435 10.1679
22.8892 -17.6407 10.1288
22.8673 -17.6383 10.0898
22.8454 -17.6354 10.0508
22.8228 -17.6327 10.0118
22.7996 -17.6292 9.97295
22.7761 -17.6253 9.9342
22.7521 -17.6208 9.89568
22.7281 -17.6162 9.85724
22.7049 -17.6101 9.81841
22.682 -17.603 9.77943
22.6589 -17.5959 9.7404
22.6361 -17.5892 9.7012
22.6132 -17.5825 9.66194
22.59 -17.5754 9.62272
22.5665 -17.5678 9.58359
22.5427 -17.5605 9.54459
22.5174 -17.5535 9.50629
22.4925 -17.5456 9.46771
22.4674 -17.5371 9.42914
22.4422 -17.5287 9.39041
22.4161 -17.5205 9.35215
22.3895 -17.5126 9.31444
22.363 -17.5043 9.27681
22.3394 -17.4937 9.23778
22.3158 -17.4834 9.19868
22.2907 -17.4742 9.16201
22.2844 -17.4526 9.11447
22.2384 -17.4592 9.08758
22.2133 -17.4523 9.04821
22.1891 -17.4459 9.0091
22.1651 -17.4397 8.96994
22.1411 -17.4333 8.93094
22.1169 -17.4266 8.89221
22.0928 -17.4198 8.85362
22.0685 -17.4126 8.81525
22.0451 -17.4051 8.77635
22.0215 -17.3969 8.73778
21.9978 -17.3881 8.69946
21.9738 -17.3785 8.66159
21.9498 -17.3689 8.62369
21.9255 -17.3586 8.58622
21.901 -17.3476 8.54909
21.8764 -17.3364 8.5122
21.8509 -17.3266 8.47557
21.8251 -17.3165 8.43918
21.8 -17.3051 8.40251
21.7773 -17.2909 8.36522
21.7548 -17.277 8.32788
21.7308 -17.2632 8.2911
21.7063 -17.2487 8.25458
21.6813 -17.2333 8.21837
21.6572 -17.217 8.18167
21.6383 -17.1967 8.14351
21.6184 -17.1764 8.10494
21.5954 -17.1573 8.06724
21.5752 -17.1363 8.02892
21.5545 -17.116 7.99057
21.5337 -17.0961 7.95192
21.5483 -17.0588 7.90394
21.4929 -17.0613 7.87674
21.4701 -17.0457 7.83717
21.4473 -17.0303 7.79749
21.4251 -17.0148 7.75755
21.403 -16.9991 7.71778
21.3808 -16.9828 7.67858
21.3601 -16.9652 7.63922
21.3396 -16.9468 7.60041
21.3231 -16.9266 7.56063
21.3067 -16.9051 7.52146
21.29 -16.8828 7.48286
21.2686 -16.8614 7.44587
21.247 -16.8407 7.40895
21.2299 -16.8163 7.37172
21.2134 -16.7911 7.3352
21.193 -16.7676 7.29907
21.1721 -16.7455 7.26228
21.1515 -16.7228 7.22547
21.1353 -16.6974 7.1888
21.1135 -16.6732 7.1536
21.0926 -16.6481 7.11821
21.0772 -16.6198 7.08297
21.0604 -16.5909 7.04895
21.0394 -16.5624 7.01759
21.012 -16.5366 6.9887
20.9872 -16.5091 6.95918
20.9667 -16.4799 6.92889
20.9462 -16.4497 6.89964
20.924 -16.4197 6.87195
20.8976 -16.3907 6.84536
20.8708 -16.3619 6.81969
20.8524 -16.3305 6.78835
20.8302 -16.3023 6.75768
20.8115 -16.273 6.72466
20.7893 -16.2448 6.69321
20.7656 -16.217 6.66295
20.7403 -16.19 6.63405
20.7145 -16.162 6.60673
20.6926 -16.1315 6.57798
20.6704 -16.1 6.55015
20.6483 -16.0696 6.52169
20.6266 -16.0382 6.49421
