BEGIN_Polyline
-8.29246 14.9641 8.15731
-8.33141 14.9386 8.16384
-8.36982 14.9124 8.17085
-8.4083 14.8859 8.17768
-8.44675 14.8594 8.18437
-8.48498 14.8327 8.19109
-8.52324 14.8062 8.19753
-8.56124 14.7799 8.20389
-8.59882 14.7533 8.21043
-8.63606 14.7263 8.21709
-8.67314 14.6992 8.22366
-8.70987 14.6716 8.23035
-8.74749 14.6448 8.23589
-8.78527 14.6183 8.24106
-8.82304 14.5917 8.24603
-8.86077 14.565 8.25094
-8.89817 14.5378 8.25598
-8.93541 14.5103 8.2609
-8.97261 14.4826 8.26556
-9.00952 14.4544 8.27017
-9.04642 14.4259 8.27445
-9.08354 14.397 8.27852
-9.08973 14.3328 8.31153
-9.15715 14.3362 8.28734
-9.19334 14.3055 8.29033
-9.22888 14.2741 8.29351
-9.26406 14.2421 8.2966
-9.29897 14.2104 8.29964
-9.33357 14.1786 8.30259
-9.36708 14.1453 8.30615
-9.40104 14.1126 8.30899
-9.43472 14.0797 8.31176
-9.46811 14.0466 8.31447
-9.50115 14.0131 8.3172
-9.53398 13.9794 8.31986
-9.56619 13.945 8.32278
-9.59837 13.9105 8.32549
-9.63055 13.8759 8.32799
-9.66298 13.8416 8.33008
-9.69505 13.807 8.33235
-9.72673 13.772 8.33476
-9.75787 13.7366 8.33739
-9.78893 13.7011 8.33986
-9.82035 13.6658 8.34177
-9.85155 13.6304 8.34364
-9.88219 13.5945 8.34574
-9.91286 13.5586 8.3477
-9.94444 13.5233 8.349
-9.97598 13.4879 8.35016
-10.0074 13.4525 8.35112
-10.0378 13.4163 8.35256
-10.0671 13.3793 8.35435
-10.0964 13.3424 8.35597
-10.1256 13.3054 8.35738
-10.145 13.2611 8.36429
-10.1805 13.2288 8.36188
-10.2074 13.1908 8.36347
-10.2339 13.1527 8.36502
-10.2611 13.115 8.36601
-10.2885 13.0776 8.36663
-10.3162 13.0403 8.36691
-10.3448 13.0039 8.36655
-10.3735 12.9675 8.36598
-10.4019 12.9309 8.36539
-10.4302 12.8942 8.36465
-10.459 12.858 8.36349
-10.4878 12.8218 8.36212
-10.5166 12.7856 8.3606
-10.5454 12.7494 8.35895
-10.5742 12.7133 8.35712
-10.6033 12.6774 8.35497
-10.6326 12.6416 8.35259
-10.662 12.606 8.35004
-10.6914 12.5703 8.34736
-10.7192 12.5332 8.34542
-10.7467 12.4957 8.34357
-10.7761 12.4599 8.34045
-10.8071 12.4257 8.33628
-10.8379 12.3914 8.33197
-10.8666 12.3552 8.32875
-10.8946 12.3183 8.32581
-10.9237 12.2824 8.32199
-10.9534 12.2471 8.31776
-10.9843 12.2128 8.31284
-11.0164 12.1798 8.30697
-11.0452 12.1438 8.30334
-11.0798 12.1128 8.29545
-11.106 12.074 8.29267
-11.1363 12.0392 8.28733
-11.1664 12.0042 8.28193
-11.1969 11.9696 8.27612
-11.2272 11.9348 8.27029
-11.2574 11.8999 8.26434
-11.2876 11.8651 8.25831
-11.3174 11.8298 8.25248
-11.3468 11.7942 8.24678
-11.3759 11.7582 8.24124
-11.4047 11.7221 8.23573
-11.4342 11.6865 8.22967
-11.4636 11.651 8.22345
-11.493 11.6154 8.21718
-11.5217 11.5793 8.21123
-11.55 11.5428 8.20551
-11.5771 11.5055 8.20052
-11.6043 11.4681 8.19542
-11.6313 11.4307 8.19021
-11.6591 11.3939 8.18421
-11.6865 11.3568 8.17841
-11.7133 11.3192 8.173
-11.7403 11.2819 8.16715
-11.7678 11.2447 8.16081
-11.7952 11.2075 8.15425
-11.8226 11.1702 8.14763
-11.8498 11.1326 8.14098
-11.8764 11.0945 8.13474
-11.903 11.0566 8.12826
-11.9296 11.0186 8.12145
-11.9562 10.9793 8.1146
-11.9535 10.916 8.13594
-12.0066 10.8963 8.10163
-12.0314 10.8559 8.09601
-12.0562 10.8153 8.0902
-12.0811 10.7747 8.08432
-12.1048 10.7336 8.07957
-12.1286 10.6927 8.07464
-12.1524 10.6517 8.06955
-12.1768 10.611 8.06377
-12.201 10.5702 8.05781
-12.2249 10.5291 8.05195
-12.2487 10.4878 8.04611
-12.2722 10.4464 8.04033
-12.2955 10.4048 8.03465
-12.3181 10.3626 8.0296
-12.3405 10.3203 8.02453
-12.3636 10.2785 8.01859
-12.3872 10.237 8.01199
-12.411 10.1956 8.00503
-12.4326 10.1525 8.00017
-12.4536 10.1091 7.99575
-12.4749 10.066 7.99102
-12.4969 10.0234 7.98529
-12.5192 9.98106 7.97922
-12.5407 9.93826 7.97377
-12.5612 9.89488 7.96923
-12.5816 9.8515 7.96462
-12.6022 9.80827 7.95974
-12.6223 9.76493 7.95507
-12.6422 9.72162 7.95046
-12.6621 9.67835 7.94589
-12.683 9.63303 7.94195
-12.6624 9.56924 7.97803
-12.7211 9.54257 7.93973
-12.7401 9.49916 7.9385
-12.7571 9.45541 7.93674
-12.7739 9.41178 7.93506
-12.7903 9.36824 7.9331
-12.8054 9.3243 7.93196
-12.8197 9.28006 7.93135
-12.8347 9.23611 7.93006
-12.8497 9.19238 7.92837
-12.864 9.14854 7.92684
-12.8775 9.10446 7.92576
-12.8909 9.06039 7.92462
-12.903 9.01588 7.92438
-12.9146 8.97123 7.92437
-12.9261 8.92654 7.92431
-12.9381 8.88198 7.9238
-12.9499 8.83737 7.92321
-12.9613 8.79266 7.92266
-12.9726 8.74795 7.92202
-12.9845 8.70344 7.92096
-12.9979 8.6594 7.91905
-13.0111 8.61536 7.91707
-13.0244 8.57131 7.91504
-13.0376 8.52726 7.91295
-13.0515 8.48341 7.91046
-13.0656 8.43961 7.90781
-13.0798 8.39586 7.905
-13.0941 8.35209 7.90212
-13.1084 8.30811 7.89933
-13.123 8.26421 7.89637
-13.1378 8.22034 7.8932
-13.1907 8.1909 7.86745
-13.1678 8.13248 7.88713
-13.1827 8.08846 7.88417
-13.1976 8.0444 7.8808
-13.2126 8.00031 7.87739
-13.2273 7.95625 7.8737
-13.2422 7.91228 7.86973
-13.2582 7.86865 7.8651
-13.274 7.82501 7.86049
-13.2898 7.78156 7.85571
-13.3056 7.73817 7.85089
-13.3208 7.69455 7.84637
-13.3363 7.65105 7.84164
-13.352 7.60763 7.83672
-13.3681 7.56435 7.83154
-13.3841 7.52105 7.82634
-13.4003 7.47784 7.82099
-13.4176 7.43508 7.81492
-13.4353 7.39252 7.80852
-13.453 7.34993 7.80211
-13.4706 7.30725 7.79577
-13.4882 7.26456 7.78941
-13.5064 7.22223 7.78249
-13.5252 7.18015 7.77521
-13.5439 7.13803 7.76794
-13.563 7.09598 7.76057
-13.5821 7.05397 7.7531
-13.6013 7.01194 7.74557
-13.6212 6.9703 7.73742
-13.6404 6.92809 7.72979
-13.6597 6.88599 7.72194
-13.6791 6.84386 7.71402
-13.721 6.81542 7.68828
-13.72 6.76081 7.69836
-13.739 6.71849 7.69059
-13.7579 6.67606 7.68275
-13.7774 6.63403 7.67432
-13.7971 6.59225 7.66581
-13.8159 6.55005 7.65799
-13.8348 6.50789 7.65009
-13.8538 6.46582 7.64201
-13.8731 6.42389 7.63359
-13.8923 6.38192 7.62516
-13.9115 6.33992 7.61675
-13.9306 6.29791 7.60833
-13.9496 6.25582 7.60005
-13.9686 6.21371 7.59178
-13.9875 6.17158 7.58352
-14.0063 6.12932 7.57541
-14.0251 6.08701 7.56731
-14.0439 6.04472 7.55916
-14.0625 6.00225 7.55127
-14.0811 5.95985 7.54331
-14.0996 5.9174 7.53546
-14.1177 5.87471 7.52805
-14.1358 5.83212 7.52054
-14.1539 5.78956 7.51303
-14.1716 5.74683 7.50586
-14.1892 5.70405 7.49887
-14.2067 5.66134 7.49187
-14.2242 5.61871 7.4849
-14.2417 5.57615 7.47795
-14.259 5.5336 7.47118
-14.2763 5.49117 7.46447
-14.2965 5.45052 7.45503
-14.3108 5.40689 7.45124
-14.328 5.36508 7.44468
-14.3452 5.32335 7.43823
-14.3627 5.28192 7.43144
-14.3803 5.24067 7.4245
-14.3977 5.1994 7.41773
-14.4151 5.15819 7.41095
-14.4325 5.11702 7.40414
-14.45 5.07583 7.39732
-14.4675 5.03472 7.39036
-14.4852 4.99376 7.38318
-14.5029 4.95279 7.37602
-14.5205 4.9118 7.36892
-14.5383 4.87096 7.36157
-14.5566 4.83041 7.35373
-14.5748 4.78989 7.34584
-14.5932 4.74953 7.33775
-14.6112 4.70885 7.33014
-14.629 4.66811 7.32258
-14.6474 4.6277 7.31437
-14.6658 4.5872 7.3061
-14.6842 4.54666 7.29778
-14.7023 4.50589 7.28972
-14.7207 4.46524 7.28138
-14.739 4.42458 7.27295
-14.7579 4.38423 7.26388
-14.7768 4.34376 7.25471
-14.7959 4.30323 7.24536
-14.8149 4.26256 7.23593
-14.834 4.22168 7.22641
-14.853 4.18043 7.21724
-14.8592 4.12953 7.22157
-14.892 4.09716 7.19732
-14.9117 4.05486 7.18689
-14.9315 4.01232 7.17623
-14.9512 3.96963 7.1655
-14.97 3.9263 7.15574
-14.9888 3.88288 7.14592
-15.0079 3.83953 7.13569
-15.0271 3.79617 7.12527
-15.046 3.75251 7.11521
-15.0642 3.7084 7.10571
-15.0823 3.66416 7.09633
-15.1003 3.61986 7.08696
-15.1167 3.57458 7.07915
-15.1327 3.529 7.07176
-15.1486 3.4834 7.06446
-15.1643 3.43772 7.05735
-15.18 3.39211 7.05026
-15.1946 3.34605 7.04421
-15.208 3.29951 7.03941
-15.2213 3.25296 7.03462
-15.2349 3.2065 7.02956
-15.2485 3.16 7.02462
-15.2616 3.11334 7.0201
-15.2746 3.06665 7.01568
-15.2879 3.02 7.01108
-15.3017 2.97354 7.00611
-15.3155 2.92717 7.00106
-15.3294 2.88089 6.99611
-15.3435 2.83482 6.99119
-15.3582 2.7891 6.98598
-15.3736 2.74416 6.98021
-15.3705 2.69106 6.98995
-15.4044 2.65464 6.96869
-15.4198 2.60991 6.96298
-15.4355 2.56534 6.95708
-15.4512 2.52088 6.95121
-15.4669 2.47651 6.94539
-15.4824 2.43216 6.93974
-15.4974 2.38762 6.93459
-15.5124 2.34315 6.92948
-15.5273 2.29876 6.92444
-15.5416 2.25417 6.91995
-15.5559 2.20964 6.91548
-15.5701 2.16516 6.91105
-15.584 2.12053 6.90694
-15.5966 2.07555 6.90375
-15.6095 2.03071 6.90029
-15.6225 1.98593 6.89681
-15.6353 1.9412 6.89323
-15.6477 1.89635 6.88995
-15.6605 1.85168 6.88635
-15.6736 1.80718 6.8825
-15.6847 1.76201 6.87998
-15.6957 1.71687 6.8775
-15.708 1.67214 6.8744
-15.7201 1.62737 6.87142
-15.7317 1.58254 6.86861
-15.7434 1.53775 6.86581
-15.7546 1.49284 6.86331
-15.7661 1.44808 6.86061
-15.7779 1.40343 6.85775
-15.7898 1.35886 6.85479
-15.8017 1.31433 6.85181
-15.8269 1.27378 6.84254
-15.827 1.22569 6.84452
-15.8391 1.18139 6.8412
-15.8515 1.13722 6.83777
-15.8643 1.09323 6.83411
-15.8771 1.04931 6.83048
-15.8901 1.00553 6.82675
-15.9034 0.961879 6.82285
-15.9169 0.918299 6.8189
-15.9304 0.874789 6.81491
-15.944 0.831365 6.81085
-15.9578 0.788007 6.80674
-15.9716 0.744685 6.80261
-15.9855 0.701399 6.79845
-15.9993 0.658056 6.79438
-16.013 0.614718 6.79035
-16.0269 0.571406 6.78632
-16.0407 0.528088 6.78238
-16.0545 0.484732 6.77853
-16.0684 0.441366 6.77472
-16.0839 0.398653 6.7701
-16.0994 0.35598 6.76542
-16.115 0.31332 6.76073
-16.1307 0.270659 6.75603
-16.146 0.227784 6.75158
-16.1612 0.184876 6.74711
-16.1765 0.141944 6.74265
-16.1921 0.0991571 6.73798
-16.2083 0.0565507 6.73306
-16.2245 0.0139514 6.72809
-16.2408 -0.0286815 6.72312
-16.2582 -0.0709902 6.71759
-16.2794 -0.111377 6.70999
-16.2926 -0.155565 6.70667
-16.3091 -0.198233 6.70142
-16.3257 -0.240939 6.69616
-16.3422 -0.283714 6.69091
-16.3582 -0.326802 6.68598
-16.3741 -0.369928 6.68102
-16.3898 -0.413188 6.67623
-16.4055 -0.456505 6.67148
-16.4214 -0.499753 6.6666
-16.438 -0.542701 6.66128
-16.4553 -0.58536 6.65558
-16.4725 -0.628038 6.64989
-16.4898 -0.670706 6.64423
-16.5028 -0.715547 6.64126
-16.518 -0.759326 6.63689
-16.534 -0.802819 6.63203
-16.55 -0.846316 6.62725
-16.5658 -0.889929 6.62264
-16.5814 -0.933668 6.61818
-16.5964 -0.977673 6.61411
-16.6107 -1.02204 6.61055
-16.6249 -1.06647 6.60706
-16.639 -1.11095 6.60361
-16.6531 -1.1554 6.60012
-16.6672 -1.1997 6.59645
-16.6823 -1.24356 6.59202
-16.6975 -1.28751 6.5876
-16.7128 -1.33142 6.58313
-16.73 -1.37429 6.57711
-16.7472 -1.41721 6.57114
-16.7626 -1.46281 6.56855
-16.7596 -1.51482 6.57678
-16.7922 -1.55268 6.56322
-16.8072 -1.59713 6.55942
-16.8225 -1.64166 6.5557
-16.8379 -1.68611 6.55182
-16.85 -1.73188 6.54974
-16.8617 -1.77782 6.54796
-16.8767 -1.82271 6.54476
-16.8919 -1.86753 6.54141
-16.907 -1.91227 6.53782
-16.9223 -1.95686 6.53397
-16.9367 -2.00185 6.53054
-16.9515 -2.04668 6.52687
-16.9664 -2.0915 6.52325
-16.9816 -2.13617 6.51947
-16.9972 -2.1807 6.51549
-17.0125 -2.22534 6.51165
-17.0257 -2.27067 6.50864
-17.0391 -2.31595 6.50561
-17.0535 -2.36085 6.50218
-17.0679 -2.40573 6.49875
-17.0835 -2.45018 6.49485
-17.0991 -2.4946 6.49093
-17.1152 -2.53881 6.48682
-17.1307 -2.58324 6.48294
-17.1455 -2.62785 6.47933
-17.1602 -2.67245 6.47574
-17.1749 -2.71704 6.47212
-17.19 -2.76144 6.46835
-17.2051 -2.80574 6.4645
-17.2203 -2.84999 6.4606
-17.2347 -2.89475 6.45686
-17.23 -2.94597 6.46015
-17.2625 -2.98396 6.44932
-17.2763 -3.02821 6.44544
-17.2903 -3.07234 6.44142
-17.3042 -3.11639 6.43735
-17.3176 -3.1606 6.43348
-17.3311 -3.20477 6.42958
-17.345 -3.24875 6.42548
-17.3588 -3.29269 6.42138
-17.3724 -3.33673 6.41745
-17.3855 -3.38087 6.41369
-17.3986 -3.42499 6.40993
-17.4117 -3.4691 6.40619
-17.4247 -3.51326 6.40252
-17.4378 -3.55733 6.39876
-17.4509 -3.60138 6.395
-17.464 -3.64542 6.39125
-17.4766 -3.68961 6.38772
-17.4891 -3.7338 6.38421
-17.5016 -3.77803 6.38076
-17.514 -3.82227 6.37735
-17.5264 -3.86652 6.37397
-17.5391 -3.91069 6.37051
-17.5516 -3.95497 6.36719
-17.5637 -3.99935 6.36402
-17.5758 -4.04378 6.36091
-17.5878 -4.08823 6.35784
-17.5997 -4.13276 6.35486
-17.6116 -4.17737 6.35196
-17.6238 -4.22199 6.34902
-17.636 -4.26669 6.34615
-17.648 -4.31157 6.34343
-17.6328 -4.36472 6.35276
-17.672 -4.40195 6.33782
-17.6845 -4.44742 6.33528
-17.6971 -4.49298 6.33281
-17.7089 -4.53878 6.33079
-17.7205 -4.58458 6.32907
-17.7324 -4.63029 6.32729
-17.7445 -4.67596 6.32543
-17.7565 -4.72166 6.32369
-17.7678 -4.76748 6.32233
-17.7791 -4.81328 6.32102
-17.7904 -4.85906 6.31972
-17.8015 -4.90488 6.31856
-17.8124 -4.95079 6.31757
-17.8232 -4.99668 6.31658
-17.834 -5.04255 6.3156
-17.8441 -5.08859 6.315
-17.8538 -5.13467 6.3145
-17.8639 -5.18065 6.31383
-17.8736 -5.22665 6.3133
-17.8832 -5.27262 6.31284
-17.8928 -5.31853 6.31239
-17.9022 -5.36439 6.31198
-17.911 -5.41032 6.31188
-17.9197 -5.45618 6.31177
-17.9285 -5.502 6.31166
-17.9376 -5.54766 6.31138
-17.9459 -5.59334 6.31145
-17.9545 -5.63883 6.31139
-17.963 -5.68418 6.31131
-17.9714 -5.72934 6.31122
-17.9798 -5.77428 6.31113
-17.9885 -5.81881 6.3108
-17.9961 -5.86304 6.31087
-18.0037 -5.90694 6.31087
-18.0112 -5.95061 6.31083
-18.0187 -5.99409 6.31075
-18.0262 -6.03743 6.31065
-18.0343 -6.08055 6.31025
-18.0424 -6.12353 6.30978
-18.0503 -6.16649 6.30939
-18.0581 -6.20946 6.30898
-18.0665 -6.25231 6.30831
-18.0751 -6.29503 6.30746
-18.0839 -6.33769 6.30652
-18.0933 -6.3802 6.30529
-18.1034 -6.4225 6.30366
-18.1135 -6.4648 6.30201
-18.1237 -6.5071 6.30033
-18.1341 -6.54931 6.29849
-18.1445 -6.59155 6.29662
-18.155 -6.63383 6.29473
-18.1654 -6.67618 6.2928
-18.1761 -6.71857 6.29073
-18.1869 -6.76099 6.28853
-18.1979 -6.80349 6.28625
-18.2089 -6.84609 6.28393
-18.2197 -6.8888 6.28165
-18.2304 -6.93167 6.27938
-18.2411 -6.97473 6.27706
-18.2519 -7.01799 6.27469
-18.2633 -7.06127 6.27196
-18.2749 -7.1048 6.2691
-18.2866 -7.14864 6.26616
-18.3027 -7.19155 6.26082
-18.3096 -7.23779 6.26012
-18.321 -7.28314 6.25698
-18.3325 -7.32878 6.25374
-18.3445 -7.37459 6.25025
-18.3565 -7.42058 6.24669
-18.3685 -7.46677 6.24307
-18.3804 -7.51324 6.23952
-18.3914 -7.56009 6.23632
-18.4025 -7.60705 6.23308
-18.4136 -7.65415 6.22982
-18.4246 -7.70142 6.22661
-18.4358 -7.74875 6.22326
-18.4472 -7.79616 6.21979
-18.4587 -7.84365 6.21627
-18.4706 -7.89111 6.21258
-18.4823 -7.9387 6.20904
-18.4939 -7.98628 6.20556
-18.5056 -8.0339 6.2021
-18.5172 -8.08167 6.19878
-18.5263 -8.13002 6.19627
-18.536 -8.17829 6.19351
-18.5464 -8.22646 6.19055
-18.557 -8.27467 6.18758
-18.5675 -8.32293 6.1846
-18.5774 -8.37142 6.18183
-18.5874 -8.41995 6.17904
-18.598 -8.46837 6.17607
-18.6086 -8.51685 6.17314
-18.6192 -8.5654 6.17026
-18.6292 -8.61411 6.16753
-18.6378 -8.6631 6.16514
-18.6478 -8.71186 6.1624
-18.6566 -8.76092 6.15991
-18.6663 -8.8098 6.15721
-18.6766 -8.85857 6.15441
-18.6869 -8.90734 6.15162
-18.6972 -8.95611 6.14883
-18.7079 -9.00478 6.146
-18.7187 -9.05344 6.14317
-18.7294 -9.10207 6.14037
-18.7402 -9.15067 6.13761
-18.7519 -9.19901 6.13464
-18.7639 -9.24724 6.13164
-18.776 -9.29545 6.12867
-18.7872 -9.34384 6.12595
-18.7991 -9.39202 6.12309
-18.8116 -9.44004 6.12018
-18.824 -9.48806 6.11732
-18.8362 -9.53621 6.11459
-18.8482 -9.5844 6.11194
-18.8598 -9.63264 6.10945
-18.8742 -9.68004 6.10637
-18.8893 -9.72706 6.10316
-18.9041 -9.77407 6.10008
-18.9193 -9.82088 6.09696
-18.935 -9.86744 6.09374
-18.951 -9.91375 6.09039
-18.9672 -9.95994 6.08706
-18.9831 -10.0061 6.08391
-18.9989 -10.0521 6.08083
-19.0142 -10.0982 6.07807
-19.0284 -10.1444 6.07575
-19.0426 -10.1905 6.0735
-19.057 -10.2361 6.07121
-19.0725 -10.2809 6.06858
-19.0883 -10.3254 6.06587
-19.1039 -10.3696 6.06327
-19.1189 -10.4138 6.06095
-19.1331 -10.4582 6.05901
-19.147 -10.5025 6.05723
-19.161 -10.5467 6.05549
-19.1752 -10.5906 6.05377
-19.1893 -10.6345 6.05213
-19.2035 -10.6783 6.05059
-19.2168 -10.7223 6.04944
-19.2285 -10.7666 6.0488
-19.2403 -10.8108 6.04819
-19.252 -10.8548 6.04767
-19.2655 -10.8984 6.04678
-19.2794 -10.9418 6.04589
-19.2937 -10.9849 6.04493
-19.3089 -11.0277 6.04376
-19.3227 -11.071 6.04319
-19.3356 -11.1145 6.043
-19.3495 -11.1576 6.04256
-19.364 -11.2005 6.04197
-19.3786 -11.2432 6.04147
-19.393 -11.286 6.04109
-19.4085 -11.3283 6.04048
-19.4236 -11.3706 6.04006
-19.4387 -11.413 6.03968
-19.4536 -11.4554 6.03946
-19.4674 -11.4982 6.03977
-19.4819 -11.5408 6.03994
-19.4976 -11.5834 6.03981
-19.5223 -11.6221 6.03642
-19.5306 -11.667 6.03813
-19.5457 -11.7094 6.03791
-19.5605 -11.752 6.03778
-19.575 -11.7946 6.03779
-19.5896 -11.8372 6.03789
-19.6043 -11.8798 6.03805
-19.6209 -11.9216 6.03776
-19.6376 -11.9635 6.0376
-19.6543 -12.0053 6.03757
-19.6711 -12.0469 6.03765
-19.6867 -12.089 6.03828
-19.7024 -12.1311 6.03906
-19.7206 -12.1721 6.03921
-19.7395 -12.213 6.03932
-19.7569 -12.2544 6.04005
-19.7744 -12.2957 6.04096
-19.7919 -12.337 6.04206
-19.8102 -12.3779 6.04314
-19.8304 -12.418 6.04394
-19.8506 -12.458 6.04494
-19.8682 -12.4993 6.04693
-19.8853 -12.5408 6.0493
-19.9024 -12.5823 6.05191
-19.9188 -12.6241 6.05494
-19.9351 -12.6658 6.0582
-19.9515 -12.7076 6.0617
-19.9672 -12.7496 6.06564
-19.9821 -12.7918 6.07006
-19.9972 -12.8342 6.07485
-20.0116 -12.8767 6.08007
-20.0268 -12.9192 6.08524
-20.0379 -12.9629 6.09187
-20.055 -13.005 6.09739
-20.0699 -13.0477 6.10387
-20.0856 -13.0903 6.11049
-20.1016 -13.1329 6.11735
-20.1181 -13.1753 6.12441
-20.1335 -13.218 6.13203
-20.1493 -13.2607 6.13989
-20.1652 -13.3033 6.14805
-20.1821 -13.3456 6.15625
-20.1996 -13.3876 6.16461
-20.2171 -13.4296 6.17328
-20.2358 -13.4712 6.18195
-20.2556 -13.5122 6.19066
-20.276 -13.553 6.1995
-20.2955 -13.5942 6.20886
-20.3128 -13.6363 6.21906
-20.3299 -13.6783 6.22951
-20.3471 -13.7203 6.24023
-20.3665 -13.7615 6.25076
-20.3868 -13.8022 6.26135
-20.4077 -13.8425 6.27212
-20.4277 -13.8832 6.28342
-20.4479 -13.9237 6.29502
-20.4682 -13.9641 6.30701
-20.4895 -14.0042 6.31934
-20.5115 -14.044 6.33189
-20.5348 -14.0831 6.34447
-20.5589 -14.1216 6.35709
-20.5827 -14.1596 6.36981
-20.6066 -14.1975 6.383
-20.6263 -14.2368 6.39763
-20.6744 -14.2651 6.40503
-20.6742 -14.3161 6.42826
-20.6995 -14.3524 6.44259
-20.7241 -14.3894 6.4577
-20.7482 -14.4265 6.47333
-20.7724 -14.4635 6.48938
-20.7966 -14.5004 6.50577
-20.822 -14.5366 6.52213
-20.8478 -14.5723 6.53862
-20.8728 -14.6084 6.55568
-20.8965 -14.6449 6.57349
-20.9203 -14.6812 6.59158
-20.9444 -14.7173 6.60987
-20.9685 -14.7531 6.62849
-20.9927 -14.7888 6.64737
-21.0184 -14.8236 6.66601
-21.0439 -14.8584 6.68499
-21.0673 -14.894 6.70506
-21.0904 -14.9297 6.72553
-21.1136 -14.9653 6.74626
-21.1354 -15.0012 6.76779
-21.157 -15.0371 6.78968
-21.1787 -15.0728 6.81182
-21.2001 -15.1084 6.8343
-21.2225 -15.1435 6.85666
-21.2452 -15.1783 6.87919
-21.2678 -15.213 6.90199
-21.2887 -15.248 6.9257
-21.3097 -15.2829 6.94963
-21.3306 -15.3176 6.97377
-21.3511 -15.3523 6.99829
-21.3716 -15.3869 7.023
-21.4006 -15.4187 7.04472
-21.4127 -15.4559 7.07303
-21.4341 -15.49 7.09815
-21.4551 -15.5241 7.12341
-21.476 -15.558 7.1489
-21.4974 -15.5916 7.17438
-21.5186 -15.6251 7.20016
-21.5408 -15.658 7.22572
-21.5635 -15.6906 7.25134
-21.5862 -15.7228 7.27718
-21.6089 -15.7548 7.30324
-21.6318 -15.7864 7.32942
-21.6548 -15.8176 7.35584
-21.6789 -15.8483 7.38206
-21.7045 -15.8779 7.40781
-21.73 -15.9071 7.43383
-21.755 -15.9361 7.46041
-21.7794 -15.9647 7.48752
-21.8037 -15.9929 7.51495
-21.8279 -16.0206 7.54261
-21.853 -16.0476 7.57024
-21.8798 -16.0734 7.59747
-21.906 -16.0993 7.62514
-21.9321 -16.1251 7.65301
-21.9575 -16.1509 7.68116
-21.9817 -16.177 7.70976
-22.0034 -16.2044 7.73907
-22.0252 -16.2316 7.76864
-22.0473 -16.2588 7.79811
-22.0716 -16.2854 7.82659
-22.0953 -16.3131 7.85541
-22.1186 -16.3414 7.88427
-22.1764 -16.3458 7.90959
-22.1682 -16.4002 7.94218
-22.1938 -16.429 7.97097
-22.2168 -16.4594 8.00163
-22.2397 -16.4897 8.0324
-22.2625 -16.5194 8.0645
-22.285 -16.5489 8.09702
-22.3099 -16.5757 8.12974
-22.3349 -16.6018 8.16247
-22.3605 -16.626 8.19489
-22.3861 -16.6494 8.22726
-22.4115 -16.6726 8.25974
-22.4401 -16.6916 8.29235
-22.4685 -16.7104 8.32522
-22.4968 -16.7293 8.35824
-22.5255 -16.7472 8.39144
-22.555 -16.7634 8.42487
-22.5844 -16.7793 8.4587
-22.6136 -16.7951 8.49275
-22.6451 -16.8067 8.52684
-22.6772 -16.8168 8.56095
-22.7093 -16.8261 8.5948
-22.7414 -16.8353 8.62873
-22.7735 -16.8446 8.66288
-22.8063 -16.8529 8.697
-22.8414 -16.8576 8.73059
-22.8773 -16.861 8.76419
-22.9133 -16.8645 8.79766
-22.9489 -16.8675 8.83238
-22.9837 -16.8693 8.87066
-23.0176 -16.8693 8.90904
-23.0534 -16.8671 8.9458
-23.121 -16.786 8.94575
-23.1192 -16.8595 9.02062
-23.1491 -16.8543 9.05839
-23.1787 -16.8492 9.09559
-23.2116 -16.8377 9.12827
-23.2438 -16.8335 9.16116
-23.2769 -16.8296 9.19231
-23.3107 -16.8246 9.2227
-23.3455 -16.8183 9.25104
-23.3818 -16.8126 9.27658
-23.4155 -16.8091 9.30504
-23.449 -16.8054 9.33346
-23.4826 -16.8014 9.36183
-23.5182 -16.7955 9.38829
-23.5536 -16.7891 9.415
-23.5855 -16.784 9.44585
-23.6175 -16.7786 9.47697
-23.6498 -16.7727 9.50852
-23.6823 -16.7664 9.54006
-23.7161 -16.7594 9.57041
-23.7507 -16.7519 9.59996
-23.7854 -16.7445 9.62957
-23.8205 -16.7366 9.65881
-23.8569 -16.7282 9.68653
-23.8919 -16.7196 9.71612
-23.9267 -16.7103 9.74572
-23.9623 -16.7004 9.77448
-23.9996 -16.6899 9.80168
-24.0355 -16.6803 9.83025
-24.0697 -16.674 9.85787
-24.102 -16.6674 9.88892
-24.1326 -16.6625 9.9204
-24.2167 -16.6386 9.90071
-24.2133 -16.6426 9.99216
-24.2524 -16.6355 10.0191
-24.2911 -16.6281 10.0452
-24.3298 -16.6209 10.0712
-24.3685 -16.6138 10.0977
-24.4062 -16.6069 10.1257
-24.4437 -16.5997 10.1536
-24.4807 -16.5922 10.1823
-24.518 -16.5835 10.211
-24.5555 -16.5741 10.2396
-24.5928 -16.5645 10.2683
-24.6286 -16.5557 10.2994
-24.6641 -16.5472 10.3305
-24.7005 -16.538 10.3603
-24.7385 -16.5275 10.3876
-24.7766 -16.5168 10.4152
-24.8151 -16.5054 10.4432
-24.8549 -16.4929 10.4696
-24.8951 -16.48 10.4952
-24.9347 -16.4675 10.522
-24.9739 -16.4549 10.5488
-25.017 -16.4392 10.5679
-25.0601 -16.4235 10.5859
-25.1034 -16.4078 10.6037
-25.1467 -16.3925 10.6213
-25.1916 -16.3761 10.635
-25.237 -16.3587 10.6506
-25.2815 -16.3423 10.6673
-25.3231 -16.3297 10.6817
-25.3656 -16.3163 10.6975
-25.4056 -16.3083 10.7163
-25.4948 -16.2417 10.6179
-25.5147 -16.2615 10.7621
-25.5662 -16.241 10.7815
-25.618 -16.2193 10.7965
-25.6715 -16.1957 10.8066
-25.7195 -16.1762 10.8154
-25.7659 -16.1576 10.8242
-25.8136 -16.1364 10.826
-25.8608 -16.1151 10.8307
-25.9066 -16.0943 10.8357
-25.9518 -16.0727 10.8369
-25.9967 -16.0508 10.8375
-26.0416 -16.0286 10.8386
-26.0866 -16.0062 10.8409
-26.1316 -15.9834 10.8427
-26.1764 -15.9599 10.8401
-26.2214 -15.9363 10.8378
-26.2667 -15.9127 10.8366
-26.3121 -15.8891 10.8354
-26.3574 -15.8654 10.8344
-26.4025 -15.8415 10.8328
-26.447 -15.8173 10.8303
-26.4912 -15.7931 10.8278
-26.5352 -15.7689 10.8249
-26.5786 -15.7444 10.8188
-26.6214 -15.7199 10.8097
-26.6647 -15.6961 10.8034
-26.7074 -15.6726 10.7971
-26.7497 -15.6486 10.7897
-26.7926 -15.6231 10.7822
-26.8343 -15.5976 10.7729
-26.8751 -15.5716 10.7625
-26.8899 -15.5373 10.676
-26.9537 -15.5215 10.7415
-26.9907 -15.4976 10.7316
-27.0267 -15.4735 10.7225
-27.0621 -15.4495 10.7129
-27.0962 -15.4241 10.704
-27.1297 -15.3984 10.6955
-27.1629 -15.3727 10.6869
-27.1953 -15.347 10.6772
-27.2284 -15.3218 10.6688
-27.2614 -15.2967 10.6605
-27.2934 -15.2712 10.6498
-27.3247 -15.2455 10.6382
-27.3566 -15.2197 10.6287
-27.3887 -15.1939 10.621
-27.4194 -15.1677 10.6082
-27.4496 -15.1415 10.5944
-27.4803 -15.1153 10.5824
-27.5109 -15.0889 10.5707
-27.5418 -15.0624 10.5597
-27.5726 -15.0358 10.5487
-27.5996 -15.0095 10.529
-27.6264 -14.9827 10.5084
-27.6548 -14.9551 10.4904
-27.6846 -14.927 10.4754
-27.7144 -14.8987 10.4613
-27.7433 -14.8703 10.4463
-27.7735 -14.8415 10.4344
-27.8034 -14.8126 10.4215
-27.8322 -14.7838 10.4056
-27.8611 -14.7548 10.3896
-27.8903 -14.7258 10.3736
-27.9142 -14.6981 10.3437
-27.9505 -14.6667 10.3427
-27.9812 -14.6367 10.327
-28.0102 -14.607 10.3067
-28.0397 -14.5769 10.2872
-28.0723 -14.5459 10.2759
-28.1053 -14.5145 10.2651
-28.1383 -14.483 10.2543
-28.1718 -14.451 10.2453
-28.205 -14.4188 10.2365
-28.2372 -14.3865 10.2232
-28.2689 -14.3541 10.2093
-28.3024 -14.3211 10.2013
-28.336 -14.2882 10.1945
-28.3695 -14.2551 10.1878
-28.4021 -14.2217 10.1779
-28.4344 -14.1881 10.1672
-28.4664 -14.1544 10.1566
-28.4977 -14.1206 10.1443
-28.5291 -14.0866 10.1325
-28.5604 -14.0524 10.1209
-28.591 -14.018 10.108
-28.621 -13.9834 10.0941
-28.6523 -13.9485 10.0835
-28.6839 -13.9133 10.074
-28.7144 -13.8777 10.0621
-28.7444 -13.8419 10.0496
-28.7748 -13.8056 10.0399
-28.8045 -13.7693 10.0285
-28.8332 -13.7331 10.0152
-28.8626 -13.6966 10.0049
-28.8913 -13.66 9.99514
-28.9139 -13.6235 9.96343
-28.949 -13.5829 9.97105
-28.975 -13.546 9.95561
-29.0008 -13.5084 9.94086
-29.027 -13.4706 9.92787
-29.0508 -13.433 9.90859
-29.0759 -13.3942 9.89485
-29.1007 -13.3552 9.88118
-29.1258 -13.3158 9.86914
-29.1509 -13.2764 9.85755
-29.176 -13.2368 9.84648
-29.2004 -13.1973 9.83348
-29.2242 -13.1578 9.81928
-29.248 -13.118 9.80578
-29.2716 -13.078 9.79256
-29.2955 -13.0375 9.78144
-29.319 -12.997 9.77037
-29.3416 -12.9567 9.75658
-29.3635 -12.9165 9.74154
-29.3862 -12.8758 9.72948
-29.4082 -12.8352 9.71578
-29.429 -12.7953 9.69673
-29.4511 -12.754 9.68491
-29.4729 -12.7127 9.67252
-29.4949 -12.671 9.66181
-29.5168 -12.6294 9.651
-29.5385 -12.5877 9.64024
-29.5589 -12.5465 9.62587
-29.5793 -12.5051 9.612
-29.6003 -12.4631 9.59887
-29.6198 -12.4216 9.58263
-29.6389 -12.3803 9.56563
-29.6484 -12.3442 9.52637
-29.6734 -12.2972 9.5331
-29.6914 -12.2568 9.51674
-29.7091 -12.2164 9.5005
-29.7264 -12.1762 9.48405
-29.7435 -12.136 9.46765
-29.7606 -12.0956 9.45193
-29.7781 -12.0545 9.43939
-29.7948 -12.0137 9.42449
-29.811 -11.973 9.40885
-29.827 -11.9323 9.39327
-29.843 -11.8913 9.37861
-29.8581 -11.8507 9.36201
-29.8734 -11.8099 9.34644
-29.8888 -11.7687 9.33206
-29.9041 -11.7272 9.31837
-29.9191 -11.6857 9.3046
-29.9338 -11.6441 9.29062
-29.9483 -11.6025 9.27672
-29.9627 -11.5606 9.26358
-29.9768 -11.5186 9.25047
-29.9911 -11.4762 9.23902
-30.0047 -11.434 9.22588
-30.0181 -11.3918 9.21278
-30.0312 -11.3495 9.19971
-30.0436 -11.3076 9.18473
-30.0555 -11.2659 9.16883
-30.0672 -11.224 9.15317
-30.0787 -11.1818 9.13791
-30.0898 -11.1394 9.12246
-30.1006 -11.0974 9.10587
-30.111 -11.0554 9.0889
-30.1209 -11.0148 9.06804
-30.1311 -10.972 9.05233
-30.1407 -10.9308 9.03284
-30.1503 -10.8882 9.01603
-30.1599 -10.8449 9.00093
-30.169 -10.8023 8.98393
-30.1778 -10.7598 8.9665
-30.1864 -10.7169 8.94983
-30.1952 -10.6733 8.9354
-30.2035 -10.6298 8.92043
-30.2115 -10.5864 8.90516
-30.2196 -10.5423 8.89166
-30.2276 -10.4979 8.87918
-30.2353 -10.4535 8.86669
-30.2426 -10.4092 8.85351
-30.2496 -10.365 8.8402
-30.2565 -10.3207 8.82672
-30.2633 -10.2762 8.81418
-30.2699 -10.2316 8.80168
-30.2763 -10.187 8.78924
-30.2825 -10.1424 8.77686
-30.2879 -10.098 8.76292
-30.2929 -10.0539 8.74829
-30.2975 -10.0097 8.73374
-30.3018 -9.96559 8.71969
-30.3058 -9.92109 8.70821
-30.3089 -9.87773 8.69363
-30.3116 -9.835 8.67696
-30.3136 -9.79283 8.65827
-30.3158 -9.7495 8.64074
-30.3183 -9.70506 8.62606
-30.3206 -9.66039 8.61201
-30.3286 -9.6074 8.62569
-30.3237 -9.57133 8.58435
-30.3244 -9.52708 8.57097
-30.3247 -9.48289 8.55738
-30.3246 -9.43876 8.54383
-30.3241 -9.39459 8.53036
-30.3239 -9.34952 8.51969
-30.3232 -9.3046 8.50804
-30.322 -9.26022 8.49454
-30.3202 -9.2158 8.48129
-30.3178 -9.17215 8.46581
-30.3149 -9.12876 8.44979
-30.312 -9.08509 8.43489
-30.3096 -9.04024 8.42432
-30.307 -8.99535 8.41376
-30.3041 -8.95066 8.40234
-30.3009 -8.90612 8.39034
-30.2978 -8.86123 8.37954
-30.2946 -8.81632 8.36878
-30.2912 -8.77139 8.35805
-30.2877 -8.72629 8.34802
-30.2843 -8.68104 8.33873
-30.2806 -8.63578 8.32943
-30.2767 -8.59051 8.32018
-30.2725 -8.54521 8.31098
-30.268 -8.49985 8.30189
-30.2637 -8.45405 8.29487
-30.2593 -8.4082 8.28806
-30.2545 -8.36245 8.28056
-30.2493 -8.31674 8.27265
-30.2441 -8.27098 8.26532
-30.2388 -8.22527 8.25806
-30.2443 -8.17174 8.29326
-30.226 -8.13429 8.24436
-30.22 -8.08972 8.23833
-30.2143 -8.04484 8.23124
-30.2084 -8.00004 8.22418
-30.2024 -7.95531 8.21719
-30.1964 -7.91046 8.21079
-30.191 -7.8652 8.20638
-30.1849 -7.82021 8.19989
-30.1782 -7.77559 8.19194
-30.1715 -7.73092 8.18399
-30.1656 -7.68564 8.17832
-30.1601 -7.64006 8.17412
-30.1543 -7.59457 8.16936
-30.1473 -7.54956 8.16247
-30.1401 -7.50452 8.15568
-30.1331 -7.45936 8.14949
-30.1261 -7.41422 8.14331
-30.1188 -7.36918 8.13681
-30.1106 -7.32441 8.12926
-30.101 -7.2802 8.11953
-30.0926 -7.23525 8.11216
-30.0848 -7.18994 8.10598
-30.0769 -7.14457 8.09987
-30.0676 -7.09959 8.09224
-30.0574 -7.05498 8.08378
-30.0498 -7.00914 8.07866
-30.0421 -6.96334 8.07369
-30.0329 -6.91797 8.06729
-30.0237 -6.87241 8.06113
-30.0143 -6.82669 8.05508
-30.0045 -6.78083 8.04894
-29.9891 -6.73669 8.03715
-29.9855 -6.68821 8.03789
-29.9759 -6.64121 8.03307
-29.9659 -6.59408 8.02824
-29.9542 -6.54742 8.02184
-29.9422 -6.50084 8.01559
-29.9301 -6.45421 8.00945
-29.9193 -6.40692 8.0047
-29.9088 -6.35945 8.0003
-29.8981 -6.31201 7.99583
-29.8873 -6.26453 7.99141
-29.8752 -6.21738 7.98585
-29.8625 -6.17041 7.97979
-29.8497 -6.12343 7.97378
-29.8369 -6.07644 7.96784
-29.8241 -6.02941 7.96194
-29.8112 -5.98238 7.95608
-29.7977 -5.93563 7.94968
-29.7839 -5.88899 7.94308
-29.7701 -5.84235 7.93649
-29.7564 -5.79569 7.92995
-29.7434 -5.74877 7.924
-29.7298 -5.70211 7.91746
-29.7162 -5.65551 7.91082
-29.7026 -5.6089 7.90411
-29.6895 -5.5621 7.8976
-29.6764 -5.51537 7.89091
-29.6634 -5.46872 7.88413
-29.6499 -5.42234 7.87679
-29.636 -5.37616 7.86901
-29.6221 -5.33011 7.86094
-29.6084 -5.28417 7.85267
-29.5779 -5.24588 7.83073
-29.5813 -5.19262 7.83498
-29.5681 -5.14739 7.82532
-29.5545 -5.10278 7.81515
-29.5413 -5.05821 7.80495
-29.5282 -5.01361 7.79468
-29.5159 -4.96878 7.78487
-29.5048 -4.92367 7.77578
-29.4938 -4.87863 7.76664
-29.4831 -4.83346 7.75778
-29.4735 -4.78792 7.74964
-29.4642 -4.7423 7.74167
-29.4552 -4.69663 7.73383
-29.4472 -4.65079 7.7266
-29.4393 -4.60488 7.71931
-29.4328 -4.55843 7.71301
-29.4266 -4.51159 7.70668
-29.4199 -4.46421 7.69968
-29.4131 -4.41658 7.6925
-29.4057 -4.36914 7.68476
-29.3981 -4.32192 7.67692
-29.3904 -4.2752 7.66918
-29.3826 -4.22879 7.66156
-29.3738 -4.18257 7.65295
-29.3598 -4.13897 7.64072
-29.3458 -4.09534 7.62846
-29.3319 -4.05185 7.61626
-29.3169 -4.00934 7.60332
-29.3009 -3.96747 7.59005
-29.2846 -3.925 7.57793
-29.2685 -3.883 7.56576
-29.2488 -3.84102 7.55153
-29.1799 -3.83625 7.50032
-29.2143 -3.76206 7.52
-29.1975 -3.72563 7.50647
-29.1803 -3.68937 7.49418
-29.1633 -3.65359 7.48223
-29.1463 -3.61799 7.47042
-29.1294 -3.58265 7.45881
-29.113 -3.54721 7.44775
-29.0965 -3.512 7.43671
-29.0799 -3.47676 7.42567
-29.0632 -3.44157 7.41472
-29.0467 -3.40632 7.404
-29.0317 -3.37029 7.39436
-29.0158 -3.33497 7.38435
-28.9998 -3.29973 7.37445
-28.9843 -3.26419 7.36495
-28.9692 -3.22829 7.35577
-28.9551 -3.19162 7.34714
-28.9415 -3.15457 7.33882
-28.9279 -3.11734 7.33072
-28.9141 -3.08015 7.32264
-28.8999 -3.04301 7.31467
-28.8862 -3.00554 7.30722
-28.8724 -2.96799 7.29995
-28.8584 -2.93043 7.29284
-28.844 -2.89296 7.28573
-28.8302 -2.8551 7.27927
-28.8161 -2.81716 7.27301
-28.8018 -2.77916 7.26701
-28.7873 -2.74127 7.26127
-28.7716 -2.70368 7.2552
-28.7562 -2.66473 7.25069
-28.7565 -2.61868 7.25534
-28.7262 -2.58635 7.24362
-28.7106 -2.54745 7.2403
-28.693 -2.50854 7.2366
-28.6752 -2.46944 7.23318
-28.6571 -2.43023 7.22999
-28.6398 -2.39038 7.22753
-28.6228 -2.35008 7.22557
-28.6044 -2.31027 7.22295
-28.5847 -2.27084 7.21984
-28.5656 -2.23096 7.21717
-28.5476 -2.19035 7.2153
-28.5294 -2.14964 7.21345
-28.5105 -2.10902 7.21139
-28.4914 -2.06836 7.20929
-28.4722 -2.02759 7.20722
-28.4538 -1.98638 7.20564
-28.4373 -1.94431 7.20522
-28.4189 -1.90306 7.20365
-28.3998 -1.86202 7.20166
-28.3809 -1.82074 7.19968
-28.3628 -1.77876 7.19815
-28.3446 -1.73662 7.19645
-28.3261 -1.69437 7.19449
-28.3068 -1.65228 7.19197
-28.2873 -1.61009 7.18921
-28.2691 -1.56702 7.18702
-28.252 -1.52316 7.18528
-28.2327 -1.47987 7.18194
-28.2131 -1.43638 7.17816
-28.1937 -1.39239 7.17404
-28.1753 -1.34744 7.17004
-28.1642 -1.29848 7.16985
-28.1386 -1.25551 7.1593
-28.1198 -1.20873 7.15223
-28.1011 -1.16114 7.14507
-28.0849 -1.11209 7.13906
-28.0677 -1.06342 7.13197
-28.0502 -1.01465 7.12441
-28.033 -0.965508 7.11672
-28.0162 -0.916008 7.10908
-27.9993 -0.866387 7.10135
-27.9825 -0.816627 7.09349
-27.9658 -0.766725 7.08551
-27.9498 -0.716379 7.07784
-27.9336 -0.665964 7.06998
-27.9175 -0.615466 7.06205
-27.9015 -0.564901 7.05407
-27.8831 -0.515327 7.04452
-27.8641 -0.466118 7.03464
-27.8451 -0.416905 7.02477
-27.8292 -0.366113 7.01703
-27.8089 -0.317561 7.00625
-27.789 -0.268803 6.99597
-27.7717 -0.218969 6.98724
-27.7526 -0.170033 6.97755
-27.735 -0.1205 6.96869
-27.7175 -0.071023 6.95985
-27.6999 -0.0218082 6.95094
-27.6822 0.0270882 6.94208
-27.6645 0.0757561 6.93338
-27.6466 0.124106 6.92476
-27.6282 0.17187 6.9161
-27.6098 0.219191 6.90773
-27.5748 0.257692 6.89022
-27.5742 0.311747 6.89138
-27.5562 0.356831 6.88435
-27.5383 0.401444 6.8776
-27.5202 0.44555 6.87105
-27.5027 0.48953 6.86489
-27.4853 0.533196 6.85893
-27.4677 0.576508 6.8531
-27.4494 0.619215 6.84699
-27.4308 0.661668 6.84081
-27.4119 0.70381 6.83457
-27.3932 0.745872 6.82853
-27.3747 0.78788 6.82271
-27.3562 0.829726 6.817
-27.3378 0.871491 6.81145
-27.3195 0.91317 6.80601
-27.2999 0.954152 6.80007
-27.2802 0.994999 6.79412
-27.2618 1.03659 6.78902
-27.2442 1.07853 6.78446
-27.2241 1.11903 6.77847
-27.2038 1.15938 6.77237
-27.1834 1.19973 6.76634
-27.1638 1.2406 6.76087
-27.1442 1.28155 6.75556
-27.1246 1.32251 6.75041
-27.1036 1.36276 6.74453
-27.0807 1.40165 6.73708
-27.0608 1.44312 6.73227
-27.0386 1.48334 6.7261
-27.016 1.52346 6.71951
-26.9924 1.56288 6.71185
-26.9631 1.59845 6.69895
-26.948 1.64482 6.69739
-26.9244 1.68579 6.68848
-26.9006 1.72647 6.67933
-26.8768 1.76745 6.67016
-26.855 1.81044 6.66331
-26.8321 1.85277 6.65533
-26.8087 1.89517 6.64697
-26.7818 1.93439 6.63502
-26.7544 1.9726 6.62224
-26.7333 2.01725 6.61635
-26.7118 2.06043 6.61012
-26.6898 2.10327 6.60341
-26.6676 2.14618 6.59682
-26.6454 2.18912 6.59041
-26.6251 2.23319 6.58633
-26.6037 2.27663 6.58102
-26.582 2.32002 6.57598
-26.5597 2.36314 6.57067
-26.5374 2.40612 6.56538
-26.515 2.44897 6.56014
-26.4923 2.4917 6.55481
-26.4698 2.53426 6.54976
-26.4505 2.57823 6.54854
-26.4313 2.62205 6.54735
-26.412 2.66576 6.54616
-26.3922 2.70894 6.54415
-26.3725 2.75184 6.54188
-26.3528 2.79432 6.5395
-26.3331 2.83622 6.53729
-26.3134 2.87774 6.53505
-26.2934 2.91839 6.53219
-26.2926 2.97032 6.55836
-26.2553 3.00325 6.53316
-26.2382 3.04307 6.53419
-26.2212 3.08245 6.53529
-26.2042 3.12134 6.53636
-26.1868 3.1597 6.5367
-26.1694 3.1977 6.53687
-26.152 3.23541 6.53705
-26.1346 3.27295 6.53734
-26.116 3.3101 6.5367
-26.0972 3.3471 6.53604
-26.0797 3.38467 6.53737
-26.0622 3.42217 6.53889
-26.0447 3.45948 6.54047
-26.0271 3.49669 6.5421
-26.0094 3.53381 6.54373
-25.991 3.57059 6.5445
-25.9726 3.6073 6.54533
-25.9541 3.64398 6.54622
-25.9355 3.6807 6.54717
-25.9153 3.71679 6.54581
-25.8948 3.75303 6.54473
-25.876 3.79021 6.54614
-25.8571 3.8275 6.54764
-25.838 3.86485 6.54925
-25.8186 3.90217 6.55101
-25.7988 3.93945 6.55239
-25.7785 3.97688 6.55355
-25.758 4.01458 6.55478
-25.7372 4.05253 6.55609
-25.7162 4.09091 6.55743
-25.6935 4.13006 6.55593
-25.6587 4.16216 6.53839
-25.6519 4.21006 6.55834
-25.6298 4.25192 6.56056
-25.6073 4.2942 6.56264
-25.5842 4.33666 6.56436
-25.5607 4.3791 6.56551
-25.537 4.42173 6.56674
-25.5128 4.46445 6.56775
-25.4879 4.50703 6.56854
-25.4638 4.55006 6.57093
-25.439 4.5928 6.57282
-25.4128 4.63539 6.57378
-25.3847 4.67632 6.57195
-25.3607 4.71993 6.57495
-25.3366 4.7636 6.57806
-25.3107 4.80648 6.57968
-25.2842 4.8491 6.5808
-25.2556 4.89048 6.58007
-25.2268 4.93188 6.57936
-25.1991 4.97404 6.57983
-25.1708 5.01589 6.57987
-25.1423 5.05766 6.57992
-25.1155 5.10053 6.58169
-25.0893 5.14369 6.58405
-25.0616 5.18584 6.585
-25.0323 5.22669 6.58415
-25.0013 5.26615 6.58157
-24.9719 5.30715 6.58086
-24.9431 5.34836 6.58063
-24.9144 5.38869 6.57998
-24.8869 5.42982 6.58035
-24.8582 5.47219 6.58066
-24.8037 5.49296 6.55792
-24.7998 5.55005 6.57817
-24.7719 5.58921 6.57802
-24.7439 5.62805 6.57791
-24.7165 5.66706 6.57827
-24.6893 5.70625 6.57893
-24.6609 5.74435 6.57851
-24.631 5.78115 6.57686
-24.6013 5.81777 6.57523
-24.5732 5.8551 6.57468
-24.5449 5.89206 6.57394
-24.5166 5.92888 6.57319
-24.4881 5.96535 6.5722
-24.4587 6.00111 6.57054
-24.4287 6.03623 6.56833
-24.3987 6.07132 6.56614
-24.3694 6.10705 6.56457
-24.3403 6.14315 6.56335
-24.3117 6.17974 6.56264
-24.284 6.217 6.56263
-24.2557 6.25371 6.56216
-24.2251 6.28845 6.56001
-24.1949 6.32366 6.55829
-24.1662 6.35995 6.55757
-24.1375 6.39615 6.55678
-24.1089 6.43251 6.556
-24.0827 6.47046 6.55676
-24.0546 6.50713 6.55631
-24.026 6.54342 6.55551
-23.9987 6.58076 6.55577
-23.9709 6.618 6.55569
-23.9431 6.65551 6.5558
-23.934 6.70658 6.56763
-23.8886 6.73095 6.55549
-23.8612 6.76836 6.55472
-23.8333 6.8057 6.55411
-23.8057 6.84322 6.5536
-23.7795 6.88145 6.55372
-23.7535 6.91975 6.55385
-23.7274 6.9581 6.55397
-23.7013 6.99644 6.55404
-23.6767 7.03581 6.55509
-23.6527 7.07556 6.55649
-23.6278 7.11486 6.5574
-23.603 7.15421 6.55834
-23.5796 7.19442 6.56012
-23.5564 7.23477 6.56204
-23.5331 7.27502 6.56388
-23.5097 7.31524 6.56575
-23.4862 7.35547 6.56779
-23.4626 7.3956 6.56981
-23.4363 7.43563 6.57101
-23.4036 7.46881 6.56597
-23.3747 7.50544 6.56423
-23.3467 7.54255 6.56307
-23.3186 7.57963 6.56194
-23.2901 7.61633 6.56063
-23.2602 7.65195 6.5583
-23.2271 7.68449 6.55381
-23.1941 7.717 6.54929
-23.1634 7.7517 6.54643
-23.1319 7.78623 6.5433
-23.1009 7.82122 6.54057
-23.0701 7.85616 6.53829
-23.0643 7.91535 6.55336
-23.0056 7.92945 6.53313
-22.9754 7.96751 6.53113
-22.9469 8.00569 6.53047
-22.9185 8.04384 6.52984
-22.8907 8.08244 6.52965
-22.8631 8.12104 6.52953
-22.8349 8.15937 6.52922
-22.8073 8.19804 6.52935
-22.7802 8.23696 6.52993
-22.7535 8.27607 6.53081
-22.7273 8.31554 6.53212
-22.7012 8.35511 6.53359
-22.6748 8.39448 6.53486
-22.6483 8.43385 6.53616
-22.6217 8.47314 6.53746
-22.5953 8.51256 6.53896
-22.569 8.55191 6.5405
-22.5426 8.59124 6.54209
-22.5169 8.63095 6.54418
-22.4915 8.67087 6.54655
-22.4659 8.7107 6.54886
-22.4396 8.75004 6.55074
-22.4132 8.78924 6.55256
-22.3868 8.82847 6.55449
-22.361 8.86807 6.55685
-22.3349 8.90737 6.55902
-22.3087 8.94667 6.56124
-22.2826 8.98584 6.56362
-22.257 9.02464 6.56629
-22.2302 9.06258 6.56844
-22.2029 9.10013 6.57034
-22.2111 9.16287 6.59508
-22.149 9.18012 6.57729
-22.1225 9.2199 6.58051
-22.0972 9.25957 6.58388
-22.0716 9.29901 6.58719
-22.0465 9.33879 6.59111
-22.0219 9.37875 6.59539
-21.9978 9.41897 6.59999
-21.9739 9.45914 6.60472
-21.9509 9.49938 6.60981
-21.9282 9.53963 6.6151
-21.9068 9.58034 6.62099
-21.8853 9.62105 6.62696
-21.8633 9.66157 6.63277
-21.8413 9.70206 6.63858
-21.8194 9.74258 6.64448
-21.7984 9.78348 6.65081
-21.7774 9.82434 6.65708
-21.7565 9.86516 6.66331
-21.7356 9.90602 6.66963
-21.7166 9.94759 6.67676
-21.6966 9.98881 6.68356
-21.6746 10.029 6.68936
-21.6525 10.0692 6.69514
-21.6299 10.109 6.70074
-21.6077 10.1489 6.70662
-21.5855 10.1888 6.71254
-21.5626 10.2283 6.71806
-21.5405 10.2683 6.72417
-21.5191 10.3083 6.73065
-21.4977 10.3485 6.73725
-21.4758 10.3889 6.7437
-21.4302 10.4178 6.73733
-21.422 10.4684 6.75476
-21.3957 10.5035 6.75673
-21.3712 10.5422 6.76171
-21.3468 10.5809 6.76673
-21.3223 10.6198 6.77188
-21.3002 10.6599 6.77847
-21.2794 10.7005 6.78601
-21.2545 10.7387 6.79047
-21.2274 10.7758 6.79372
-21.2005 10.813 6.7971
-21.1767 10.8517 6.80237
-21.1523 10.8901 6.8073
-21.1274 10.9282 6.81188
-21.102 10.9661 6.81608
-21.077 11.0043 6.82055
-21.0528 11.0429 6.82559
-21.0275 11.0811 6.82992
-21.0012 11.1188 6.83364
-20.9723 11.1544 6.83539
-20.9481 11.1938 6.84055
-20.923 11.2323 6.84477
-20.8959 11.2695 6.84784
-20.8687 11.3066 6.85088
-20.8416 11.3438 6.85392
-20.8148 11.3811 6.85717
-20.7882 11.4185 6.86048
-20.7615 11.456 6.8637
-20.7353 11.4938 6.86718
-20.71 11.5321 6.8712
-20.6846 11.5704 6.87517
-20.6563 11.6078 6.87788
-20.614 11.6354 6.87066
-20.5986 11.6819 6.87982
-20.5719 11.7186 6.88173
-20.5459 11.757 6.88507
-20.5197 11.7954 6.88831
-20.4924 11.8328 6.89089
-20.4651 11.8703 6.89343
-20.4379 11.9078 6.89594
-20.4079 11.9435 6.89705
-20.3812 11.9814 6.89964
-20.3552 12.0198 6.90248
-20.3275 12.0573 6.90426
-20.2983 12.0936 6.90523
-20.2691 12.1298 6.90632
-20.2404 12.1664 6.90764
-20.2118 12.2031 6.90896
-20.1831 12.2398 6.9103
-20.1543 12.2763 6.91167
-20.1251 12.3124 6.91286
-20.0958 12.3486 6.91405
-20.0666 12.3848 6.91525
-20.0386 12.4218 6.91696
-20.0105 12.459 6.91864
-19.9821 12.4959 6.92014
-19.9532 12.5325 6.92141
-19.9243 12.5691 6.92267
-19.8956 12.6059 6.92401
-19.8671 12.6429 6.92537
-19.8385 12.6799 6.9267
-19.8098 12.7172 6.92797
-19.7817 12.7549 6.92944
-19.7536 12.7926 6.93083
-19.7543 12.8514 6.94512
-19.697 12.8675 6.93404
-19.6688 12.9052 6.93476
-19.6392 12.9419 6.93493
-19.6104 12.9792 6.93534
-19.5816 13.0167 6.93612
-19.5527 13.0541 6.93697
-19.5232 13.0912 6.9375
-19.494 13.1284 6.93822
-19.4653 13.1659 6.93923
-19.4375 13.2041 6.94071
-19.4096 13.2422 6.9422
-19.3809 13.2797 6.94324
-19.3529 13.3177 6.94462
-19.3248 13.3557 6.94598
-19.297 13.3937 6.94744
-19.2706 13.4328 6.94964
-19.2446 13.472 6.95204
-19.2192 13.5115 6.95476
-19.1941 13.5513 6.95763
-19.1695 13.5913 6.96072
-19.1449 13.6314 6.96394
-19.1209 13.6718 6.96744
-19.0969 13.7123 6.97094
-19.072 13.7523 6.97394
-19.0466 13.7922 6.97653
-19.0211 13.8321 6.97903
-18.9957 13.872 6.98159
-18.9712 13.9123 6.98457
-18.9468 13.9525 6.98739
-18.9219 13.9926 6.99003
-18.8969 14.034 6.99316
-18.9241 14.1035 7.02622
-18.848 14.118 7.00072
-18.8248 14.159 7.00473
-18.8012 14.1999 7.00866
-18.7775 14.2407 7.01252
-18.7541 14.2818 7.01667
-18.7308 14.323 7.02096
-18.7082 14.3645 7.02559
-18.6859 14.4061 7.03032
-18.6635 14.4473 7.03478
-18.6411 14.4884 7.03911
-18.6179 14.529 7.04283
-18.5955 14.57 7.04701
-18.5732 14.611 7.05117
-18.5509 14.6521 7.05526
-18.5288 14.6932 7.05942
-18.5074 14.7348 7.06394
-18.4852 14.776 7.06801
-18.4625 14.817 7.0717
-18.4396 14.858 7.07526
-18.4162 14.8987 7.07839
-18.3936 14.9399 7.08196
-18.371 14.9812 7.08545
-18.3485 15.0224 7.08888
-18.3263 15.0639 7.09242
-18.3046 15.1056 7.09611
-18.2829 15.1473 7.09972
-18.2607 15.1888 7.10293
-18.2383 15.2303 7.10598
-18.2159 15.272 7.10884
-18.1942 15.3141 7.11212
-18.1724 15.3562 7.11511
-18.1632 15.4046 7.12548
-18.1286 15.4418 7.12166
-18.1086 15.4852 7.12524
-18.0884 15.5287 7.12844
-18.0672 15.5718 7.13099
-18.0452 15.6148 7.13318
-18.0229 15.6577 7.13509
-18.0009 15.7008 7.13702
-17.9788 15.7438 7.13879
-17.9568 15.7869 7.14049
-17.9354 15.8301 7.14241
-17.9154 15.8739 7.1449
-17.8953 15.9177 7.14732
-17.874 15.961 7.14902
-17.8508 16.0034 7.14967
-17.8272 16.0455 7.14987
-17.8047 16.0882 7.15066
-17.7823 16.1309 7.15143
-17.76 16.1735 7.15211
-17.7383 16.2164 7.15303
-17.7181 16.2599 7.15475
-17.6986 16.3034 7.15661
-17.6789 16.3468 7.15829
-17.6586 16.3897 7.15952
-17.6374 16.4321 7.16005
-17.6157 16.4741 7.1601
-17.5946 16.5162 7.16032
-17.5755 16.5589 7.16158
-17.5554 16.6009 7.16208
-17.5354 16.6428 7.16248
-17.5158 16.6844 7.16287
-17.4964 16.7256 7.16312
-17.4646 16.7608 7.15631
-17.457 16.8074 7.16441
-17.4364 16.847 7.16448
-17.4144 16.8842 7.16168
-17.3931 16.9215 7.15927
-17.373 16.9595 7.15796
-17.3531 16.9975 7.15669
-17.3335 17.0354 7.15537
-17.3156 17.074 7.15511
-17.299 17.1132 7.15544
-17.2822 17.1523 7.15555
-17.2643 17.1907 7.15487
-17.2459 17.2287 7.15381
-17.2242 17.2647 7.15058
-17.2022 17.3005 7.14705
-17.1829 17.3377 7.14533
-17.1639 17.375 7.14372
-17.1454 17.4126 7.14241
-17.127 17.4503 7.14105
-17.1117 17.4897 7.14176
-17.0966 17.5291 7.14258
-17.0777 17.5667 7.14079
-17.0573 17.6035 7.13797
-17.0369 17.6404 7.13509
-17.0163 17.6772 7.13196
-16.9954 17.7138 7.12865
-16.9746 17.7506 7.12524
-16.9536 17.7876 7.12185
-16.9327 17.8248 7.11792
-16.9145 17.8636 7.11418
-16.8947 17.9016 7.10886
-16.8747 17.9401 7.10328
-16.807 17.9512 7.0706
-16.8274 18.021 7.09074
-16.8042 18.0606 7.08314
-16.7795 18.0996 7.07569
-16.756 18.1395 7.0686
-16.732 18.1799 7.06205
-16.7068 18.2197 7.05503
-16.6815 18.2598 7.04787
-16.6562 18.2999 7.04065
-16.6305 18.3395 7.03312
-16.6046 18.3789 7.02538
-16.5791 18.4186 7.01772
-16.5528 18.458 7.00962
-16.5254 18.4967 7.00089
-16.4977 18.5353 6.99188
-16.4696 18.5737 6.98255
-16.4416 18.6123 6.97301
-16.4137 18.651 6.96313
-16.3855 18.6896 6.95294
-16.3552 18.7263 6.94152
-16.3245 18.7626 6.92983
-16.2941 18.7992 6.91842
-16.2641 18.8363 6.90727
-16.2336 18.8731 6.8959
-16.2007 18.9078 6.88355
-16.1683 18.9436 6.87161
-16.1349 18.9787 6.85941
-16.1015 19.0134 6.84759
-16.0671 19.0483 6.83514
-16.0314 19.0852 6.82063
-15.9938 19.1191 6.80567
-15.9545 19.1516 6.7899
-15.8606 19.1066 6.75366
-15.8812 19.2152 6.76548
-15.844 19.2477 6.75292
-15.807 19.2798 6.74077
-15.7691 19.3096 6.72825
-15.7316 19.3373 6.71566
-15.6944 19.3644 6.70316
-15.6574 19.3923 6.69098
-15.6205 19.4204 6.67884
-15.5835 19.4482 6.66628
-15.546 19.4753 6.65336
-15.5075 19.5007 6.63988
-15.4689 19.5259 6.62629
-15.4299 19.5504 6.61247
-15.3905 19.5745 6.59847
-15.3511 19.5989 6.58424
-15.3137 19.6267 6.57108
-15.2747 19.6518 6.5569
-15.2353 19.6762 6.54241
-15.195 19.6987 6.52723
-15.1548 19.7215 6.51203
-15.1153 19.7455 6.49718
-15.0759 19.7696 6.48224
-15.0364 19.7935 6.46718
-14.997 19.8173 6.45207
-14.9574 19.8413 6.43698
-14.918 19.8655 6.42193
-14.8788 19.8897 6.40678
-14.8394 19.9127 6.39116
-14.7997 19.9344 6.37508
-14.7608 19.9574 6.35932
-14.7225 19.9804 6.34353
-14.6792 19.9911 6.32275
-14.6469 20.025 6.31072
-14.6103 20.0478 6.29392
-14.5737 20.0692 6.27681
-14.5373 20.0903 6.25942
-14.501 20.1113 6.24193
-14.4656 20.1337 6.22488
-14.4305 20.1561 6.2078
-14.3954 20.1785 6.19063
-14.3603 20.201 6.17334
-14.3256 20.2241 6.15623
-14.2909 20.2474 6.13913
-14.2567 20.2713 6.12223
-14.2224 20.295 6.10525
-14.1882 20.3187 6.08819
-14.154 20.3424 6.07115
-14.1196 20.3659 6.05397
-14.0852 20.3893 6.03687
-14.051 20.4129 6.01988
-14.0165 20.4363 6.00275
-13.9819 20.4596 5.98555
-13.9471 20.4827 5.96812
-13.9116 20.5046 5.95013
-13.8758 20.526 5.93194
-13.8396 20.5468 5.91349
-13.8035 20.5682 5.89534
-13.7674 20.5896 5.87718
-13.7309 20.6109 5.85886
-13.6943 20.6323 5.84046
-13.6579 20.6549 5.82222
-13.621 20.6776 5.80394
-13.5839 20.6999 5.7859
-13.5554 20.7441 5.77514
-13.5075 20.7472 5.74912
-13.4688 20.7718 5.73071
-13.4301 20.7968 5.71236
-13.3911 20.8221 5.694
-13.352 20.8475 5.67566
-13.3129 20.8735 5.65749
-13.2736 20.8996 5.63934
-13.2341 20.9255 5.62112
-13.195 20.9522 5.60318
-13.1558 20.9789 5.58531
-13.1159 21.0043 5.56707
-13.076 21.03 5.54904
-13.036 21.056 5.53116
-12.996 21.0819 5.51338
-12.9569 21.1098 5.49642
-12.9177 21.1377 5.47963
-12.8786 21.1662 5.46321
-12.8392 21.1942 5.44688
-12.7995 21.2218 5.43067
-12.7598 21.2494 5.41465
-12.7229 21.2811 5.39992
-12.6852 21.3119 5.38515
-12.6471 21.3421 5.37052
-12.6091 21.3726 5.35626
-12.5708 21.4029 5.34225
-12.532 21.4325 5.32835
-12.495 21.4643 5.31524
-12.4581 21.4962 5.30249
-12.4213 21.528 5.29012
-12.385 21.5603 5.27819
-12.3488 21.5922 5.26659
-12.3327 21.6479 5.26003
-12.278 21.6559 5.24522
-12.2434 21.6869 5.23483
-12.2088 21.7175 5.22475
-12.1742 21.7477 5.21496
-12.1396 21.7777 5.20546
-12.1054 21.8079 5.1963
-12.0712 21.838 5.18747
-12.037 21.8679 5.17893
-12.0029 21.8978 5.17065
-11.969 21.9278 5.16268
-11.9351 21.9578 5.15498
-11.9013 21.9877 5.14756
-11.8676 22.0177 5.14043
-11.8339 22.0476 5.13356
-11.8002 22.0774 5.12691
-11.7661 22.1068 5.12042
-11.7318 22.1361 5.11411
-11.6976 22.1655 5.108
-11.6633 22.1948 5.10212
-11.629 22.2241 5.09647
-11.5944 22.253 5.09103
-11.5596 22.2816 5.0858
-11.5248 22.3102 5.08077
-11.4898 22.3387 5.0759
-11.4548 22.367 5.07118
-11.4203 22.396 5.06672
-11.385 22.4241 5.06238
-11.3497 22.4523 5.05826
-11.3145 22.4806 5.05435
-11.2791 22.5089 5.05068
-11.2436 22.5373 5.04725
-11.1728 22.5215 5.03987
-11.1723 22.5947 5.04152
-11.1361 22.6239 5.03894
-11.0997 22.6528 5.03656
-11.0631 22.6817 5.03438
-11.0265 22.7104 5.03247
-10.9895 22.7386 5.03068
-10.9523 22.7666 5.02899
-10.9148 22.794 5.02734
-10.8771 22.8208 5.0257
-10.8393 22.8473 5.02415
-10.8014 22.8737 5.02278
-10.7632 22.8996 5.02152
-10.7246 22.9251 5.02042
-10.6859 22.9505 5.01954
-10.6468 22.9753 5.01885
-10.6083 23.001 5.0185
-10.5696 23.026 5.01847
-10.5307 23.0508 5.01869
-10.4911 23.0744 5.01902
-10.4515 23.098 5.01954
-10.4118 23.1213 5.0202
-10.3719 23.1445 5.02099
-10.332 23.1676 5.02194
-10.2916 23.1904 5.02298
