BEGIN_Polyline
-26.0019 3.70292 6.56081
-25.981 3.74449 6.56303
-25.96 3.78599 6.56534
-25.9389 3.82743 6.56769
-25.9176 3.86875 6.57016
-25.8965 3.91027 6.57242
-25.877 3.95298 6.57558
-25.8555 3.99488 6.57556
-25.834 4.03673 6.57561
-25.7922 4.06821 6.54668
-25.7921 4.12101 6.57471
-25.771 4.16293 6.57395
-25.7482 4.20366 6.57498
-25.7252 4.2443 6.57617
-25.7022 4.285 6.5773
-25.6792 4.32566 6.5785
-25.6562 4.36626 6.57981
-25.633 4.4068 6.58121
-25.6098 4.4473 6.58268
-25.5862 4.48758 6.5839
-25.5617 4.52726 6.58426
-25.5378 4.56738 6.58536
-25.514 4.6075 6.58647
-25.4898 4.64748 6.58731
-25.4656 4.68746 6.58815
-25.4414 4.7275 6.58899
-25.4171 4.76767 6.58979
-25.3928 4.80788 6.59061
-25.3685 4.84808 6.59146
-25.344 4.8882 6.59233
-25.3183 4.92751 6.59197
-25.2917 4.96624 6.59083
-25.2643 5.0044 6.58907
-25.2369 5.04257 6.58732
-25.2095 5.08072 6.5856
-25.1821 5.11887 6.58392
-25.1546 5.15706 6.58224
-25.1271 5.19513 6.58065
-25.1002 5.23313 6.5796
-25.0741 5.27176 6.57932
-25.048 5.31032 6.57913
-24.9947 5.33049 6.55579
-24.9955 5.38781 6.57887
-24.9691 5.42675 6.57877
-24.9426 5.4657 6.57871
-24.9161 5.50464 6.57867
-24.8897 5.54353 6.57866
-24.8624 5.58179 6.57795
-24.8345 5.61968 6.57681
-24.8063 5.65713 6.57521
-24.7782 5.69443 6.57351
-24.7503 5.73165 6.57179
-24.7223 5.76883 6.5701
-24.6944 5.80599 6.56844
-24.6663 5.84315 6.56683
-24.6383 5.8803 6.56529
-24.6094 5.91683 6.56308
-24.5798 5.95274 6.56048
-24.55 5.9886 6.55814
-24.5202 6.02444 6.55593
-24.4903 6.06026 6.55378
-24.4604 6.09608 6.55169
-24.4305 6.13194 6.54962
-24.4007 6.16788 6.54769
-24.3732 6.20558 6.5473
-24.3452 6.24278 6.5465
-24.3171 6.27995 6.54569
-24.2891 6.31711 6.54488
-24.2611 6.35429 6.5441
-24.2332 6.39156 6.54341
-24.2053 6.4288 6.54276
-24.1773 6.46608 6.54215
-24.1494 6.50336 6.54159
-24.1404 6.55543 6.55329
-24.0927 6.57885 6.54043
-24.0642 6.61692 6.53992
-24.0372 6.65539 6.54047
-24.0102 6.69384 6.54103
-23.9832 6.73229 6.5416
-23.9563 6.77072 6.54215
-23.9294 6.80908 6.54269
-23.9045 6.84866 6.54438
-23.8804 6.88854 6.54642
-23.8564 6.92838 6.54843
-23.8333 6.96877 6.55096
-23.8112 7.00959 6.55392
-23.789 7.05043 6.5568
-23.7683 7.09199 6.56051
-23.7473 7.13365 6.56478
-23.7224 7.17301 6.56548
-23.6972 7.21233 6.56646
-23.6719 7.25161 6.56763
-23.6464 7.29079 6.56898
-23.6208 7.32996 6.57032
-23.5941 7.36873 6.57053
-23.5674 7.40744 6.57079
-23.5362 7.44297 6.56675
-23.5028 7.47612 6.56092
-23.47 7.50827 6.55585
-23.4373 7.54012 6.551
-23.4049 7.57183 6.54601
-23.3719 7.60395 6.54129
-23.336 7.63775 6.53759
-23.3037 7.67462 6.53606
-23.2761 7.71515 6.5372
-23.2747 7.77236 6.55046
-23.2218 7.79186 6.53558
-23.1942 7.82971 6.53477
-23.1667 7.86744 6.53388
-23.1393 7.90515 6.53303
-23.1112 7.94278 6.53227
-23.082 7.97956 6.53086
-23.0529 8.01628 6.52938
-23.0237 8.05299 6.52798
-22.9949 8.0903 6.52712
-22.9691 8.12966 6.52844
-22.9432 8.16903 6.5298
-22.9174 8.20842 6.5312
-22.8912 8.24768 6.53242
-22.8654 8.28716 6.53394
-22.8407 8.32718 6.53616
-22.8159 8.36709 6.53842
-22.7913 8.40678 6.54071
-22.7668 8.44636 6.54304
-22.7422 8.48586 6.54541
-22.7176 8.52533 6.5478
-22.6934 8.56504 6.55042
-22.6691 8.6047 6.55308
-22.6448 8.64431 6.55581
-22.6193 8.68309 6.55784
-22.5939 8.7217 6.55999
-22.5684 8.76019 6.56224
-22.5416 8.79781 6.56376
-22.5147 8.8354 6.56535
-22.4878 8.87281 6.56697
-22.4606 8.91013 6.56857
-22.4332 8.94949 6.57099
-22.4425 9.01125 6.59459
-22.3813 9.02965 6.57763
-22.3557 9.06918 6.58094
-22.33 9.1088 6.58432
-22.3041 9.14831 6.58762
-22.2781 9.18793 6.59097
-22.2522 9.22756 6.59439
-22.2286 9.26852 6.59915
-22.2071 9.31023 6.60491
-22.1858 9.35144 6.61057
-22.1646 9.39243 6.61622
-22.1435 9.43336 6.6219
-22.1219 9.47408 6.62743
-22.1014 9.51537 6.63359
-22.0807 9.55662 6.63976
-22.06 9.59784 6.64596
-22.0393 9.63904 6.65215
-22.0187 9.6802 6.65829
-21.9981 9.72133 6.66443
-21.9774 9.76246 6.67058
-21.9568 9.80357 6.67674
-21.9362 9.84466 6.68286
-21.9156 9.88577 6.68902
-21.895 9.92688 6.69525
-21.8742 9.96805 6.70166
-21.8529 10.0092 6.70834
-21.8318 10.0505 6.71528
-21.8092 10.0911 6.72138
-21.7858 10.1314 6.72709
-21.7616 10.1713 6.73239
-21.7374 10.2112 6.73768
-21.7131 10.2513 6.74299
-21.6681 10.2804 6.73471
-21.6657 10.3311 6.75203
-21.6451 10.3726 6.75783
-21.6239 10.4149 6.76484
-21.6007 10.4562 6.77081
-21.5769 10.4967 6.77602
-21.5525 10.5367 6.78079
-21.528 10.5767 6.78561
-21.5035 10.6168 6.79043
-21.479 10.6568 6.79521
-21.4546 10.6967 6.79999
-21.4302 10.7366 6.80478
-21.4057 10.7765 6.80959
-21.3813 10.8164 6.8144
-21.3567 10.8562 6.81914
-21.3319 10.8956 6.82371
-21.3056 10.9342 6.82752
-21.2792 10.9725 6.83133
-21.2529 11.0107 6.83519
-21.2267 11.0489 6.83907
-21.2004 11.0871 6.84291
-21.1743 11.1253 6.84659
-21.1481 11.1635 6.8503
-21.122 11.2017 6.85411
-21.0957 11.2397 6.85818
-21.0693 11.2776 6.86281
-21.0423 11.315 6.86741
-21.0155 11.3527 6.87217
-20.9887 11.3902 6.87699
-20.9618 11.4277 6.88197
-20.9351 11.4653 6.88673
-20.9082 11.5031 6.89148
-20.8514 11.5231 6.86977
-20.8604 11.5854 6.88691
-20.8336 11.6247 6.89025
-20.8066 11.6638 6.89334
-20.7771 11.7012 6.89517
-20.748 11.7376 6.89711
-20.7189 11.7737 6.89905
-20.6899 11.81 6.90094
-20.6608 11.8463 6.90281
-20.6317 11.8826 6.90463
-20.6027 11.9189 6.90641
-20.5736 11.9553 6.90815
-20.5446 11.9916 6.90987
-20.5152 12.0278 6.91145
-20.4858 12.0638 6.91293
-20.4564 12.0999 6.91438
-20.4269 12.1359 6.9158
-20.3975 12.1719 6.91718
-20.3682 12.208 6.91853
-20.3388 12.244 6.91984
-20.3103 12.2807 6.92149
-20.2819 12.3175 6.92312
-20.2535 12.3543 6.92474
-20.2251 12.3911 6.92631
-20.1964 12.4278 6.92776
-20.1677 12.4644 6.92924
-20.1393 12.5014 6.93086
-20.111 12.5385 6.93249
-20.0828 12.5756 6.93408
-20.0545 12.6128 6.93563
-20.0262 12.65 6.93709
-19.998 12.6873 6.93846
-19.9999 12.7472 6.95225
-19.9413 12.7623 6.9407
-19.9129 12.8 6.94157
-19.8845 12.8378 6.94236
-19.8564 12.8757 6.94318
-19.8283 12.9136 6.94401
-19.8002 12.9516 6.94482
-19.7721 12.9895 6.94558
-19.744 13.0274 6.94634
-19.7159 13.0653 6.94712
-19.6872 13.1027 6.94762
-19.6585 13.14 6.9481
-19.6293 13.1769 6.94832
-19.5997 13.2137 6.94822
-19.5725 13.2522 6.94932
-19.5481 13.2923 6.95189
-19.5238 13.3322 6.95447
-19.4995 13.3721 6.95712
-19.4754 13.412 6.95987
-19.452 13.4523 6.96299
-19.4287 13.4926 6.96613
-19.4052 13.533 6.96932
-19.3818 13.5734 6.97248
-19.3584 13.6137 6.97558
-19.3352 13.654 6.9785
-19.3107 13.6933 6.98033
-19.286 13.7325 6.98193
-19.2615 13.7716 6.98352
-19.2368 13.8109 6.98497
-19.2121 13.8509 6.98601
-19.1889 13.8922 6.98827
-19.1657 13.9335 6.99044
-19.1924 14.0012 7.02386
-19.1189 14.0155 6.99573
-19.0953 14.0562 6.99889
-19.0717 14.0968 7.00215
-19.0481 14.1374 7.00546
-19.025 14.1782 7.00897
-19.0039 14.22 7.01366
-18.9828 14.2619 7.01847
-18.9617 14.3038 7.02318
-18.941 14.3453 7.02756
-18.9204 14.3867 7.03178
-18.8998 14.428 7.03594
-18.8793 14.4694 7.04007
-18.8585 14.5107 7.0441
-18.8375 14.552 7.048
-18.8159 14.593 7.05154
-18.794 14.6339 7.05485
-18.7721 14.6749 7.05811
-18.7497 14.7157 7.06107
-18.7271 14.7564 7.06381
-18.7045 14.7971 7.0665
-18.6819 14.8379 7.06914
-18.6611 14.8796 7.07291
-18.6404 14.9213 7.07665
-18.6191 14.9627 7.07998
-18.5972 15.0038 7.08287
-18.5753 15.0449 7.08571
-18.5535 15.0861 7.0885
-18.5316 15.1272 7.09124
-18.5098 15.1683 7.09393
-18.488 15.2095 7.09657
-18.4662 15.2507 7.09918
-18.4584 15.2988 7.10946
-18.4271 15.3359 7.10648
-18.4063 15.3769 7.10919
-18.3832 15.418 7.11112
-18.3634 15.4606 7.11476
-18.3438 15.5028 7.11813
-18.3243 15.545 7.1214
-18.3048 15.5872 7.12463
-18.2853 15.6294 7.12781
-18.2658 15.6718 7.13096
-18.2456 15.7138 7.13367
-18.2243 15.7554 7.13569
-18.2024 15.7966 7.13724
-18.1804 15.8378 7.13865
-18.1585 15.879 7.14
-18.1367 15.9202 7.1413
-18.1148 15.9613 7.14255
-18.093 16.0026 7.14381
-18.0735 16.0449 7.1464
-18.0541 16.0872 7.14892
-18.0347 16.1295 7.15137
-18.0153 16.1719 7.15373
-17.996 16.2142 7.156
-17.9767 16.2566 7.15819
-17.9573 16.2989 7.16013
-17.937 16.341 7.16148
-17.9167 16.383 7.16268
-17.8952 16.4245 7.16307
-17.8739 16.466 7.16328
-17.8528 16.5074 7.1631
-17.832 16.5489 7.16298
-17.8144 16.5917 7.16419
-17.7792 16.6278 7.15707
-17.7736 16.6771 7.16663
-17.7533 16.7195 7.16649
-17.733 16.7619 7.16625
-17.7129 16.8044 7.1659
-17.6927 16.8468 7.16544
-17.6726 16.8893 7.16482
-17.6516 16.9314 7.16358
-17.6307 16.9735 7.16226
-17.6099 17.0156 7.16077
-17.589 17.0576 7.159
-17.5716 17.1001 7.15908
-17.5495 17.1427 7.15719
-17.5306 17.1855 7.15672
-17.5116 17.2283 7.15621
-17.4902 17.2698 7.15376
-17.4687 17.3112 7.15104
-17.4471 17.3522 7.14851
-17.4256 17.3932 7.14597
-17.4042 17.4342 7.14334
-17.3832 17.4753 7.14079
-17.3625 17.5165 7.13826
-17.3418 17.5577 7.13565
-17.3211 17.5989 7.133
-17.3004 17.6403 7.13039
-17.2786 17.6815 7.12758
-17.2566 17.7228 7.12469
-17.2347 17.764 7.12155
-17.2118 17.8048 7.1178
-17.1884 17.8454 7.11393
-17.1651 17.8861 7.10987
-17.1418 17.927 7.10552
-17.0645 17.9343 7.06713
-17.0951 18.0115 7.09341
-17.0719 18.0542 7.08619
-17.0487 18.0971 7.0789
-17.0232 18.138 7.07071
-16.9988 18.1787 7.06491
-16.9734 18.2184 7.05918
-16.9469 18.2575 7.05269
-16.9206 18.2964 7.04606
-16.8945 18.3353 7.03904
-16.8685 18.3742 7.03181
-16.8426 18.4129 7.02446
-16.8165 18.4514 7.01682
-16.7895 18.4892 7.00874
-16.7621 18.5266 7.00034
-16.7338 18.5631 6.99127
-16.7053 18.5993 6.9819
-16.6763 18.6349 6.97198
-16.6475 18.6705 6.96192
-16.6186 18.7059 6.95169
-16.5893 18.7409 6.94122
-16.56 18.7758 6.93088
-16.5308 18.8107 6.92048
-16.5015 18.8456 6.90994
-16.4716 18.88 6.89876
-16.4409 18.9143 6.8867
-16.4094 18.9478 6.87398
-16.3777 18.9808 6.86087
-16.3451 19.0137 6.84779
-16.3094 19.0459 6.83489
-16.2724 19.0776 6.82198
-16.2354 19.1092 6.80908
-16.1417 19.0631 6.76916
-16.1634 19.1713 6.78266
-16.1286 19.2016 6.76909
-16.0941 19.2317 6.7555
-16.0597 19.2617 6.7419
-16.0251 19.2915 6.72842
-15.9907 19.3212 6.71498
-15.9556 19.3496 6.70111
-15.9197 19.3764 6.68682
-15.8841 19.4028 6.67249
-15.8482 19.4283 6.65794
-15.8121 19.4533 6.6432
-15.776 19.4782 6.6284
-15.7396 19.5031 6.61355
-15.7033 19.5281 6.59864
-15.667 19.5532 6.58366
-15.6306 19.5782 6.56856
-15.5943 19.6034 6.55328
-15.5564 19.6257 6.53709
-15.5184 19.6476 6.52068
-15.4807 19.6699 6.5044
-15.4445 19.6952 6.48915
-15.4082 19.7205 6.47387
-15.3719 19.7458 6.45858
-15.3356 19.7711 6.44329
-15.2992 19.7965 6.42805
-15.2616 19.8199 6.41204
-15.2238 19.8427 6.39577
-15.1861 19.8654 6.37945
-15.1485 19.8882 6.36297
-15.1116 19.9121 6.34694
-15.0751 19.9367 6.33106
-15.0324 19.9494 6.31098
-15.0001 19.984 6.29831
-14.9621 20.0047 6.28106
-14.9248 20.0267 6.26409
-14.8889 20.0512 6.24828
-14.8528 20.076 6.2322
-14.8167 20.1008 6.21603
-14.7807 20.1255 6.19986
-14.7446 20.1503 6.18365
-14.7079 20.1737 6.16676
-14.672 20.199 6.15073
-14.6367 20.2253 6.13518
-14.6016 20.2518 6.11976
-14.5663 20.2781 6.10423
-14.5307 20.3038 6.08841
-14.4952 20.3295 6.0726
-14.4596 20.3552 6.05681
-14.424 20.3808 6.04107
-14.3885 20.4065 6.02535
-14.3529 20.4321 6.00965
-14.3173 20.4577 5.99396
-14.2808 20.4816 5.97744
-14.244 20.505 5.96069
-14.2071 20.5283 5.94398
-14.1703 20.5516 5.92738
-14.1335 20.5748 5.91101
-14.0966 20.5979 5.89471
-14.0595 20.6204 5.87797
-14.0218 20.6419 5.86088
-13.9839 20.6635 5.84379
-13.946 20.6852 5.82676
-13.9089 20.7088 5.81035
-13.8813 20.7525 5.80075
-13.8334 20.7572 5.77584
-13.7977 20.7836 5.7606
-13.762 20.8101 5.74534
-13.7263 20.8365 5.73012
-13.6905 20.863 5.7149
-13.6547 20.8895 5.69971
-13.6187 20.9157 5.6844
-13.5813 20.9395 5.66817
-13.5439 20.9629 5.65191
-13.5064 20.9864 5.63567
-13.469 21.0101 5.61952
-13.4319 21.0342 5.6036
-13.3947 21.0582 5.58782
-13.3576 21.0823 5.57219
-13.3208 21.1069 5.55685
-13.2846 21.1323 5.5419
-13.2506 21.1611 5.52822
-13.2165 21.1899 5.51468
-13.1824 21.2187 5.50129
-13.147 21.2456 5.48745
-13.1116 21.2723 5.47388
-13.0762 21.2991 5.46051
-13.0406 21.3258 5.44731
-13.0049 21.3526 5.43435
-12.9688 21.3797 5.42174
-12.9345 21.4097 5.41004
-12.9013 21.441 5.39868
-12.868 21.4723 5.38753
-12.8346 21.5036 5.37653
-12.8012 21.5349 5.36569
-12.768 21.5665 5.35499
-12.7517 21.6169 5.34775
-12.7017 21.6284 5.33428
-12.6681 21.659 5.32366
-12.6346 21.6895 5.31318
-12.6009 21.7199 5.30283
-12.5668 21.7501 5.29265
-12.5327 21.7802 5.28265
-12.4985 21.8104 5.27282
-12.4643 21.8405 5.2632
-12.43 21.8707 5.2538
-12.3962 21.9015 5.24471
-12.3627 21.9327 5.23589
-12.3292 21.9639 5.22726
-12.2956 21.9951 5.21882
-12.262 22.0263 5.21058
-12.2283 22.0575 5.20254
-12.1942 22.0883 5.1946
-12.1599 22.119 5.18684
-12.1257 22.1497 5.17927
-12.0913 22.1804 5.17191
-12.057 22.2112 5.16477
-12.0219 22.241 5.15775
-11.9863 22.2702 5.15086
-11.9506 22.2994 5.1442
-11.9148 22.3286 5.13778
-11.8791 22.3578 5.13157
-11.8432 22.387 5.12561
-11.8073 22.4162 5.11995
-11.7714 22.4454 5.11446
-11.7359 22.4748 5.10905
-11.7005 22.5044 5.10387
-11.665 22.534 5.099
-11.5909 22.5171 5.08956
-11.592 22.5947 5.0911
-11.5553 22.6238 5.0876
-11.5184 22.653 5.08445
-11.4815 22.6822 5.0816
-11.4445 22.7113 5.07899
-11.4076 22.7405 5.07664
-11.3706 22.7697 5.07454
-11.3336 22.7988 5.07267
-11.2963 22.8273 5.07095
-11.2585 22.8552 5.06936
-11.2208 22.8831 5.06799
-11.182 22.9096 5.06664
-11.1429 22.9357 5.06548
-11.1038 22.9618 5.06452
-11.0646 22.9879 5.06371
-11.0255 23.0139 5.063
-10.9864 23.0399 5.06227
-10.9467 23.065 5.06149
-10.9068 23.0897 5.0608
-10.8668 23.114 5.06027
-10.8261 23.1373 5.05992
-10.7854 23.1606 5.05975
-10.7447 23.1838 5.05974
-10.704 23.2071 5.05988
-10.6632 23.2304 5.06014
-10.6223 23.2537 5.06055
-10.5815 23.2769 5.06101
-10.5405 23.3003 5.06191
-10.4993 23.3237 5.06406
-10.4576 23.3464 5.0661
-10.4127 23.369 5.06798
-10.328 23.3096 5.06053
-10.324 23.4115 5.07143
-10.2814 23.4319 5.07313
-10.2388 23.4523 5.0749
-10.1962 23.4726 5.0768
-10.1536 23.4929 5.07891
-10.1111 23.5132 5.08119
-10.0685 23.5334 5.08364
-10.0261 23.5536 5.08626
-9.98363 23.5737 5.0891
-9.94124 23.5938 5.09212
-9.89849 23.613 5.09523
-9.85543 23.6316 5.09842
-9.81208 23.6495 5.10166
-9.76873 23.6674 5.10505
-9.72522 23.6848 5.10862
-9.68125 23.7009 5.11234
-9.63722 23.7166 5.11642
-9.59312 23.7319 5.12073
-9.54902 23.7471 5.12519
-9.50493 23.7623 5.12976
-9.4609 23.7776 5.13438
-9.41696 23.793 5.13909
-9.37275 23.8077 5.14393
-9.3279 23.8204 5.14874
-9.28299 23.8332 5.15366
-9.23809 23.846 5.15868
-9.19318 23.8588 5.16383
-9.14821 23.8716 5.16898
-9.10306 23.8845 5.17389
-9.0579 23.8972 5.17892
-9.01256 23.9094 5.18391
-8.95285 23.8702 5.18614
-8.92055 23.9341 5.19371
-8.87386 23.9452 5.1986
-8.82827 23.9553 5.20404
-8.78259 23.9648 5.20951
-8.73717 23.9743 5.21499
-8.69187 23.9837 5.22048
-8.64651 23.9928 5.22599
-8.60098 24.0006 5.23138
-8.55557 24.0087 5.23667
-8.51022 24.0169 5.24193
-8.46489 24.0251 5.2472
-8.41956 24.0333 5.2525
-8.3742 24.0414 5.25789
-8.32871 24.0489 5.26327
-8.28318 24.0564 5.26869
-8.23763 24.064 5.27416
-8.19204 24.072 5.27973
-8.14638 24.0801 5.28533
-8.10068 24.0881 5.29095
-8.05497 24.0962 5.29661
-8.00928 24.1042 5.30231
-7.96325 24.1106 5.30782
-7.9174 24.1183 5.31352
-7.8719 24.1276 5.31937
-7.82645 24.1369 5.32523
-7.78101 24.1462 5.3311
-7.7354 24.1547 5.33692
-7.68976 24.1631 5.34274
-7.64421 24.1718 5.34858
-7.59867 24.1806 5.35442
-7.55313 24.1894 5.36027
-7.50871 24.2034 5.36684
-7.46219 24.2076 5.37211
-7.41686 24.2171 5.37803
-7.37154 24.2265 5.38394
-7.32616 24.2356 5.38982
-7.28076 24.2447 5.39569
-7.23536 24.2538 5.40155
-7.18996 24.2629 5.40741
-7.14458 24.2719 5.41326
-7.0992 24.281 5.41909
-7.05387 24.2903 5.42494
-7.0083 24.2984 5.43065
-6.96272 24.3066 5.43636
-6.91709 24.3148 5.44209
-6.87188 24.3251 5.44806
-6.827 24.3364 5.4541
-6.78202 24.3474 5.46008
-6.73655 24.3563 5.46586
-6.69106 24.3652 5.47161
-6.64557 24.3741 5.47734
-6.60007 24.383 5.48306
-6.55456 24.3919 5.48879
-6.50911 24.401 5.49451
-6.46383 24.411 5.50025
-6.41873 24.4217 5.50596
-6.37432 24.4349 5.51167
-6.3299 24.4482 5.51733
-6.28503 24.46 5.52288
-6.23978 24.4702 5.52841
-6.19466 24.4806 5.53398
-6.14954 24.4909 5.53952
-6.10463 24.5016 5.54492
-6.05659 24.5001 5.55057
-6.01369 24.5241 5.55577
-5.96806 24.5321 5.56108
-5.92242 24.54 5.56634
-5.87677 24.548 5.57156
-5.83093 24.5551 5.57675
-5.78529 24.5636 5.58191
-5.7398 24.5726 5.58698
-5.69429 24.5816 5.59201
-5.64871 24.5907 5.59707
-5.60254 24.5967 5.60212
-5.5564 24.6023 5.60698
-5.51037 24.6086 5.61188
-5.46437 24.6154 5.6168
-5.41836 24.6222 5.62168
-5.37244 24.6293 5.62654
-5.32662 24.6369 5.63135
-5.28111 24.6459 5.63615
-5.23575 24.6556 5.64093
-5.1905 24.6658 5.64566
-5.14524 24.6761 5.65034
-5.09983 24.6856 5.65495
-5.05446 24.6954 5.6595
-5.00909 24.7053 5.66399
-4.96372 24.7151 5.66841
-4.91832 24.7248 5.67276
-4.87287 24.7342 5.67704
-4.82732 24.7432 5.68123
-4.78179 24.7524 5.68534
-4.73646 24.7626 5.68937
-4.69108 24.7727 5.6933
-4.64569 24.7828 5.6971
-4.59819 24.7836 5.70079
-4.555 24.8036 5.704
-4.50957 24.8144 5.70739
-4.46413 24.8252 5.71066
-4.41867 24.8359 5.71383
-4.3732 24.8467 5.71692
-4.32773 24.8575 5.71993
-4.28223 24.8682 5.72285
-4.2366 24.8781 5.72572
-4.191 24.888 5.72852
-4.14543 24.8978 5.73125
-4.0998 24.9074 5.73391
-4.05411 24.9166 5.73653
-4.00841 24.9257 5.73906
-3.96262 24.9344 5.74156
-3.91674 24.9426 5.74403
-3.87086 24.9507 5.74645
-3.82488 24.9582 5.7489
-3.77882 24.9652 5.75132
-3.73275 24.9723 5.7537
-3.68636 24.9773 5.75609
-3.63996 24.9821 5.75843
-3.59352 24.9868 5.76071
-3.54704 24.9916 5.76291
-3.50047 24.9966 5.765
-3.45385 25.003 5.76689
-3.40716 25.0094 5.76868
-3.36068 25.0158 5.7704
-3.31396 25.022 5.77214
-3.26612 25.025 5.77414
-3.21789 25.0266 5.77617
-3.16962 25.0282 5.77811
-3.11958 24.9702 5.78086
-3.07396 25.0314 5.78132
-3.02668 25.0329 5.78255
-2.97949 25.0345 5.78366
-2.93238 25.036 5.78468
-2.88529 25.0376 5.78568
-2.83822 25.0386 5.78662
-2.79108 25.0378 5.78751
-2.74401 25.0369 5.78835
-2.69719 25.0359 5.78924
-2.65047 25.035 5.79011
-2.6038 25.034 5.79092
-2.55716 25.0324 5.7917
-2.51053 25.0291 5.79245
-2.46391 25.0255 5.79314
-2.41731 25.0219 5.79378
-2.37082 25.0176 5.79435
-2.32453 25.0127 5.79484
-2.27829 25.0078 5.79525
-2.23207 25.003 5.7956
-2.18586 24.9982 5.79589
-2.13968 24.9934 5.79614
-2.0935 24.9885 5.79633
-2.04729 24.9836 5.79646
-2.00099 24.9787 5.79653
-1.95447 24.9738 5.79652
-1.90788 24.9689 5.79645
-1.86129 24.9643 5.79637
-1.81452 24.9622 5.79617
-1.7679 24.9612 5.79578
-1.72133 24.959 5.7952
-1.67471 24.9568 5.79458
-1.62686 24.9757 5.79507
-1.5806 24.9522 5.79364
-1.53316 24.95 5.79334
-1.48568 24.9494 5.79309
-1.43823 24.9524 5.79294
-1.39153 24.9554 5.79256
-1.34493 24.9568 5.79204
-1.29835 24.9579 5.79139
-1.25186 24.9631 5.79094
-1.20529 24.9668 5.79035
-1.15864 24.9688 5.78969
-1.11202 24.9708 5.78899
-1.06542 24.9723 5.78824
-1.01886 24.9729 5.7874
-0.972334 24.9735 5.78655
-0.925842 24.9742 5.78567
-0.879396 24.9729 5.78472
-0.833094 24.9687 5.78368
-0.786741 24.9641 5.78261
-0.740383 24.959 5.78152
-0.693992 24.954 5.78041
-0.647597 24.949 5.77925
-0.601202 24.944 5.77806
-0.554741 24.9395 5.77687
-0.508245 24.9359 5.77572
-0.461749 24.933 5.77464
-0.415211 24.933 5.77364
-0.36849 24.9327 5.77243
-0.321916 24.929 5.77132
-0.275037 24.9253 5.77029
-0.228242 24.9222 5.76923
-0.181341 24.9215 5.76804
-0.134072 24.9426 5.766
-0.0863978 24.9267 5.76592
-0.0400055 24.9284 5.76446
0.00658649 24.9303 5.76297
0.0531429 24.9326 5.76141
0.0996593 24.9349 5.75971
0.146162 24.9372 5.75795
0.192665 24.9395 5.75619
0.239173 24.9417 5.75441
0.285701 24.944 5.75264
0.332235 24.9463 5.75086
0.378791 24.9486 5.74906
0.425307 24.9509 5.74725
0.472066 24.9513 5.74559
0.518507 24.9469 5.74443
0.565329 24.946 5.74287
0.612165 24.9459 5.7412
0.658849 24.9458 5.73953
0.705485 24.9457 5.73784
0.75213 24.9456 5.73613
0.798768 24.9455 5.73438
0.845402 24.9447 5.73268
0.892039 24.9439 5.73095
0.93868 24.9431 5.72918
0.985329 24.9423 5.72737
1.03199 24.9411 5.72556
1.07865 24.9395 5.72374
1.12531 24.9379 5.72192
1.17199 24.9362 5.71999
1.21873 24.9346 5.71775
1.26544 24.9325 5.71557
1.31215 24.9302 5.71334
1.35802 24.9076 5.71433
1.40554 24.9256 5.7091
1.4522 24.9234 5.70711
1.49886 24.9212 5.7051
1.54549 24.919 5.70307
1.59208 24.9162 5.70103
1.63862 24.913 5.69901
1.68518 24.9098 5.697
1.73173 24.9066 5.69496
1.77824 24.9033 5.69288
1.82475 24.9001 5.69076
1.8712 24.8962 5.68867
1.91764 24.8921 5.68659
1.96406 24.8877 5.68452
2.01047 24.8832 5.6824
2.05688 24.8787 5.6802
2.10329 24.8742 5.67788
2.14972 24.8697 5.67534
2.19599 24.8636 5.67278
2.24204 24.8564 5.67019
2.28814 24.8494 5.66756
2.33416 24.8418 5.6649
2.38049 24.8368 5.66226
2.42684 24.8323 5.65965
2.47327 24.8281 5.65705
2.51979 24.8239 5.65448
2.56643 24.8208 5.65198
2.61315 24.8196 5.64961
2.65992 24.8187 5.64726
2.70668 24.8178 5.64489
2.75345 24.8168 5.64251
2.80023 24.8159 5.64014
2.84719 24.8242 5.63838
2.89355 24.8134 5.6348
2.94025 24.812 5.63244
2.98696 24.8119 5.63021
3.03369 24.8121 5.62802
3.08031 24.812 5.62568
3.12691 24.8119 5.62331
3.17352 24.8119 5.62095
3.22013 24.8119 5.6186
3.26673 24.8098 5.61608
3.31335 24.8077 5.61355
3.35999 24.8068 5.61107
3.40662 24.8057 5.60858
3.45322 24.804 5.60606
3.49982 24.8021 5.60354
3.54641 24.8001 5.60101
3.59295 24.7973 5.59846
3.63948 24.7946 5.59592
3.686 24.7918 5.5934
3.73252 24.7891 5.59087
3.77903 24.7864 5.58834
3.82556 24.7837 5.58581
3.87207 24.781 5.58326
3.91852 24.7769 5.58067
3.96481 24.7715 5.57803
4.01105 24.7661 5.57541
4.05728 24.7607 5.57277
4.10352 24.7553 5.57011
4.14977 24.7499 5.56744
4.19611 24.7452 5.56475
4.24262 24.742 5.56208
4.28918 24.7393 5.55936
4.33578 24.7362 5.55663
4.38254 24.7348 5.55382
4.42939 24.7335 5.55099
4.47626 24.7322 5.54814
4.52317 24.731 5.54528
4.57009 24.7297 5.54243
4.61702 24.7293 5.53954
4.66395 24.7289 5.53663
4.71084 24.7291 5.53368
4.75767 24.7293 5.53071
4.80444 24.7295 5.52773
4.85117 24.7297 5.52472
4.89785 24.7273 5.52188
4.94438 24.724 5.51902
4.99094 24.7225 5.51609
5.03738 24.7182 5.51326
5.08383 24.7133 5.51046
5.13032 24.7083 5.50768
5.17683 24.7034 5.50489
5.22334 24.6984 5.50209
5.26983 24.6935 5.49925
5.31627 24.6886 5.49641
5.36257 24.6827 5.49359
5.4087 24.6757 5.49081
5.45466 24.6676 5.48807
5.50061 24.6595 5.48534
5.54657 24.6514 5.48258
5.59255 24.6433 5.47974
5.63862 24.6352 5.47697
5.68455 24.6263 5.47454
5.7308 24.6173 5.47217
5.77712 24.6086 5.46986
5.81058 24.5273 5.47041
5.87226 24.5907 5.46177
5.92047 24.5805 5.45679
5.96705 24.5696 5.4546
6.01334 24.557 5.45269
6.05863 24.5445 5.45003
6.10364 24.5321 5.44715
6.14872 24.5197 5.44433
6.19378 24.5073 5.44147
6.23882 24.4948 5.43857
6.28385 24.4824 5.43561
6.32886 24.47 5.43262
6.37361 24.4566 5.42966
6.41793 24.4418 5.42679
6.46224 24.4268 5.42388
6.50648 24.4116 5.42096
6.55073 24.3963 5.41798
6.59499 24.381 5.4149
6.63891 24.3648 5.4118
6.68276 24.3483 5.40868
6.7266 24.3318 5.40551
6.77013 24.3147 5.40239
6.81338 24.2967 5.39928
6.85665 24.2788 5.39612
6.90001 24.2608 5.39284
6.94353 24.2427 5.38935
6.98711 24.2246 5.38579
7.03006 24.2051 5.38243
7.073 24.1856 5.37904
7.11591 24.166 5.37561
7.15885 24.1465 5.37218
7.20172 24.127 5.36881
7.22279 24.0577 5.37135
7.29183 24.089 5.3612
7.33347 24.0675 5.35854
7.37506 24.046 5.35593
7.41645 24.0242 5.35337
7.45783 24.0026 5.35081
7.49964 23.9823 5.34801
7.54011 23.9593 5.34564
7.58051 23.9363 5.3432
7.6207 23.9134 5.34046
7.66062 23.8902 5.33762
7.70037 23.8667 5.33476
7.74012 23.8433 5.33189
7.77992 23.8198 5.32911
7.81976 23.7963 5.32632
7.85984 23.7731 5.32345
7.89981 23.7495 5.32048
7.93964 23.7251 5.31729
7.98007 23.7016 5.314
8.02053 23.6781 5.31063
8.06098 23.6546 5.30724
8.10136 23.6311 5.3039
8.1417 23.6077 5.30055
8.18202 23.5843 5.29714
8.22362 23.5632 5.29368
8.26558 23.5431 5.29013
8.3076 23.5232 5.2865
8.34968 23.5035 5.2828
8.39193 23.4837 5.27906
8.43519 23.4649 5.27542
8.4791 23.447 5.27187
8.52188 23.4288 5.26808
8.58771 23.4607 5.26862
8.61391 23.3898 5.26086
8.65798 23.3755 5.25786
8.70205 23.3612 5.25488
8.74597 23.3465 5.25188
8.79055 23.3329 5.24895
8.8354 23.3199 5.24603
8.87996 23.3059 5.24298
8.92449 23.2919 5.23994
8.96892 23.2779 5.23698
9.01351 23.2646 5.23411
9.05814 23.2514 5.23124
9.10277 23.2382 5.22835
9.14772 23.2259 5.22551
9.1928 23.2141 5.22268
9.23805 23.2028 5.21988
9.28302 23.1903 5.21698
9.32767 23.1768 5.21401
9.37233 23.1633 5.21101
9.41748 23.1513 5.20808
9.46298 23.1407 5.20515
9.50844 23.1301 5.20218
9.5539 23.1195 5.19919
9.59942 23.1092 5.19621
9.64499 23.0989 5.19324
9.69058 23.0886 5.1903
9.73619 23.0783 5.18737
9.78177 23.0679 5.18444
9.82724 23.057 5.1815
9.87296 23.047 5.17855
9.91871 23.0371 5.17558
9.96441 23.0271 5.17259
10.0121 23.0264 5.16965
10.0559 23.0074 5.16642
10.1016 22.9978 5.16325
10.1473 22.9889 5.16014
10.193 22.9801 5.15701
10.2387 22.9712 5.15388
10.2845 22.9626 5.15074
10.3302 22.9542 5.1476
10.3759 22.9453 5.14446
10.4213 22.9353 5.14129
10.4668 22.9253 5.13815
10.5122 22.9148 5.13499
10.5572 22.9028 5.13179
10.6022 22.8909 5.1286
10.6472 22.8794 5.12542
10.6923 22.8678 5.12226
10.7374 22.8569 5.11915
10.783 22.8481 5.11616
10.8286 22.8393 5.1132
10.8738 22.8288 5.11022
10.9189 22.8178 5.10724
10.964 22.8067 5.10426
11.009 22.7957 5.10129
11.0542 22.785 5.09836
11.0995 22.7745 5.09548
11.1446 22.7629 5.09266
11.1896 22.7508 5.08987
11.2347 22.7388 5.08709
11.2799 22.7267 5.08434
11.3251 22.7146 5.08162
11.3703 22.7026 5.07888
11.4156 22.6905 5.07614
11.4475 22.6272 5.07071
11.5084 22.6621 5.06894
11.5533 22.6477 5.06594
11.5982 22.6334 5.06293
11.6432 22.6191 5.05994
11.6882 22.6048 5.05697
11.7331 22.5905 5.05403
11.7781 22.5763 5.05112
11.8231 22.5622 5.04825
11.8681 22.548 5.04545
11.913 22.5339 5.04271
11.9573 22.5178 5.03998
12.0011 22.5007 5.03729
12.0446 22.4827 5.03463
12.088 22.4644 5.03202
12.1313 22.4462 5.02949
12.1742 22.4273 5.02703
12.2169 22.4081 5.02466
12.2596 22.3891 5.02239
12.3011 22.3675 5.02019
12.3419 22.3446 5.01803
12.3825 22.3214 5.01587
12.4231 22.2984 5.01384
12.4641 22.2756 5.01199
12.5051 22.2531 5.0103
12.5455 22.2296 5.00866
12.5859 22.206 5.00716
12.6269 22.1828 5.00578
12.6682 22.1608 5.00484
12.7089 22.139 5.00475
12.7497 22.1172 5.00459
12.7919 22.0928 5.00341
12.8125 22.0323 4.99741
12.8744 22.0428 5.00078
12.9144 22.0184 4.9998
12.9544 21.9939 4.99918
12.9944 21.9694 4.99867
13.0343 21.9448 4.9983
13.0735 21.9191 4.99791
13.1129 21.8937 4.99766
13.1522 21.8682 4.99754
13.1914 21.8429 4.99758
13.2304 21.8172 4.99771
13.2693 21.7914 4.99796
13.308 21.7653 4.99832
13.3465 21.739 4.99881
13.3851 21.7127 4.99944
13.4236 21.6864 5.0002
13.4618 21.6595 5.001
13.4992 21.6316 5.00173
13.5366 21.6036 5.00258
13.574 21.5757 5.00356
13.6114 21.5477 5.00468
13.6488 21.5197 5.00593
13.6862 21.4917 5.00735
13.7235 21.4637 5.00893
13.7609 21.4356 5.01071
13.7982 21.4071 5.01275
13.8348 21.3777 5.01485
13.8701 21.3467 5.01679
13.9054 21.3157 5.01891
13.9406 21.2847 5.02118
13.9758 21.2536 5.02362
14.011 21.2226 5.02622
14.0358 21.1797 5.02634
14.0807 21.161 5.03206
14.1166 21.1319 5.03559
14.154 21.1037 5.03946
14.1912 21.0755 5.04341
14.2268 21.0455 5.04702
14.2624 21.0156 5.05079
14.2979 20.9857 5.05472
14.3334 20.9557 5.05884
14.3688 20.9256 5.06317
14.4041 20.8956 5.0677
14.4394 20.8654 5.07238
14.4747 20.8353 5.07723
14.5099 20.8052 5.08221
14.5451 20.7751 5.08733
14.5801 20.7447 5.09255
14.6147 20.7138 5.09782
14.6493 20.6828 5.10321
14.6838 20.6519 5.10875
14.718 20.6206 5.11435
14.7522 20.5892 5.1201
14.7863 20.5579 5.12598
14.8205 20.5265 5.132
14.8546 20.4952 5.13818
14.8887 20.4638 5.14452
14.9227 20.4323 5.15104
14.9564 20.4005 5.15764
14.9892 20.3677 5.16416
15.022 20.3349 5.17086
15.0549 20.3023 5.17773
15.0878 20.2697 5.18475
15.1206 20.2371 5.19191
15.1416 20.192 5.19617
15.1861 20.1719 5.20668
15.2188 20.1394 5.21428
15.2514 20.1069 5.222
15.284 20.0743 5.22986
15.3166 20.0418 5.23784
15.3491 20.0093 5.24596
15.381 19.9762 5.25407
15.4122 19.9425 5.26216
15.4434 19.9088 5.2704
15.4745 19.8752 5.27878
15.5056 19.8416 5.28729
15.5367 19.808 5.29591
15.5677 19.7744 5.30464
15.5985 19.7405 5.31339
15.6291 19.7066 5.32225
15.6598 19.6726 5.3312
15.691 19.6391 5.34038
15.7229 19.6064 5.34981
15.7549 19.5737 5.35933
15.7868 19.541 5.36895
15.8187 19.5083 5.37865
15.8506 19.4756 5.38844
15.8825 19.443 5.39832
15.9143 19.4103 5.40829
15.9462 19.3776 5.41837
15.978 19.3449 5.42853
16.0098 19.3122 5.43874
16.0416 19.2796 5.44903
16.0748 19.2483 5.45962
16.1083 19.2171 5.4703
16.1417 19.186 5.48102
16.1855 19.1667 5.49342
16.2082 19.1239 5.50253
16.2413 19.093 5.51331
16.2744 19.0622 5.52412
16.3075 19.0313 5.53497
16.3405 19.0004 5.54591
16.3722 18.9681 5.55665
16.4034 18.9354 5.56734
16.4346 18.9027 5.57807
16.4658 18.8698 5.58881
16.496 18.8359 5.59943
16.5262 18.8021 5.61011
16.5564 18.7683 5.62084
16.5865 18.7345 5.63161
16.6166 18.7007 5.64245
16.6473 18.6676 5.65352
16.6786 18.6351 5.66483
16.7102 18.6021 5.6763
16.744 18.5716 5.68853
16.7805 18.5449 5.70144
16.8173 18.5184 5.7144
16.8545 18.4926 5.72731
16.8916 18.4663 5.74014
16.9283 18.4394 5.75285
16.9658 18.4135 5.76567
17.0032 18.3874 5.77839
17.0404 18.3612 5.791
17.0778 18.335 5.80347
17.1151 18.3088 5.81578
17.1525 18.2825 5.82792
17.189 18.2549 5.83965
17.2254 18.2272 5.85111
17.2648 18.2036 5.86274
17.299 18.1728 5.87294
17.3359 18.1457 5.88321
17.3728 18.1187 5.89318
17.4098 18.0918 5.90286
17.4466 18.0647 5.91226
17.4842 18.0387 5.9215
17.5219 18.0128 5.93053
17.5589 17.9858 5.93933
17.5958 17.9588 5.94801
17.6327 17.9318 5.95654
17.6697 17.9048 5.96492
17.7067 17.8778 5.97314
17.7438 17.8508 5.9812
17.7807 17.8237 5.98912
17.8176 17.7964 5.99691
17.8543 17.7688 6.00458
17.8904 17.7404 6.01216
17.9255 17.7106 6.01962
17.9598 17.6797 6.02694
17.994 17.6486 6.03413
18.0283 17.6175 6.04116
18.0626 17.5864 6.04804
18.0969 17.5553 6.05478
18.1313 17.5242 6.06138
18.1657 17.493 6.06783
18.2002 17.4617 6.07412
18.2345 17.4303 6.08019
18.2685 17.3983 6.08619
18.3026 17.3662 6.0924
18.3366 17.3339 6.09842
18.3705 17.3012 6.10437
18.3635 17.2252 6.10698
18.439 17.2351 6.11644
18.4734 17.2016 6.12235
18.5071 17.1681 6.12752
18.5408 17.1345 6.13246
18.5745 17.101 6.13717
18.6081 17.0674 6.14166
18.6405 17.0327 6.14594
18.6725 16.9978 6.14983
18.7034 16.9623 6.15283
18.7341 16.9269 6.15548
18.7649 16.8916 6.15798
18.7956 16.8563 6.16036
18.8263 16.8209 6.16274
18.857 16.7856 6.16506
18.887 16.7497 6.16714
18.915 16.7123 6.16886
18.9427 16.6748 6.17052
18.9701 16.637 6.17209
18.9969 16.5989 6.17352
19.0237 16.5607 6.17493
19.0505 16.5225 6.17633
19.0773 16.4843 6.1777
19.1042 16.4462 6.17902
19.131 16.408 6.18026
19.1578 16.37 6.18134
19.1843 16.3318 6.18227
19.2108 16.2935 6.1832
19.2388 16.2562 6.18444
19.2672 16.2193 6.18564
19.2955 16.1825 6.18682
19.3239 16.1456 6.18785
19.3172 16.0809 6.18091
19.3774 16.0634 6.19421
19.4025 16.0241 6.19377
19.4276 15.9849 6.19332
19.4528 15.9456 6.1928
19.4781 15.906 6.1925
19.5061 15.8682 6.1932
19.5361 15.8327 6.19425
19.5625 15.7943 6.19426
19.5879 15.7552 6.19422
19.6134 15.7161 6.19424
19.6389 15.677 6.19428
19.6639 15.6375 6.19416
19.6878 15.5975 6.19369
19.7116 15.5573 6.19312
19.7353 15.517 6.19253
19.7591 15.4768 6.19189
19.7829 15.4365 6.19119
19.8072 15.3965 6.1906
19.8309 15.3561 6.18974
19.8526 15.3146 6.18849
19.8743 15.2732 6.18724
19.8961 15.2317 6.18596
19.9163 15.1894 6.18437
19.9362 15.147 6.18269
19.957 15.105 6.18111
19.9778 15.063 6.1795
19.9987 15.021 6.1779
20.0195 14.979 6.17628
20.0402 14.9369 6.17458
20.0605 14.8946 6.17281
20.0817 14.853 6.17136
20.0959 14.8077 6.16875
20.1259 14.7707 6.16923
20.148 14.7294 6.16836
20.1701 14.6881 6.16755
20.1922 14.6469 6.16677
20.2142 14.6057 6.16597
20.2362 14.5645 6.16513
20.2581 14.5233 6.16427
20.2798 14.4821 6.1633
20.2998 14.4402 6.16177
20.3188 14.398 6.15996
20.3379 14.3558 6.15812
20.3582 14.3141 6.15653
20.3772 14.2718 6.15466
20.3957 14.2294 6.15272
20.4143 14.1868 6.15079
20.433 14.1443 6.14888
20.452 14.1017 6.14708
20.4713 14.0592 6.1454
20.4916 14.0168 6.14378
20.516 13.9768 6.14365
20.539 13.9359 6.14292
20.5614 13.8948 6.14205
20.5839 13.8537 6.14119
20.6064 13.8125 6.14031
20.629 13.7712 6.13939
20.6515 13.73 6.13847
20.6743 13.6887 6.13771
20.6984 13.6485 6.13716
20.7211 13.6081 6.13561
20.7426 13.5673 6.13345
20.7687 13.526 6.13163
20.8274 13.5063 6.14459
20.8194 13.4449 6.13095
20.8463 13.4054 6.13069
20.8726 13.3666 6.13105
20.8988 13.3279 6.13145
20.925 13.2891 6.13181
20.9513 13.2504 6.13218
20.9775 13.2118 6.13256
21.0038 13.1732 6.13298
21.031 13.1354 6.13384
21.0583 13.0976 6.13469
21.0855 13.0598 6.13554
21.1127 13.0219 6.13635
21.1397 12.9837 6.13691
21.1698 12.9481 6.13911
21.1999 12.9125 6.14128
21.2301 12.8769 6.14342
21.2603 12.8413 6.14551
21.2906 12.8057 6.14759
21.3208 12.77 6.14965
21.351 12.7344 6.15173
21.3811 12.6989 6.15386
21.4109 12.663 6.1558
21.4396 12.6263 6.15717
21.4674 12.5887 6.15806
21.4952 12.5509 6.15897
21.523 12.5131 6.1599
21.5499 12.4747 6.16045
21.5753 12.4352 6.16034
21.6007 12.3957 6.16017
21.6262 12.3562 6.15999
21.6508 12.3157 6.16087
21.6514 12.2608 6.14939
21.6994 12.2352 6.16086
21.7239 12.1956 6.15975
21.7484 12.1561 6.15864
21.7735 12.1168 6.15777
21.7996 12.0779 6.15742
21.8255 12.0389 6.15705
21.849 11.9984 6.15561
21.8726 11.958 6.15426
21.8961 11.9177 6.15315
21.9195 11.8774 6.15214
21.9429 11.8371 6.15117
21.9662 11.7968 6.15022
21.9896 11.7565 6.14923
22.0129 11.7162 6.14823
22.0362 11.6758 6.14722
22.0602 11.6358 6.14655
22.0849 11.5963 6.14617
22.1096 11.5567 6.14581
22.1343 11.5171 6.14548
22.1585 11.4773 6.14497
22.1843 11.4384 6.14514
22.2106 11.3997 6.14548
22.2368 11.361 6.14585
22.263 11.3224 6.14625
22.2892 11.2837 6.14669
22.3154 11.2451 6.14714
22.3416 11.2064 6.14763
22.3677 11.1678 6.14809
22.3927 11.1285 6.14806
22.4175 11.089 6.14793
22.4423 11.0494 6.14781
22.4727 11.0134 6.15029
22.4919 10.9703 6.14769
22.5151 10.9298 6.14699
22.5394 10.8897 6.14668
22.5636 10.8496 6.14641
22.588 10.8096 6.14626
22.6125 10.7697 6.14618
22.6371 10.7299 6.14621
22.6628 10.6908 6.1468
22.6885 10.6517 6.14747
22.7162 10.6139 6.14909
22.7454 10.5774 6.15126
22.7735 10.5401 6.15318
22.8006 10.502 6.15493
22.8278 10.464 6.15675
22.8549 10.4259 6.15863
22.8821 10.3879 6.1605
22.9092 10.3499 6.16227
22.9362 10.3119 6.16401
22.9628 10.2736 6.16571
22.9894 10.2354 6.16747
23.016 10.1971 6.16936
23.0426 10.1589 6.17141
23.0691 10.1206 6.1735
23.0952 10.0821 6.17566
23.1214 10.0436 6.17798
23.1472 10.0049 6.18039
23.1735 9.9664 6.18311
23.2015 9.92923 6.18646
23.2294 9.89207 6.18993
23.2573 9.85483 6.19361
23.284 9.81684 6.19734
23.3102 9.77847 6.20129
23.338 9.74125 6.20601
23.3657 9.70392 6.21102
23.3933 9.66657 6.21629
23.4208 9.62922 6.22177
23.4484 9.59186 6.22743
23.4758 9.5545 6.23327
23.5033 9.51714 6.23928
23.5305 9.47958 6.24536
23.5576 9.44202 6.25156
23.5848 9.40456 6.25788
23.6111 9.3664 6.26418
23.6359 9.32715 6.2702
23.661 9.2882 6.27642
23.686 9.24927 6.28272
23.7104 9.20987 6.28893
23.7343 9.17018 6.29504
23.7579 9.13025 6.30096
23.7807 9.08987 6.30665
23.8045 9.05015 6.31283
23.8283 9.01042 6.3191
23.8521 8.97068 6.32544
23.8748 8.93031 6.3316
23.8975 8.88991 6.3378
23.9208 8.85 6.34427
23.9427 8.80914 6.35035
23.9646 8.76826 6.35649
23.9864 8.72738 6.3627
24.0082 8.68649 6.36896
24.03 8.64561 6.37528
24.0518 8.60473 6.38166
24.0736 8.5638 6.3882
24.0846 8.51675 6.39118
24.116 8.48156 6.40131
24.1376 8.44086 6.40814
24.1588 8.39969 6.41457
24.1799 8.35845 6.42099
24.2009 8.31731 6.42741
24.2218 8.27611 6.43381
24.2425 8.23478 6.44018
24.2631 8.19346 6.44659
24.2837 8.15214 6.45303
24.3044 8.11086 6.45952
24.3251 8.06958 6.46606
24.3458 8.02835 6.47267
24.3667 7.98722 6.47939
24.3876 7.94607 6.48614
24.4085 7.90493 6.49292
24.4294 7.86377 6.49973
24.4499 7.8224 6.50643
24.4698 7.78066 6.51287
24.4897 7.73891 6.51934
24.5096 7.69716 6.52584
24.5313 7.65647 6.53318
24.5535 7.61602 6.54075
24.5757 7.57556 6.54834
24.5971 7.53467 6.55563
24.6185 7.49378 6.56293
24.6398 7.45286 6.57021
24.6611 7.41194 6.5775
24.6823 7.37103 6.58479
24.7036 7.33012 6.59207
24.7249 7.2892 6.59933
24.7462 7.24829 6.60657
24.7751 7.21202 6.61777
24.7889 7.16647 6.62072
24.8103 7.12552 6.62764
24.8324 7.08494 6.635
24.8548 7.04459 6.64254
24.8772 7.00433 6.65012
24.8995 6.9641 6.65769
24.9219 6.92386 6.66524
24.9443 6.88362 6.67279
24.9666 6.84338 6.68035
24.989 6.80314 6.68791
25.0112 6.76275 6.69533
25.0329 6.72209 6.70249
25.0553 6.68189 6.71007
25.0783 6.64206 6.71797
25.1012 6.60215 6.72578
25.1241 6.56222 6.73356
25.147 6.5223 6.7413
25.1699 6.48238 6.74902
25.1928 6.44246 6.75673
25.2157 6.40254 6.76445
25.2386 6.36262 6.77217
25.2614 6.32271 6.77991
25.2841 6.28267 6.78756
25.3065 6.24242 6.79507
25.3288 6.20201 6.80255
25.3498 6.16083 6.8094
25.3704 6.11937 6.81598
25.3909 6.07788 6.82258
25.4115 6.03639 6.82918
25.4321 5.9949 6.83577
25.4516 5.95271 6.8418
25.4673 5.90845 6.84559
25.4891 5.86743 6.85268
25.5076 5.82489 6.85808
25.5269 5.78269 6.86388
25.5462 5.74047 6.86965
25.5655 5.69818 6.87539
25.5851 5.65606 6.88127
25.6071 5.61552 6.88861
25.6292 5.57498 6.89595
25.6512 5.53446 6.90331
25.6729 5.4937 6.91045
25.6948 5.45308 6.91774
25.7183 5.41356 6.92599
25.7416 5.37394 6.93414
25.7646 5.33408 6.94207
25.7876 5.29422 6.94998
25.8107 5.25438 6.95788
25.8334 5.21432 6.96554
25.8558 5.17408 6.97301
25.8782 5.13386 6.98048
25.9007 5.09363 6.98793
25.9231 5.0534 6.99536
25.9451 5.0129 7.00254
25.9663 4.97186 7.00925
25.9874 4.93081 7.01593
26.0084 4.88983 7.02259
26.0295 4.84888 7.02924
26.0505 4.80788 7.03589
26.0729 4.7677 7.04319
26.0961 4.72811 7.05085
26.1192 4.6885 7.05851
26.1421 4.64851 7.06626
26.1519 4.59976 7.06696
26.1874 4.56802 7.08141
26.2102 4.52774 7.08886
26.233 4.48742 7.09632
26.2558 4.44709 7.10376
26.2786 4.40676 7.11119
26.2998 4.36537 7.11772
26.3204 4.3236 7.12384
26.3409 4.28187 7.12992
26.3615 4.24029 7.13588
26.382 4.19878 7.14178
26.4032 4.15768 7.14807
26.4234 4.116 7.15374
26.4435 4.07421 7.15934
26.4637 4.03246 7.165
26.4838 3.99071 7.17065
26.504 3.94897 7.17629
26.5231 3.90661 7.18123
26.5416 3.86391 7.18575
26.5607 3.82157 7.19084
26.5799 3.77925 7.19598
26.5984 3.73665 7.20074
26.6168 3.69398 7.20546
26.6352 3.65128 7.21021
26.6536 3.60848 7.21501
26.6721 3.5655 7.21998
26.6911 3.52271 7.2253
26.7098 3.47983 7.23035
26.7265 3.43604 7.23419
26.743 3.39207 7.23776
26.7595 3.34814 7.24134
26.7759 3.30427 7.24495
26.7685 3.25049 7.2328
26.808 3.21745 7.25274
26.8239 3.17438 7.25681
26.8421 3.13201 7.26192
26.8609 3.09028 7.26791
26.8776 3.04688 7.2712
26.8936 3.00291 7.27362
26.9096 2.95882 7.27604
26.9282 2.91572 7.28039
26.9466 2.87284 7.2854
26.965 2.82997 7.29057
26.9818 2.78591 7.29501
26.9938 2.74039 7.29511
27.0059 2.69511 7.29505
27.0179 2.64984 7.29491
27.0298 2.60447 7.29475
27.0452 2.56012 7.29806
27.0615 2.51642 7.30251
27.0767 2.47216 7.3055
27.0911 2.42771 7.30767
27.1055 2.38326 7.30988
27.1194 2.3386 7.31167
27.1329 2.29382 7.31323
27.1456 2.24879 7.31396
27.1582 2.20371 7.31478
27.1706 2.15859 7.3157
27.183 2.11343 7.31673
27.1952 2.06824 7.31786
27.2073 2.02301 7.3191
27.2192 1.97775 7.32045
27.231 1.93247 7.32192
27.2424 1.88748 7.32431
27.2535 1.84169 7.3245
27.2654 1.79659 7.32739
27.2761 1.7512 7.32894
27.2865 1.70577 7.3306
27.2968 1.66034 7.33236
27.3075 1.61496 7.3349
27.32 1.57039 7.34019
27.3324 1.52579 7.3456
27.341 1.47958 7.34648
27.3501 1.43362 7.34781
27.3613 1.38852 7.35248
27.3724 1.34338 7.35726
27.3834 1.29822 7.36212
27.3942 1.25303 7.36709
27.4052 1.20794 7.37261
27.4162 1.1629 7.37841
27.4271 1.11784 7.38431
27.4378 1.0728 7.3903
27.4484 1.02775 7.39639
27.4586 0.982569 7.40216
27.4682 0.937246 7.40755
27.4778 0.891921 7.41304
27.4872 0.846585 7.41864
27.4964 0.801232 7.42433
27.5055 0.755854 7.43013
27.5145 0.71043 7.43603
27.5234 0.664986 7.44203
27.5319 0.619433 7.44783
27.5406 0.574031 7.45411
27.5506 0.529373 7.46273
27.5605 0.484699 7.47144
27.5697 0.439604 7.47917
27.5766 0.393622 7.48436
27.587 0.349211 7.4944
27.5954 0.304044 7.50226
27.6036 0.258866 7.51022
27.6118 0.213701 7.51834
27.6198 0.168534 7.52657
27.6277 0.123346 7.53484
27.6353 0.0781159 7.5431
27.6428 0.0328862 7.55147
27.6501 -0.0123875 7.5598
27.6567 -0.0578423 7.56765
27.6632 -0.1033 7.57558
27.6697 -0.148772 7.58361
27.676 -0.194282 7.59174
27.682 -0.239881 7.59966
27.6867 -0.285813 7.60626
27.6926 -0.331421 7.61428
27.6995 -0.376731 7.62336
27.7063 -0.42208 7.63252
27.713 -0.467433 7.64175
27.7197 -0.512774 7.65105
27.7262 -0.558064 7.66044
27.7313 -0.603833 7.66851
27.7361 -0.649644 7.67648
27.7409 -0.69555 7.68447
27.7458 -0.741743 7.69259
27.753 -0.787225 7.70255
27.7584 -0.833323 7.71102
27.7611 -0.879752 7.71749
27.7633 -0.925631 7.72433
27.7667 -0.971499 7.73185
27.7707 -1.01704 7.74029
27.7482 -1.06979 7.72461
27.7796 -1.10966 7.75687
27.7843 -1.15668 7.76495
27.7892 -1.2037 7.77296
27.7939 -1.25047 7.78063
27.7984 -1.29647 7.78776
27.8011 -1.34249 7.79335
27.8035 -1.38863 7.79848
27.8057 -1.43479 7.80384
27.8075 -1.48109 7.81
27.809 -1.52742 7.81653
27.8104 -1.57373 7.82318
27.8117 -1.62003 7.82992
27.8131 -1.66629 7.83655
27.8136 -1.71261 7.8426
27.813 -1.75893 7.84817
27.8124 -1.80519 7.85386
27.8121 -1.85134 7.85995
27.8118 -1.89743 7.86614
27.8114 -1.94346 7.87237
27.8093 -1.98954 7.87755
27.8057 -2.03553 7.88178
27.802 -2.08151 7.88603
27.7988 -2.12751 7.89059
27.7962 -2.17351 7.89557
27.7936 -2.2195 7.90063
27.7909 -2.26552 7.9057
27.7882 -2.31149 7.91079
27.7857 -2.35772 7.91569
27.7835 -2.40488 7.92002
27.7835 -2.45189 7.92577
27.7837 -2.49878 7.93126
27.8179 -2.54268 7.9611
27.7809 -2.59082 7.93786
27.7793 -2.63815 7.9419
27.7778 -2.68547 7.94588
27.7763 -2.73282 7.94985
27.7748 -2.78014 7.95377
27.7753 -2.82735 7.95917
27.7776 -2.87437 7.96602
27.7789 -2.92142 7.97204
27.7798 -2.96785 7.97826
27.7844 -3.01351 7.9876
27.789 -3.05894 7.99716
27.7936 -3.10443 8.00673
27.7971 -3.15051 8.01511
27.8004 -3.19678 8.02325
27.8036 -3.24308 8.03141
27.8069 -3.28945 8.03957
27.8101 -3.33592 8.04774
27.8156 -3.38183 8.05821
27.8217 -3.42746 8.06937
27.8277 -3.47311 8.08055
27.8337 -3.51872 8.0918
27.8398 -3.56426 8.10325
27.8463 -3.60967 8.11516
27.8534 -3.6549 8.12762
27.861 -3.70006 8.14036
27.8687 -3.74527 8.15308
27.8763 -3.79051 8.16581
27.8839 -3.83573 8.17855
27.8915 -3.88084 8.1913
27.8989 -3.92594 8.20411
27.9062 -3.9711 8.2171
27.9647 -3.9902 8.29223
27.9225 -4.06122 8.24127
27.9281 -4.10751 8.2551
27.9336 -4.15367 8.26894
27.9404 -4.19853 8.28449
27.9484 -4.24153 8.30053
27.9576 -4.28338 8.31774
27.9671 -4.32562 8.33496
27.9767 -4.36794 8.3518
27.9855 -4.41077 8.36686
27.9944 -4.45355 8.38168
28.0035 -4.49636 8.39639
28.0126 -4.5392 8.41108
28.0216 -4.58205 8.42589
28.0306 -4.62497 8.44075
28.0396 -4.66799 8.4556
28.047 -4.71215 8.4688
28.0544 -4.75686 8.48184
28.0606 -4.80234 8.49359
28.0667 -4.84787 8.50536
28.0734 -4.89326 8.51766
28.0805 -4.93863 8.53025
28.0882 -4.98355 8.54356
28.0993 -5.02623 8.56054
28.1105 -5.06897 8.57755
28.1215 -5.11175 8.59464
28.1329 -5.15437 8.61206
28.1446 -5.19671 8.62992
28.1564 -5.23911 8.64778
28.1683 -5.28168 8.66561
28.1804 -5.32397 8.68374
28.1927 -5.36614 8.70188
28.2442 -5.37954 8.76076
28.2166 -5.45256 8.74039
28.2299 -5.4929 8.75928
28.2433 -5.53315 8.77813
28.2565 -5.5733 8.79694
28.2697 -5.61349 8.81589
28.2826 -5.65385 8.83459
28.2952 -5.69447 8.85265
28.3076 -5.73512 8.8708
28.3199 -5.77592 8.88925
28.332 -5.81684 8.90777
28.344 -5.85779 8.92629
28.3561 -5.89875 8.94484
28.3681 -5.93967 8.96336
28.3804 -5.98031 8.98228
28.393 -6.02077 9.00146
28.4054 -6.06147 9.02037
28.417 -6.10281 9.03849
28.4286 -6.14417 9.05664
28.4402 -6.18556 9.07482
28.4518 -6.22696 9.09302
28.4634 -6.26837 9.11124
28.475 -6.30978 9.12947
28.4865 -6.3512 9.14773
28.498 -6.39261 9.166
28.5095 -6.434 9.1843
28.521 -6.47539 9.20261
28.5322 -6.51689 9.22073
28.5432 -6.55861 9.23863
28.5548 -6.60031 9.25707
28.5668 -6.64157 9.27609
28.5802 -6.6815 9.29701
28.5992 -6.7157 9.32502
28.6065 -6.76106 9.33726
28.6173 -6.80308 9.35558
28.6289 -6.84434 9.37514
28.6416 -6.88437 9.39646
28.6543 -6.92417 9.41754
28.6671 -6.9639 9.43858
28.6799 -7.00361 9.45971
28.6926 -7.04328 9.4809
28.7054 -7.08293 9.50208
28.7181 -7.12256 9.52326
28.7308 -7.16218 9.54444
28.7435 -7.20179 9.56563
28.7555 -7.24209 9.58605
28.7664 -7.28343 9.60489
28.7775 -7.32468 9.62391
28.7879 -7.36653 9.64186
28.7987 -7.40811 9.66014
28.8091 -7.45 9.67781
28.8198 -7.49161 9.69599
28.8304 -7.53321 9.71419
28.841 -7.57482 9.73244
28.8514 -7.61643 9.75072
28.8619 -7.65805 9.76903
28.872 -7.69988 9.78702
28.8821 -7.74185 9.80483
28.892 -7.78388 9.82257
28.9016 -7.8262 9.83984
28.9112 -7.86853 9.85716
28.9204 -7.91096 9.87445
28.9296 -7.95341 9.89179
28.9387 -7.99587 9.90915
28.9359 -8.04997 9.90452
28.9572 -8.08222 9.94256
28.9658 -8.12508 9.95869
28.9745 -8.16793 9.9752
28.9832 -8.21078 9.99174
28.9919 -8.25363 10.0083
29.0005 -8.29648 10.0249
29.009 -8.33936 10.0415
29.0175 -8.38223 10.0581
29.0258 -8.42509 10.0747
29.0342 -8.46795 10.0913
29.042 -8.51115 10.1073
29.0497 -8.55443 10.1232
29.0573 -8.5977 10.1391
29.0648 -8.64097 10.1551
29.0722 -8.68423 10.1711
29.0796 -8.72747 10.1871
29.0865 -8.77096 10.2026
29.0929 -8.81472 10.2175
29.0992 -8.85848 10.2324
29.1054 -8.90223 10.2474
29.1116 -8.94598 10.2624
29.1177 -8.98973 10.2774
29.1236 -9.03349 10.2926
29.1294 -9.07726 10.3078
29.1354 -9.12083 10.3237
29.1413 -9.1644 10.3396
29.1467 -9.20823 10.3549
29.1516 -9.25246 10.3694
29.1565 -9.29683 10.3839
29.1609 -9.34147 10.3976
29.1648 -9.3855 10.4116
29.1644 -9.43419 10.4147
29.1749 -9.47249 10.4445
29.1799 -9.51651 10.4597
29.1848 -9.56052 10.475
29.1896 -9.60455 10.4903
29.1941 -9.64865 10.5058
29.1983 -9.69292 10.5208
29.2015 -9.73823 10.5325
29.2046 -9.78348 10.5444
29.2085 -9.82782 10.5589
29.2127 -9.8715 10.5751
29.2167 -9.91515 10.5914
29.2204 -9.9588 10.6077
29.2233 -10.003 10.6225
29.226 -10.0473 10.6373
29.229 -10.091 10.6535
29.2317 -10.1346 10.6697
29.234 -10.1785 10.6855
29.2351 -10.2232 10.6991
29.236 -10.2679 10.7127
29.2371 -10.3121 10.7277
29.2379 -10.3562 10.7436
29.2376 -10.4012 10.757
29.2365 -10.4467 10.7675
29.2353 -10.4921 10.7785
29.234 -10.5371 10.7909
29.2325 -10.5821 10.8033
29.2305 -10.6273 10.8146
29.228 -10.6726 10.8258
29.2252 -10.7179 10.8369
29.2219 -10.7631 10.848
29.2188 -10.8077 10.8613
29.2148 -10.8528 10.8728
29.2112 -10.8968 10.8883
29.2067 -10.9412 10.902
29.2018 -10.9855 10.9158
29.1966 -11.0298 10.9296
29.1913 -11.0737 10.9447
29.1857 -11.1175 10.9599
29.1795 -11.1614 10.9746
29.1729 -11.2054 10.9888
29.166 -11.2493 11.003
29.1587 -11.2932 11.0173
29.151 -11.337 11.0312
29.143 -11.3806 11.0459
29.1348 -11.4244 11.0599
29.1261 -11.4682 11.0733
29.117 -11.512 11.0867
29.1077 -11.5557 11.1001
29.0981 -11.5994 11.1135
29.0884 -11.6426 11.1281
29.0787 -11.6851 11.1444
29.0685 -11.7276 11.1608
29.058 -11.7699 11.1771
29.0471 -11.8121 11.1935
29.0358 -11.8541 11.21
29.0239 -11.8963 11.2258
29.0114 -11.9385 11.2411
28.9984 -11.9807 11.256
28.9849 -12.0227 11.271
28.971 -12.0647 11.2859
28.9566 -12.1064 11.3007
28.9418 -12.148 11.3156
28.9277 -12.1877 11.3336
28.9094 -12.2348 11.3327
28.8966 -12.2683 11.3694
28.8795 -12.3086 11.3872
28.8619 -12.349 11.4042
28.8434 -12.3904 11.4173
28.825 -12.4311 11.4302
28.8063 -12.4716 11.4431
28.7872 -12.5119 11.456
28.7677 -12.5521 11.4689
28.7479 -12.5915 11.4839
28.7278 -12.6307 11.4991
28.7071 -12.6698 11.5139
28.6862 -12.7099 11.5254
28.6651 -12.7498 11.5381
28.6439 -12.7906 11.5457
28.622 -12.8303 11.5569
28.5998 -12.8702 11.567
28.5774 -12.9103 11.5765
28.5547 -12.9503 11.586
28.5317 -12.9902 11.5954
28.5084 -13.03 11.6048
28.485 -13.0696 11.6142
28.4613 -13.1082 11.6276
28.4374 -13.1466 11.6406
28.4136 -13.1847 11.6538
28.3898 -13.2231 11.6657
28.3661 -13.261 11.6785
28.3422 -13.2987 11.6915
28.3182 -13.3364 11.7045
28.294 -13.3741 11.7173
28.2696 -13.4111 11.7316
28.245 -13.448 11.7459
28.2198 -13.4814 11.7684
28.1957 -13.5221 11.773
28.171 -13.5595 11.786
28.1462 -13.5969 11.7991
28.1212 -13.6341 11.8123
28.096 -13.6715 11.8244
28.0706 -13.7089 11.8365
28.0451 -13.7462 11.8486
28.0195 -13.7834 11.8606
27.9934 -13.8193 11.8753
27.9671 -13.8549 11.8905
27.9405 -13.8907 11.9048
27.9136 -13.9259 11.9209
27.8866 -13.9607 11.9371
27.8594 -13.9954 11.9531
