BEGIN_Polyline
17.7053 21.1797 4.26401
17.7404 21.1484 4.26884
17.7752 21.1167 4.27392
17.81 21.0851 4.27922
17.845 21.0535 4.2847
17.8798 21.0218 4.29034
17.9144 20.9896 4.29626
17.949 20.9576 4.30241
17.9445 20.8837 4.31289
18.018 20.8897 4.31663
18.0513 20.8566 4.32397
18.0846 20.8236 4.33152
18.117 20.7898 4.33931
18.1509 20.7579 4.34702
18.1849 20.7265 4.35489
18.2176 20.6939 4.36309
18.2496 20.6608 4.37159
18.2819 20.6278 4.38037
18.3147 20.5953 4.38938
18.3477 20.5631 4.39859
18.3816 20.5321 4.40796
18.4129 20.4985 4.4177
18.444 20.465 4.42769
18.475 20.4313 4.43788
18.5058 20.3976 4.44824
18.5365 20.3637 4.4587
18.5671 20.3299 4.46933
18.5976 20.2961 4.48018
18.628 20.2622 4.49127
18.658 20.2282 4.50263
18.6874 20.1937 4.51427
18.7168 20.1593 4.52622
18.7466 20.1253 4.53848
18.7764 20.0913 4.55111
18.8054 20.0568 4.56412
18.8342 20.0222 4.57748
18.8628 19.9876 4.59123
18.8915 19.953 4.6054
18.9197 19.9183 4.61996
18.9478 19.8835 4.63483
18.9461 19.8248 4.64971
19.0033 19.8146 4.66673
19.0311 19.7805 4.68373
19.0581 19.7463 4.70084
19.085 19.7121 4.71833
19.1121 19.6783 4.73614
19.1391 19.6446 4.75426
19.1656 19.6106 4.77268
19.192 19.5766 4.79133
19.2183 19.5427 4.81011
19.2446 19.5088 4.82909
19.2708 19.4749 4.84828
19.2963 19.4405 4.86763
19.3223 19.4067 4.88729
19.3484 19.3731 4.90714
19.3738 19.339 4.92711
19.3989 19.3047 4.94716
19.4235 19.27 4.96723
19.4487 19.2358 4.9875
19.4746 19.2022 5.00797
19.4999 19.1683 5.02851
19.5245 19.1338 5.04905
19.549 19.0994 5.06972
19.5735 19.065 5.09052
19.598 19.0306 5.11146
19.6222 18.996 5.13251
19.6461 18.9613 5.15366
19.67 18.9265 5.17488
19.6938 18.8918 5.19624
19.7179 18.8576 5.21794
19.7416 18.8231 5.23968
19.7652 18.7886 5.26146
19.7568 18.7272 5.27585
19.8118 18.7172 5.3053
19.8347 18.6818 5.32673
19.857 18.6461 5.34803
19.8793 18.6103 5.36928
19.9013 18.5746 5.39044
19.9225 18.5383 5.41136
19.9437 18.502 5.43231
19.9649 18.4657 5.45321
19.9861 18.4294 5.47395
20.0069 18.3929 5.49449
20.0276 18.3563 5.51494
20.0483 18.3196 5.53532
20.0691 18.283 5.55566
20.0903 18.2466 5.57608
20.1116 18.2103 5.59644
20.1324 18.1737 5.61661
20.1532 18.1369 5.63666
20.1739 18.1 5.65663
20.1946 18.0631 5.6765
20.2155 18.0263 5.69629
20.2361 17.9892 5.71585
20.2563 17.9518 5.7351
20.2766 17.9143 5.75421
20.2979 17.8774 5.77348
20.3195 17.8406 5.79265
20.3412 17.8039 5.81164
20.3643 17.7681 5.83095
20.3873 17.7321 5.84993
20.4105 17.6961 5.8687
20.4338 17.66 5.88719
20.4582 17.6244 5.90577
20.4905 17.5962 5.9277
20.508 17.5532 5.94123
20.5334 17.518 5.95882
20.559 17.4828 5.97611
20.5849 17.4477 5.99316
20.6109 17.4125 6.00993
20.6369 17.377 6.02633
20.6628 17.3414 6.04241
20.6887 17.3056 6.0582
20.7143 17.2694 6.0736
20.74 17.2332 6.08882
20.7658 17.197 6.10384
20.7923 17.1612 6.11893
20.8178 17.1244 6.13313
20.8431 17.0873 6.14697
20.8685 17.0502 6.16066
20.894 17.0131 6.17422
20.9195 16.9761 6.18771
20.9451 16.9392 6.2011
20.9715 16.903 6.21473
20.9978 16.8666 6.22811
21.0239 16.8299 6.24117
21.05 16.7931 6.25404
21.0776 16.7576 6.26742
21.1057 16.7225 6.28077
21.1337 16.6873 6.29367
21.1618 16.652 6.30634
21.1897 16.6165 6.31872
21.2176 16.5809 6.33089
21.2455 16.5453 6.34285
21.2736 16.5098 6.35461
21.3014 16.4732 6.36604
21.311 16.4211 6.37024
21.3558 16.3991 6.38756
21.3827 16.362 6.3978
21.4096 16.325 6.40783
21.4365 16.288 6.41766
21.4634 16.2509 6.42731
21.4898 16.2134 6.43655
21.5162 16.1758 6.4456
21.5428 16.1384 6.45454
21.5694 16.101 6.46329
21.5958 16.0635 6.47184
21.6218 16.0256 6.48005
21.6474 15.9873 6.48793
21.6728 15.949 6.49561
21.6984 15.9107 6.50317
21.7241 15.8724 6.51063
21.75 15.8342 6.51801
21.7758 15.796 6.52532
21.8014 15.7577 6.53245
21.8271 15.7193 6.53946
21.8528 15.681 6.54633
21.8783 15.6425 6.55298
21.9038 15.6041 6.55948
21.9293 15.5656 6.56583
21.9545 15.5269 6.57195
21.9792 15.4877 6.57773
22.0039 15.4486 6.58342
22.0286 15.4095 6.58897
22.0533 15.3705 6.59451
22.0778 15.3317 6.60023
22.1021 15.2927 6.60572
22.1278 15.2549 6.61195
22.1347 15.2024 6.60801
22.1799 15.1765 6.62273
22.2028 15.1369 6.62712
22.2258 15.0973 6.63138
22.2487 15.0577 6.63548
22.2722 15.0183 6.63953
22.2956 14.979 6.64345
22.3191 14.9397 6.64731
22.3436 14.901 6.65158
22.3683 14.8623 6.65577
22.3929 14.8236 6.65984
22.4161 14.7839 6.66311
22.439 14.744 6.66619
22.4619 14.7041 6.66918
22.485 14.6643 6.67221
22.5086 14.6248 6.67545
22.5321 14.5854 6.67867
22.5561 14.5462 6.68212
22.5801 14.5071 6.68554
22.6033 14.4675 6.68865
22.6265 14.4278 6.69168
22.6495 14.3881 6.69465
22.6713 14.3475 6.69703
22.6935 14.3072 6.69955
22.7166 14.2672 6.70225
22.7406 14.2276 6.70486
22.7646 14.188 6.70738
22.7898 14.1491 6.71053
22.8121 14.1083 6.71261
22.8339 14.0668 6.71439
22.8543 14.0242 6.71558
22.8752 13.9818 6.717
22.8676 13.925 6.708
22.9172 13.8978 6.72009
22.9388 13.8556 6.72195
22.9602 13.8133 6.72384
22.9818 13.771 6.72579
23.0031 13.7286 6.72769
23.0228 13.6852 6.7291
23.0411 13.6411 6.73
23.0595 13.5971 6.73101
23.078 13.5534 6.73225
23.0964 13.5097 6.73352
23.1145 13.466 6.73475
23.1324 13.4221 6.73588
23.1499 13.378 6.73688
23.1675 13.3338 6.73785
23.1848 13.2897 6.73875
23.2009 13.2451 6.73929
23.2173 13.2007 6.7399
23.234 13.1565 6.74055
23.2504 13.1122 6.7411
23.2655 13.0675 6.7413
23.2815 13.023 6.74174
23.298 12.9788 6.74232
23.3145 12.9346 6.74287
23.3292 12.8898 6.74285
23.3434 12.845 6.74272
23.3587 12.8006 6.74287
23.3741 12.7561 6.74306
23.388 12.7111 6.74249
23.4042 12.6666 6.74215
23.4209 12.6221 6.74163
23.439 12.5768 6.74015
23.4863 12.5448 6.75396
23.4777 12.4893 6.73942
23.4963 12.4459 6.73976
23.5152 12.4028 6.74027
23.5344 12.36 6.74095
23.5538 12.3174 6.74174
23.5732 12.2749 6.74253
23.5926 12.2325 6.74333
23.6135 12.1909 6.74503
23.6344 12.1495 6.74691
23.6553 12.1081 6.7488
23.6765 12.067 6.75089
23.6981 12.0261 6.75323
23.7197 11.9852 6.75552
23.7414 11.9443 6.75781
23.7631 11.9036 6.76021
23.7851 11.863 6.7628
23.807 11.8226 6.76544
23.8288 11.7821 6.76802
23.8506 11.7417 6.77068
23.8724 11.7013 6.77334
23.8942 11.6608 6.77592
23.916 11.6204 6.77849
23.939 11.5808 6.78194
23.9621 11.5411 6.78536
23.985 11.5013 6.78877
24.0078 11.4613 6.79202
24.0302 11.4213 6.79509
24.0523 11.3809 6.79788
24.0744 11.3401 6.8006
24.0955 11.2988 6.80254
24.1164 11.2572 6.80438
24.1152 11.2038 6.79046
24.1583 11.175 6.8097
24.1798 11.1336 6.81248
24.201 11.0922 6.81503
24.222 11.0506 6.81748
24.2417 11.0084 6.81885
24.261 10.9661 6.81991
24.28 10.9235 6.82068
24.2982 10.8807 6.82085
24.3164 10.8381 6.82095
24.3345 10.7956 6.82104
24.3527 10.7532 6.82116
24.3708 10.7107 6.82121
24.3886 10.668 6.82109
24.4061 10.6252 6.82078
24.4232 10.5823 6.8202
24.4402 10.5393 6.81963
24.4574 10.4965 6.81927
24.4745 10.4536 6.81896
24.4915 10.4108 6.81865
24.5082 10.3678 6.81808
24.5234 10.3244 6.81649
24.5396 10.2812 6.81547
24.5558 10.238 6.81443
24.5721 10.1948 6.81335
24.588 10.151 6.81189
24.604 10.1072 6.8104
24.6217 10.064 6.80996
24.6411 10.0216 6.81077
24.6605 9.97994 6.8121
24.6787 9.93744 6.81223
24.699 9.89429 6.81384
24.7396 9.86119 6.82829
24.7393 9.809 6.81804
24.7579 9.7664 6.81945
24.7786 9.72384 6.82091
24.7999 9.68138 6.82261
24.8213 9.63957 6.82451
24.843 9.59808 6.82663
24.8647 9.55647 6.82875
24.8863 9.51474 6.83077
24.9079 9.47295 6.83279
24.9294 9.43114 6.83482
24.9509 9.38932 6.83687
24.9721 9.34735 6.83881
24.9936 9.30544 6.84083
25.015 9.26351 6.84287
25.0353 9.22095 6.84431
25.0553 9.17823 6.84559
25.0754 9.13554 6.8469
25.0959 9.09306 6.84841
25.1164 9.05057 6.84992
25.1368 9.00806 6.85144
25.1573 8.96555 6.85295
25.1788 8.92352 6.85494
25.2002 8.88149 6.85695
25.2214 8.83937 6.85889
25.2413 8.79659 6.8602
25.2611 8.75381 6.86154
25.281 8.71102 6.86291
25.3013 8.66846 6.86454
25.3216 8.62591 6.86621
25.3419 8.58337 6.86789
25.3626 8.54119 6.86997
25.3778 8.49608 6.86896
25.4053 8.45723 6.87416
25.4278 8.41577 6.87671
25.4479 8.37326 6.87859
25.468 8.33075 6.88048
25.4864 8.28746 6.88157
25.5064 8.24495 6.8835
25.5264 8.20245 6.88548
25.5464 8.15995 6.88743
25.5667 8.11759 6.88939
25.5889 8.07627 6.8924
25.6089 8.0337 6.89411
25.6276 7.99054 6.89528
25.6455 7.94725 6.89637
25.6614 7.9031 6.89677
25.6792 7.85961 6.8978
25.6975 7.81637 6.8991
25.7157 7.77325 6.9005
25.7335 7.72997 6.90175
25.7508 7.68634 6.90264
25.7711 7.64419 6.90515
25.7916 7.60184 6.90753
25.8072 7.55715 6.90737
25.8212 7.5123 6.90696
25.8349 7.46742 6.90646
25.8497 7.42305 6.9064
25.8649 7.37892 6.90659
25.8801 7.33467 6.90681
25.8929 7.28973 6.906
25.9067 7.24498 6.9055
25.9209 7.2003 6.90512
25.935 7.15566 6.90473
25.9629 7.11508 6.91053
25.9647 7.06582 6.90337
25.9804 7.02158 6.90356
25.9962 6.97735 6.90376
26.012 6.93317 6.904
26.028 6.88905 6.90434
26.0444 6.8451 6.90489
26.0614 6.8014 6.9058
26.0785 6.75774 6.90674
26.0952 6.71404 6.90756
26.1118 6.67034 6.90835
26.1303 6.62742 6.91024
26.149 6.58457 6.91222
26.1677 6.54177 6.91425
26.1864 6.49898 6.91628
26.2051 6.45616 6.91825
26.2244 6.41364 6.92066
26.2431 6.37086 6.92273
26.2617 6.32805 6.92476
26.2805 6.28537 6.92697
26.3002 6.24307 6.92967
26.3198 6.2008 6.93235
26.3394 6.15854 6.935
26.359 6.11629 6.93762
26.3797 6.07458 6.94093
26.4009 6.03315 6.94458
26.4222 5.99172 6.94818
26.4434 5.9503 6.95173
26.4648 5.90889 6.95522
26.4866 5.86773 6.95901
26.509 5.82685 6.96306
26.5315 5.78601 6.96701
26.5604 5.74925 6.97586
26.5762 5.70455 6.9748
26.5985 5.66379 6.97808
26.6208 5.62307 6.98127
26.6432 5.58238 6.98439
26.6646 5.54111 6.98679
26.6857 5.49964 6.98889
26.7068 5.45816 6.9909
26.7279 5.41667 6.99289
26.7483 5.37476 6.99437
26.7689 5.33295 6.99601
26.7896 5.29114 6.99765
26.8104 5.24939 6.99936
26.8314 5.20772 7.00117
26.8524 5.16607 7.00302
26.8733 5.12436 7.00478
26.8947 5.08289 7.00685
26.9161 5.04144 7.00891
26.9374 4.99999 7.01098
26.9589 4.95859 7.01315
26.9803 4.91713 7.01529
27.0018 4.87567 7.01754
27.0233 4.83416 7.0198
27.0444 4.79244 7.02188
27.0655 4.75065 7.02393
27.0864 4.70873 7.02585
27.1075 4.66683 7.02791
27.1285 4.62485 7.03005
27.1494 4.58272 7.03217
27.1701 4.54041 7.03419
27.1908 4.49797 7.03635
27.2119 4.45484 7.03831
27.2054 4.39839 7.02277
27.2512 4.36659 7.04165
27.2703 4.32223 7.04378
27.289 4.27786 7.04567
27.3077 4.23338 7.04767
27.3264 4.18882 7.04972
27.345 4.14414 7.05177
27.3635 4.09936 7.05387
27.3819 4.05455 7.05601
27.4001 4.00966 7.05795
27.4173 3.96434 7.05922
27.4338 3.91874 7.06005
27.4504 3.87316 7.06103
27.467 3.82755 7.06209
27.4836 3.78192 7.06319
27.4995 3.73606 7.06386
27.5153 3.69018 7.06446
27.5312 3.64439 7.06506
27.547 3.59865 7.06566
27.5627 3.55294 7.06625
27.5783 3.50722 7.06678
27.5938 3.46155 7.06731
27.6091 3.41585 7.06772
27.6242 3.37014 7.06802
27.6395 3.32447 7.06842
27.6541 3.27857 7.06844
27.6687 3.23265 7.06838
27.6832 3.18683 7.06832
27.6975 3.14105 7.06817
27.7113 3.09526 7.06779
27.7252 3.04961 7.06744
27.739 3.00411 7.06712
27.7327 2.95283 7.05343
27.7665 2.91383 7.06686
27.7802 2.86897 7.06667
27.7938 2.82428 7.06647
27.8071 2.7797 7.06606
27.8197 2.73516 7.06515
27.8324 2.69084 7.06436
27.8454 2.64674 7.06383
27.8582 2.60267 7.06311
27.8696 2.55834 7.06139
27.8812 2.51411 7.0598
27.893 2.46998 7.05831
27.9048 2.42594 7.05693
27.9168 2.382 7.05576
27.9286 2.33804 7.05443
27.9398 2.29397 7.05272
27.9507 2.24983 7.05079
27.9616 2.20568 7.04886
27.9728 2.16158 7.04719
27.9844 2.11759 7.04586
27.9954 2.07346 7.04414
28.0064 2.02933 7.04241
28.0175 1.98518 7.0407
28.0279 1.9409 7.03852
28.0386 1.89669 7.03667
28.0496 1.85254 7.03507
28.0606 1.80837 7.03348
28.0713 1.76409 7.03161
28.0827 1.71994 7.03039
28.0944 1.67581 7.02939
28.106 1.6316 7.02832
28.1173 1.58721 7.02689
28.1283 1.54266 7.02528
28.1413 1.49835 7.02505
28.1535 1.4537 7.0241
28.1656 1.40896 7.02316
28.1785 1.36433 7.02275
28.1915 1.31971 7.02242
28.2055 1.27533 7.02295
28.2182 1.23049 7.02243
28.2298 1.18538 7.02119
28.2402 1.14005 7.0191
28.2517 1.09499 7.01792
28.2632 1.04989 7.01676
28.2747 1.00477 7.01561
28.2859 0.959541 7.01421
28.2965 0.914162 7.01244
28.3072 0.868752 7.01065
28.3179 0.823295 7.00883
28.3276 0.777574 7.00631
28.3381 0.73193 7.00417
28.3489 0.686343 7.00221
28.3598 0.640779 7.00038
28.3707 0.595213 6.99859
28.3818 0.54971 6.99699
28.3928 0.504219 6.99543
28.403 0.458655 6.99356
28.4099 0.412647 6.9901
28.4168 0.36662 6.98664
28.4238 0.320541 6.98326
28.4324 0.274685 6.98056
28.4419 0.229126 6.97833
28.4514 0.183569 6.97612
28.4589 0.137063 6.97232
28.4478 0.0880735 6.96191
28.4734 0.0442575 6.96524
28.4804 -0.00184761 6.96224
28.4873 -0.0479792 6.95927
28.4945 -0.0940887 6.95646
28.5019 -0.140217 6.95376
28.509 -0.186394 6.95101
28.5153 -0.232682 6.94801
28.5215 -0.278967 6.94502
28.5282 -0.325182 6.94219
28.5348 -0.371386 6.93938
28.5407 -0.417659 6.93639
28.5466 -0.463937 6.9334
28.5522 -0.510256 6.93033
28.5573 -0.556617 6.92713
28.5618 -0.60301 6.9238
28.5663 -0.649385 6.92049
28.5708 -0.695723 6.91722
28.5745 -0.742103 6.91373
28.5778 -0.788487 6.9102
28.5812 -0.834875 6.90667
28.5846 -0.881279 6.9032
28.5879 -0.927691 6.8997
28.5913 -0.974104 6.8962
28.5945 -1.02051 6.89262
28.597 -1.0669 6.88878
28.5996 -1.11328 6.88491
28.6037 -1.15959 6.88155
28.6068 -1.20605 6.87777
28.6093 -1.25278 6.87345
28.6127 -1.29943 6.86938
28.6174 -1.34604 6.86577
28.6436 -1.39123 6.87044
28.6261 -1.43933 6.85628
28.6318 -1.48658 6.85187
28.6384 -1.5328 6.84876
28.645 -1.57899 6.84562
28.6511 -1.62526 6.84214
28.6582 -1.67143 6.83916
28.6661 -1.7175 6.83655
28.6739 -1.76355 6.83396
28.6816 -1.8096 6.83144
28.6881 -1.8557 6.82837
28.6964 -1.90159 6.82636
28.7048 -1.94747 6.8244
28.7132 -1.99334 6.82244
28.7223 -2.03914 6.82085
28.7306 -2.08509 6.8188
28.7386 -2.13112 6.81656
28.7466 -2.17721 6.81434
28.7559 -2.22313 6.81308
28.766 -2.26887 6.81247
28.776 -2.31463 6.81184
28.785 -2.36058 6.81035
28.7944 -2.40645 6.80927
28.8048 -2.45212 6.80892
28.8152 -2.49782 6.80854
28.8259 -2.54351 6.80829
28.837 -2.58913 6.80832
28.8481 -2.63474 6.80834
28.8595 -2.68027 6.80863
28.8711 -2.72574 6.80908
28.8828 -2.77121 6.80952
28.8946 -2.81685 6.80997
28.9175 -2.85903 6.82096
28.919 -2.90736 6.81252
28.9311 -2.95254 6.81352
28.9432 -2.9977 6.81453
28.9558 -3.04265 6.81604
28.9684 -3.08751 6.81763
28.9811 -3.13229 6.81934
28.994 -3.17704 6.82114
29.007 -3.2217 6.8231
29.02 -3.26633 6.82507
29.033 -3.31094 6.82704
29.046 -3.35554 6.82898
29.0587 -3.40023 6.83067
29.0715 -3.44489 6.83245
29.0842 -3.48958 6.83412
29.0962 -3.53446 6.83527
29.1084 -3.57936 6.83639
29.1202 -3.62439 6.83716
29.1314 -3.66962 6.83738
29.1425 -3.71491 6.83748
29.1536 -3.7602 6.83756
29.1647 -3.80545 6.83763
29.1753 -3.85086 6.83728
29.186 -3.89631 6.83698
29.197 -3.94177 6.83691
29.2073 -3.98747 6.83633
29.2156 -4.03372 6.83418
29.224 -4.08006 6.83206
29.2331 -4.12649 6.83044
29.2419 -4.17322 6.82902
29.2504 -4.22005 6.82715
29.2585 -4.26734 6.82483
29.2213 -4.32061 6.78443
29.2746 -4.36272 6.82
29.2826 -4.4106 6.81755
29.2888 -4.45846 6.81336
29.2948 -4.50651 6.80902
29.3009 -4.55352 6.80452
29.3069 -4.60025 6.79987
29.3115 -4.64717 6.794
29.3158 -4.694 6.78786
29.3199 -4.74058 6.78159
29.3238 -4.78704 6.77522
29.3269 -4.83344 6.7681
29.3299 -4.87984 6.76098
29.3329 -4.92634 6.75381
29.3358 -4.97286 6.74657
29.3386 -5.01937 6.73925
29.3414 -5.06587 6.73195
29.3446 -5.11237 6.72505
29.3478 -5.15887 6.71828
29.3508 -5.20535 6.71131
29.3539 -5.25183 6.70444
29.3572 -5.29831 6.69783
29.3607 -5.34478 6.69131
29.3641 -5.39125 6.6848
29.3675 -5.43773 6.67829
29.3705 -5.48422 6.67144
29.3734 -5.53071 6.66445
29.376 -5.57716 6.65738
29.3783 -5.62356 6.65004
29.3797 -5.66984 6.64204
29.3813 -5.7161 6.63421
29.3829 -5.76233 6.6265
29.3805 -5.80815 6.61579
29.3856 -5.85459 6.61085
29.3869 -5.90059 6.60309
29.3879 -5.94652 6.59517
29.3888 -5.99241 6.58729
29.3899 -6.03828 6.57953
29.391 -6.08412 6.57181
29.392 -6.12993 6.56412
29.3935 -6.17577 6.55686
29.3952 -6.22162 6.54979
29.3969 -6.26745 6.54276
29.3985 -6.31327 6.53578
29.4002 -6.35908 6.52891
29.4029 -6.40493 6.52282
29.4055 -6.45079 6.51678
29.4081 -6.49665 6.5108
29.4106 -6.54251 6.50484
29.4135 -6.58841 6.49923
29.4169 -6.63432 6.49414
29.4203 -6.68025 6.48912
29.4236 -6.7262 6.48411
29.4269 -6.77215 6.47912
29.4309 -6.81811 6.47477
29.4351 -6.86409 6.47063
29.4387 -6.91011 6.46622
29.4421 -6.95616 6.46186
29.4456 -7.00224 6.45766
29.4496 -7.04836 6.45388
29.4534 -7.09452 6.45012
29.4571 -7.1407 6.44645
29.4609 -7.18695 6.44283
29.4644 -7.23313 6.43912
29.4977 -7.27882 6.45472
29.472 -7.32636 6.43178
29.4757 -7.37312 6.42826
29.4793 -7.41991 6.42484
29.4834 -7.46673 6.42182
29.4873 -7.51348 6.41902
29.4912 -7.5602 6.41637
29.4949 -7.60693 6.41379
29.4995 -7.65357 6.41195
29.5046 -7.70008 6.41063
29.5095 -7.74656 6.40935
29.5143 -7.79303 6.40817
29.5204 -7.83938 6.40801
29.5267 -7.88573 6.40819
29.533 -7.9321 6.40841
29.5391 -7.97846 6.40872
29.5455 -8.02475 6.40925
29.5519 -8.07095 6.40993
29.5584 -8.11709 6.41076
29.5654 -8.16313 6.41204
29.5722 -8.20918 6.4134
29.5786 -8.25529 6.41465
29.5849 -8.30142 6.41602
29.591 -8.34757 6.41742
29.5969 -8.39376 6.41886
29.602 -8.44008 6.4199
29.607 -8.48642 6.42105
29.6119 -8.53278 6.42237
29.6189 -8.57886 6.4254
29.6259 -8.62485 6.42873
29.6325 -8.67092 6.43208
29.6394 -8.71693 6.43599
29.6435 -8.76362 6.43812
29.6529 -8.80931 6.44486
29.6589 -8.85575 6.44932
29.6649 -8.9022 6.45411
29.6708 -8.94868 6.45909
29.6766 -8.99514 6.46418
29.6817 -9.04174 6.46893
29.6879 -9.08807 6.47486
29.6941 -9.13433 6.48097
29.7002 -9.18048 6.4872
29.7055 -9.22674 6.49291
29.711 -9.27289 6.49896
29.7166 -9.31896 6.5053
29.7217 -9.36524 6.51152
29.7234 -9.41192 6.51455
29.7249 -9.45863 6.51773
29.7262 -9.50539 6.52103
29.7263 -9.55232 6.52359
29.7249 -9.59935 6.52496
29.7232 -9.64646 6.5263
29.7213 -9.69359 6.52768
29.7186 -9.74072 6.52846
29.7144 -9.78779 6.52785
29.7103 -9.83495 6.52767
29.7061 -9.88222 6.52757
29.7008 -9.92956 6.52618
29.6953 -9.97696 6.52467
29.6896 -10.0244 6.5234
29.6836 -10.0717 6.52189
29.6766 -10.1189 6.51949
29.6696 -10.1661 6.51717
29.6619 -10.2133 6.51451
29.638 -10.2566 6.49417
29.6458 -10.3067 6.5088
29.6379 -10.353 6.50604
29.6298 -10.399 6.50324
29.6215 -10.4449 6.50037
29.613 -10.4907 6.49748
29.6039 -10.5362 6.49415
29.5948 -10.5818 6.49111
29.5871 -10.6277 6.48976
29.5791 -10.6736 6.48859
29.571 -10.7196 6.48759
29.5638 -10.7657 6.48794
29.5573 -10.812 6.48921
29.5505 -10.8581 6.49056
29.5432 -10.9041 6.49163
29.5357 -10.95 6.49277
29.528 -10.9959 6.49401
29.5202 -11.0419 6.49552
29.5122 -11.0878 6.49711
29.5039 -11.1336 6.49879
29.4954 -11.1794 6.50064
29.4869 -11.2252 6.50279
29.478 -11.271 6.50495
29.4686 -11.3166 6.50691
29.4589 -11.3621 6.5091
29.4494 -11.4076 6.51203
29.4401 -11.453 6.51559
29.4305 -11.4984 6.51927
29.4193 -11.5436 6.52191
29.4085 -11.5891 6.52571
29.399 -11.6347 6.53111
29.3892 -11.6803 6.53682
29.3881 -11.7266 6.55058
29.3684 -11.7704 6.5482
29.356 -11.8154 6.55344
29.3434 -11.8604 6.55898
29.3306 -11.9052 6.56499
29.318 -11.95 6.5715
29.3054 -11.9948 6.57849
29.2925 -12.0395 6.58574
29.2793 -12.084 6.59307
29.266 -12.1286 6.6007
29.253 -12.1731 6.60893
29.2399 -12.2175 6.6174
29.2265 -12.2618 6.62607
29.2129 -12.306 6.63498
29.1987 -12.35 6.64379
29.1844 -12.3939 6.6528
29.17 -12.4376 6.66208
29.1557 -12.4812 6.67172
29.1418 -12.5248 6.682
29.1278 -12.5682 6.69247
29.1134 -12.6115 6.703
29.0986 -12.6546 6.71355
29.0837 -12.6976 6.72424
29.0686 -12.7404 6.73511
29.0536 -12.7831 6.74632
29.0391 -12.8257 6.75814
29.0244 -12.8681 6.77013
29.0098 -12.9103 6.7825
28.9952 -12.9525 6.79517
28.98 -12.9946 6.8074
28.9646 -13.0366 6.81969
28.949 -13.0785 6.83212
28.9081 -13.1171 6.82448
28.9152 -13.1626 6.85635
28.8984 -13.204 6.86844
28.8803 -13.245 6.87961
28.8617 -13.2857 6.89062
28.843 -13.326 6.90177
28.8243 -13.3659 6.91309
28.8046 -13.4055 6.92384
28.7845 -13.4447 6.93442
28.7642 -13.4838 6.94517
28.7439 -13.5226 6.9561
28.7235 -13.5613 6.96723
28.7027 -13.5998 6.97836
28.6819 -13.6381 6.98988
28.661 -13.6764 7.0016
28.6408 -13.7147 7.01431
28.6192 -13.7526 7.02614
28.5976 -13.7905 7.03829
28.5759 -13.8283 7.05064
28.5537 -13.8659 7.06291
28.53 -13.9029 7.07429
28.506 -13.9397 7.08606
28.4822 -13.9766 7.09826
28.4578 -14.0131 7.11005
28.4326 -14.0491 7.12083
28.4078 -14.0849 7.13116
28.3838 -14.1209 7.14198
28.3603 -14.1573 7.15349
28.3369 -14.1938 7.16516
28.3152 -14.2309 7.17774
28.2931 -14.268 7.19059
28.2668 -14.3088 7.20661
28.1799 -14.3161 7.18027
28.2061 -14.3821 7.23352
28.1773 -14.4165 7.24662
28.1485 -14.4532 7.25993
28.1181 -14.4892 7.27251
28.0882 -14.5244 7.28488
28.058 -14.5591 7.29701
28.0268 -14.5933 7.30881
27.9948 -14.6268 7.32024
27.9628 -14.6599 7.33182
27.9299 -14.6921 7.34288
27.8959 -14.7234 7.35326
27.8618 -14.7545 7.36389
27.8272 -14.7857 7.37456
27.7901 -14.8147 7.38332
27.752 -14.8424 7.39127
27.7162 -14.8723 7.40176
27.6812 -14.9024 7.4131
27.6462 -14.9323 7.42458
27.6111 -14.962 7.43626
27.5759 -14.9914 7.44819
27.5401 -15.0201 7.46001
27.5042 -15.0485 7.47216
27.4685 -15.0771 7.48468
27.4355 -15.1074 7.49977
27.4024 -15.1374 7.51513
27.37 -15.1677 7.53136
27.3371 -15.1974 7.54769
27.3036 -15.2263 7.56386
27.2701 -15.2549 7.58019
27.2373 -15.2837 7.59761
27.2052 -15.3126 7.61595
27.1571 -15.3304 7.62428
27.1376 -15.3677 7.65403
27.1041 -15.3941 7.67452
27.0696 -15.4204 7.69464
27.0346 -15.446 7.71477
26.9996 -15.471 7.73515
26.9647 -15.4956 7.75586
26.9288 -15.5193 7.77616
26.8924 -15.5422 7.79634
26.8561 -15.5647 7.81679
26.8198 -15.587 7.8376
26.7831 -15.6087 7.85831
26.7457 -15.6296 7.8787
26.7083 -15.6503 7.89953
26.671 -15.6708 7.92061
26.6336 -15.691 7.94192
26.5964 -15.7112 7.96358
26.5597 -15.7318 7.98589
26.523 -15.7521 8.00838
26.4864 -15.7723 8.03106
26.4496 -15.7922 8.05392
26.4117 -15.8107 8.07597
26.3742 -15.8293 8.09863
26.3371 -15.8481 8.12173
26.2999 -15.8668 8.14504
26.2622 -15.8849 8.16819
26.224 -15.9025 8.19118
26.1857 -15.9197 8.21406
26.1472 -15.9369 8.2371
26.1056 -15.9523 8.25828
26.0629 -15.9666 8.27868
26.0233 -15.9784 8.30196
25.9598 -15.9688 8.29938
25.9445 -16.0099 8.34562
25.9053 -16.0257 8.36808
25.8663 -16.0412 8.39057
25.827 -16.056 8.41249
25.7869 -16.0693 8.43333
25.7466 -16.082 8.4538
25.7062 -16.0946 8.47439
25.6665 -16.1079 8.49587
25.6269 -16.1212 8.51715
25.5873 -16.1343 8.53843
25.5475 -16.1471 8.55956
25.5076 -16.1597 8.58073
25.4678 -16.1721 8.60205
25.4281 -16.1843 8.62355
25.3882 -16.1963 8.6451
25.3481 -16.2078 8.66648
25.3086 -16.2196 8.68878
25.2689 -16.2311 8.71112
25.2292 -16.2424 8.73362
25.1895 -16.2535 8.75621
25.1489 -16.2634 8.77772
25.107 -16.2713 8.7974
25.066 -16.2806 8.81874
25.0253 -16.29 8.84052
24.9836 -16.298 8.86106
24.9417 -16.3054 8.8812
24.8997 -16.3129 8.9015
24.8584 -16.321 8.92276
24.817 -16.3292 8.94351
24.7761 -16.338 8.96489
24.7325 -16.3427 8.9833
24.685 -16.3433 8.99445
24.6485 -16.3557 9.02266
24.6082 -16.3644 9.0435
24.569 -16.3743 9.06693
24.5297 -16.3841 9.09045
24.4903 -16.3937 9.1144
24.4501 -16.4025 9.13708
24.4081 -16.4094 9.15638
24.3661 -16.4162 9.17574
24.3254 -16.4241 9.19726
24.2852 -16.4322 9.21938
24.2453 -16.4405 9.24187
24.205 -16.4483 9.26398
24.1637 -16.4548 9.28442
24.1232 -16.462 9.30627
24.0835 -16.4697 9.32917
24.0438 -16.4771 9.35197
24.0041 -16.4844 9.37477
23.9627 -16.49 9.39506
23.9205 -16.4941 9.41325
23.88 -16.4994 9.43442
23.8407 -16.5056 9.45794
23.8016 -16.5119 9.48196
23.7625 -16.5179 9.50608
23.7228 -16.5235 9.52959
23.6811 -16.5276 9.55007
23.6391 -16.5313 9.57047
23.5977 -16.5355 9.59238
23.5563 -16.5391 9.61419
23.5141 -16.541 9.63379
23.473 -16.5435 9.65545
23.434 -16.5475 9.67846
23.3791 -16.5371 9.67912
23.354 -16.5527 9.72992
23.3104 -16.5539 9.75455
23.2673 -16.5554 9.77567
23.2243 -16.5567 9.79691
23.1815 -16.5578 9.819
23.1393 -16.5592 9.84216
23.0972 -16.5604 9.86538
23.0556 -16.5616 9.88943
23.0141 -16.5625 9.91373
22.9728 -16.5631 9.93827
22.9305 -16.5626 9.9609
22.8875 -16.5613 9.98233
22.8449 -16.5596 10.0038
22.8024 -16.5576 10.0254
22.7604 -16.556 10.0477
22.7183 -16.5538 10.0695
22.6769 -16.5517 10.092
22.6356 -16.5493 10.1144
22.5945 -16.5467 10.1369
22.5529 -16.543 10.1578
22.511 -16.5383 10.1779
22.4697 -16.5336 10.1987
22.4288 -16.5286 10.2195
22.3877 -16.523 10.2387
22.3474 -16.5177 10.2567
22.308 -16.5126 10.2754
22.2695 -16.5073 10.2946
22.23 -16.5009 10.3147
22.1862 -16.4911 10.3346
22.1393 -16.4781 10.3498
22.0923 -16.4644 10.3652
22.0218 -16.4173 10.2855
21.9858 -16.4291 10.3966
21.9368 -16.415 10.4059
21.8909 -16.3991 10.4149
21.8457 -16.3825 10.42
21.8017 -16.3665 10.424
21.7584 -16.3506 10.428
21.7152 -16.3339 10.4309
21.6725 -16.3165 10.4317
21.6302 -16.2988 10.4332
21.5882 -16.2809 10.4351
21.5465 -16.2628 10.4371
21.505 -16.2442 10.4385
21.4646 -16.2234 10.4338
21.4239 -16.2023 10.4292
21.3834 -16.1809 10.4247
21.3432 -16.1587 10.4207
21.3034 -16.1358 10.4184
21.2638 -16.1122 10.4167
21.2244 -16.0883 10.4152
21.1851 -16.0641 10.4138
21.1465 -16.0391 10.4105
21.1089 -16.0134 10.4038
21.071 -15.9874 10.3974
21.0327 -15.9613 10.3913
20.9938 -15.9357 10.3849
20.9553 -15.9094 10.3751
20.9177 -15.8823 10.3643
20.8786 -15.8548 10.3548
20.8365 -15.8253 10.3445
20.7966 -15.7955 10.3303
20.7577 -15.7646 10.3111
20.7551 -15.7302 10.2283
20.6884 -15.7125 10.2796
20.6469 -15.6812 10.2681
20.6065 -15.6504 10.2568
20.5695 -15.6195 10.2399
20.537 -15.5916 10.2195
20.5024 -15.5646 10.204
20.4686 -15.5368 10.1895
20.4364 -15.5094 10.1711
20.4029 -15.4826 10.1522
20.3674 -15.4555 10.1361
20.3342 -15.4283 10.115
20.3017 -15.4009 10.0926
20.2681 -15.3732 10.0728
20.2338 -15.3451 10.0545
20.1998 -15.3167 10.0357
20.1657 -15.2879 10.0168
20.1318 -15.2587 9.99734
20.0981 -15.2292 9.97737
20.0645 -15.1994 9.95742
20.0331 -15.1696 9.93352
20.0022 -15.1398 9.90947
19.971 -15.1095 9.88609
19.9409 -15.0792 9.86092
19.9113 -15.0486 9.83548
19.8792 -15.0167 9.81463
19.8477 -14.9847 9.79266
19.8167 -14.9526 9.77023
19.7861 -14.9201 9.74746
19.757 -14.8878 9.72164
19.7299 -14.856 9.69282
19.7023 -14.8235 9.66514
19.6821 -14.7937 9.62791
19.646 -14.7566 9.6201
19.6162 -14.722 9.59895
19.5868 -14.687 9.57794
19.5598 -14.6524 9.55351
19.5341 -14.6172 9.52959
19.509 -14.5816 9.50577
19.4848 -14.5459 9.4809
19.4605 -14.5099 9.45688
19.4335 -14.4729 9.43748
19.4067 -14.4358 9.41796
19.3806 -14.3986 9.39752
19.3543 -14.361 9.37796
19.3283 -14.3232 9.35859
19.3035 -14.2855 9.33758
19.2774 -14.2471 9.31949
19.2519 -14.2087 9.30051
19.2329 -14.1721 9.26995
19.2091 -14.1331 9.24783
19.1836 -14.0939 9.23045
19.1582 -14.0547 9.21327
19.1326 -14.0152 9.19708
19.1073 -13.9757 9.18106
19.0828 -13.9361 9.16361
19.0599 -13.8968 9.14369
19.0375 -13.8573 9.12395
19.0149 -13.8175 9.10551
18.9922 -13.7776 9.08828
18.9692 -13.7375 9.07233
18.9471 -13.6977 9.05484
18.9255 -13.658 9.03776
18.9033 -13.6181 9.02296
18.8779 -13.5774 9.01736
18.8612 -13.5393 8.99502
18.8415 -13.5004 8.98038
18.8215 -13.4615 8.96754
18.802 -13.4226 8.95479
18.7826 -13.3839 8.94262
18.7633 -13.3452 8.93108
18.7443 -13.3064 8.91938
18.7276 -13.2682 8.90438
18.71 -13.2296 8.89181
18.6927 -13.1909 8.87941
18.6756 -13.1521 8.86727
18.6587 -13.1133 8.85547
18.6418 -13.0744 8.84423
18.6252 -13.0354 8.83312
18.609 -12.9964 8.82183
18.5932 -12.9573 8.81048
18.5775 -12.918 8.79924
18.5621 -12.8787 8.78815
18.5468 -12.8392 8.77732
18.5316 -12.7996 8.76662
18.5167 -12.7599 8.75602
18.5019 -12.72 8.74564
18.4873 -12.6801 8.73543
18.4729 -12.64 8.72534
18.4587 -12.5999 8.7153
18.445 -12.5597 8.70486
18.4314 -12.5193 8.69461
18.4179 -12.4788 8.68444
18.4043 -12.4381 8.67469
18.3907 -12.3971 8.6653
18.3772 -12.356 8.65568
18.3556 -12.314 8.66066
18.3505 -12.2731 8.63605
18.337 -12.2311 8.6265
18.3237 -12.1889 8.61707
18.3107 -12.1466 8.60738
18.2978 -12.1041 8.59789
18.2847 -12.0613 8.58904
18.2716 -12.0184 8.58048
18.2585 -11.9754 8.57228
18.2457 -11.9323 8.56383
18.2331 -11.8892 8.5554
18.2207 -11.8459 8.54704
18.2082 -11.8025 8.53895
18.1958 -11.759 8.53125
18.1835 -11.7154 8.52361
18.1713 -11.6717 8.51605
18.1595 -11.6279 8.50805
18.1478 -11.584 8.50004
18.1358 -11.5401 8.49294
18.1241 -11.4961 8.48575
18.1128 -11.452 8.47798
18.1017 -11.4078 8.4703
18.0907 -11.3636 8.46287
18.0793 -11.3193 8.45671
18.0678 -11.2748 8.45093
18.0565 -11.2303 8.44521
18.0454 -11.1856 8.4395
18.0345 -11.1409 8.43361
18.0236 -11.0961 8.42825
18.0126 -11.0513 8.42356
18.0018 -11.0063 8.41889
17.9912 -10.9614 8.41426
17.9676 -10.9167 8.43561
17.9705 -10.8707 8.40565
17.9601 -10.8256 8.40188
17.9499 -10.7805 8.39826
17.9397 -10.7353 8.39476
17.9298 -10.6901 8.39141
17.9199 -10.6448 8.38832
17.9101 -10.5996 8.38534
17.9005 -10.5543 8.38243
17.8909 -10.509 8.37954
17.8814 -10.4638 8.37668
17.8721 -10.4185 8.3738
17.8629 -10.3732 8.37092
17.8538 -10.3278 8.36818
17.8447 -10.2825 8.36552
17.8358 -10.2371 8.36289
17.827 -10.1917 8.36007
17.8183 -10.1462 8.35739
17.8097 -10.1006 8.35475
17.8012 -10.055 8.35214
17.7927 -10.0095 8.34956
17.7842 -9.96399 8.34722
17.7755 -9.91856 8.34524
17.7669 -9.8732 8.34327
17.7583 -9.82788 8.34128
17.7498 -9.78258 8.3391
17.7415 -9.73737 8.33684
17.7333 -9.69229 8.33415
17.7251 -9.64735 8.3314
17.7169 -9.60255 8.32864
17.7087 -9.55798 8.32572
17.7005 -9.51368 8.32264
17.6958 -9.46961 8.31164
17.6831 -9.42648 8.31606
17.6741 -9.38352 8.3126
17.6655 -9.34091 8.30843
17.6568 -9.29852 8.30421
17.6485 -9.25625 8.29957
17.6404 -9.2141 8.29477
17.6321 -9.17204 8.29007
17.6238 -9.13 8.28547
17.6155 -9.08791 8.28091
17.6073 -9.0458 8.27622
17.5993 -9.00369 8.2713
17.5912 -8.96158 8.26664
17.583 -8.91946 8.26218
17.5748 -8.87731 8.25774
17.5667 -8.83513 8.25331
17.5586 -8.79291 8.24892
17.5506 -8.75069 8.24456
17.5427 -8.70839 8.24021
17.5348 -8.66597 8.23589
17.527 -8.62341 8.23161
17.5194 -8.58064 8.22736
17.5119 -8.53766 8.22286
17.5046 -8.49448 8.21849
17.4973 -8.45111 8.21418
17.49 -8.40759 8.20991
17.4828 -8.36381 8.20573
17.4756 -8.31966 8.2018
17.4686 -8.27513 8.19794
17.4616 -8.2302 8.19412
17.4549 -8.18474 8.19042
17.448 -8.13868 8.18721
17.441 -8.09178 8.18473
17.4351 -8.0436 8.1814
17.429 -7.99459 8.1788
17.4229 -7.94499 8.17653
17.417 -7.89486 8.17439
17.4111 -7.84436 8.17233
17.4054 -7.7935 8.17046
17.3997 -7.7423 8.16869
17.3941 -7.69087 8.16698
17.3885 -7.63934 8.16532
17.383 -7.58766 8.16375
17.3776 -7.53581 8.1622
17.3723 -7.48381 8.1607
17.367 -7.43165 8.15925
17.3617 -7.37938 8.15795
17.3564 -7.32705 8.15672
17.3512 -7.27468 8.15553
17.3459 -7.22231 8.1544
17.3407 -7.16995 8.15328
17.3355 -7.11761 8.15213
17.3304 -7.06534 8.15099
17.3252 -7.01317 8.14996
17.32 -6.9611 8.14895
17.3149 -6.90914 8.14789
17.3098 -6.85727 8.14684
17.3049 -6.80543 8.14554
17.3 -6.75376 8.14425
17.2951 -6.70236 8.14296
17.2901 -6.65124 8.14164
17.2853 -6.60039 8.14015
17.2805 -6.54997 8.13849
17.2756 -6.50006 8.13672
17.2804 -6.45043 8.12094
17.2656 -6.40273 8.13274
17.2604 -6.35536 8.13038
17.2553 -6.30856 8.12798
17.2501 -6.26222 8.12553
17.2451 -6.21621 8.12299
17.2404 -6.17051 8.11993
17.2358 -6.12513 8.11678
17.2311 -6.07998 8.11362
17.2263 -6.03498 8.11047
17.2216 -5.99016 8.10728
17.2173 -5.94553 8.10345
17.213 -5.90105 8.09962
17.2087 -5.85675 8.09577
17.2037 -5.81254 8.09278
17.199 -5.76843 8.08948
17.1944 -5.72436 8.08589
17.1898 -5.68025 8.08228
17.1849 -5.63614 8.07916
17.18 -5.59207 8.0761
17.1752 -5.54802 8.07283
17.1704 -5.504 8.06949
17.1654 -5.46001 8.06642
17.1604 -5.41603 8.06343
17.1554 -5.37209 8.06044
17.1506 -5.32821 8.05706
17.1459 -5.28434 8.05358
17.1412 -5.24043 8.05009
17.1366 -5.19649 8.0466
17.1319 -5.15251 8.04315
17.1275 -5.10843 8.03945
17.1232 -5.06425 8.0355
17.1151 -5.0197 8.0376
17.1152 -4.97512 8.02777
17.1113 -4.93018 8.02385
17.1069 -4.88515 8.02035
17.1026 -4.84001 8.01685
17.0983 -4.79478 8.01336
17.094 -4.74946 8.00996
17.0895 -4.70404 8.00676
17.0849 -4.65855 8.00368
17.0803 -4.61299 8.00058
17.0756 -4.56737 7.99757
17.0706 -4.52169 7.99498
17.0655 -4.47596 7.99257
17.0599 -4.43016 7.99081
17.0542 -4.38432 7.98905
17.0489 -4.33842 7.98694
17.0436 -4.29252 7.98484
17.0382 -4.2467 7.9829
17.0325 -4.20088 7.98123
17.0269 -4.15501 7.97958
17.0213 -4.10907 7.97793
17.0156 -4.06302 7.97625
17.0097 -4.01688 7.97475
17.0037 -3.97064 7.97337
16.9977 -3.92427 7.97198
16.9918 -3.87777 7.97062
16.9858 -3.83111 7.96924
16.9793 -3.78433 7.9683
16.9727 -3.73736 7.96738
16.9661 -3.69022 7.96642
16.9593 -3.64282 7.96542
16.9525 -3.59502 7.96452
16.9332 -3.54846 7.97805
16.9377 -3.49821 7.96285
16.9299 -3.44921 7.96177
16.922 -3.39996 7.9607
16.9137 -3.35052 7.95982
16.9055 -3.30095 7.95892
16.8972 -3.25125 7.95802
16.8888 -3.20143 7.95716
16.8804 -3.15153 7.95631
16.872 -3.10163 7.95551
16.8637 -3.05169 7.95467
16.8555 -3.0017 7.95377
16.8473 -2.95168 7.95291
16.8392 -2.90163 7.95206
16.831 -2.85157 7.95123
16.823 -2.80148 7.95029
16.815 -2.7514 7.94947
16.8071 -2.70128 7.94869
16.7992 -2.65119 7.94794
16.7912 -2.6012 7.94755
16.7835 -2.55127 7.94697
16.7759 -2.50149 7.94647
16.7683 -2.45185 7.94601
16.7605 -2.40241 7.94619
16.753 -2.35306 7.9459
16.7455 -2.30381 7.94559
16.7381 -2.25476 7.94531
16.7305 -2.20605 7.94572
16.7229 -2.15766 7.94637
16.7157 -2.10952 7.94669
16.7087 -2.06182 7.94708
16.7022 -2.01476 7.94717
16.6847 -1.96983 7.96646
16.69 -1.92268 7.94759
16.6845 -1.87778 7.94814
16.6793 -1.83337 7.94879
16.6743 -1.78939 7.94953
16.6694 -1.74571 7.95041
16.6648 -1.70233 7.95139
16.6603 -1.65923 7.95247
16.6558 -1.61637 7.95385
16.6512 -1.57367 7.95576
16.6467 -1.53114 7.95791
16.6423 -1.48875 7.96014
16.638 -1.4465 7.96253
16.6336 -1.40442 7.96552
16.6293 -1.36243 7.9686
16.6252 -1.32049 7.97174
16.6214 -1.27855 7.97462
16.6172 -1.23671 7.97844
16.6124 -1.19508 7.98364
16.6076 -1.15344 7.98901
16.603 -1.11175 7.99447
16.5985 -1.06999 8.00002
16.5942 -1.02814 8.00563
16.5901 -0.986161 8.01113
16.5862 -0.944119 8.01672
16.5823 -0.902086 8.02263
16.5781 -0.860111 8.02946
16.574 -0.817928 8.03633
16.5702 -0.775499 8.0432
16.5665 -0.732806 8.05021
16.5635 -0.689613 8.05644
16.5608 -0.646004 8.06259
16.5602 -0.601277 8.06552
16.5557 -0.557044 8.07561
16.5532 -0.511681 8.08269
16.551 -0.465888 8.08961
16.5492 -0.419694 8.09626
16.5474 -0.373348 8.10339
16.5455 -0.326806 8.1108
16.5443 -0.279897 8.11754
16.5436 -0.232733 8.12372
16.543 -0.18553 8.13015
16.5423 -0.138263 8.13695
16.5417 -0.090874 8.14384
16.5413 -0.0433714 8.15082
16.5407 0.00420253 8.15821
16.5404 0.051911 8.1654
16.5403 0.0997076 8.17248
16.5404 0.14754 8.17961
16.541 0.195471 8.18609
16.5421 0.243483 8.19212
16.5434 0.291541 8.19801
16.5444 0.339562 8.20445
16.5453 0.387541 8.21124
16.5462 0.435524 8.2181
16.5474 0.483569 8.22463
16.5495 0.53172 8.23024
16.5518 0.579928 8.23581
16.554 0.628121 8.24155
16.5557 0.676224 8.24784
16.5584 0.72433 8.25315
16.5612 0.772384 8.2585
16.564 0.820333 8.26389
16.5669 0.868147 8.26934
16.5736 0.916011 8.27073
16.5733 0.963198 8.27977
16.5769 1.01031 8.28487
16.5808 1.05729 8.28967
16.5848 1.10414 8.29445
16.5887 1.15089 8.29944
16.5921 1.19754 8.30481
16.5957 1.2441 8.31016
16.5992 1.29062 8.3155
16.6026 1.33713 8.3208
16.6059 1.38359 8.32634
16.6084 1.42996 8.33264
16.6107 1.47628 8.33912
16.613 1.52253 8.34558
16.6153 1.56875 8.35199
16.617 1.61491 8.35894
16.6183 1.661 8.36629
16.6197 1.70709 8.37364
16.621 1.75318 8.38101
16.6217 1.79919 8.38883
16.6232 1.84532 8.39577
16.6246 1.89145 8.40249
16.6258 1.93755 8.40936
16.6263 1.98355 8.41681
16.6269 2.02957 8.42405
16.6278 2.07565 8.43082
16.6285 2.12172 8.4376
16.6288 2.16777 8.44453
16.6289 2.21385 8.45132
16.6288 2.25997 8.45807
16.6284 2.30611 8.46481
16.6272 2.35247 8.47195
16.6128 2.39633 8.49199
16.6249 2.44416 8.48554
16.6243 2.49085 8.49023
16.6235 2.53758 8.49473
16.6222 2.58429 8.49933
16.6204 2.63087 8.50419
16.6187 2.67744 8.50882
16.6167 2.72403 8.51329
16.6145 2.77056 8.51786
16.6113 2.81689 8.52329
16.6088 2.86332 8.52786
16.6061 2.90973 8.53231
16.6032 2.95614 8.53664
16.5996 3.00243 8.54158
16.596 3.04877 8.54612
16.5923 3.09512 8.55055
16.5884 3.14148 8.55487
16.5844 3.18787 8.55912
16.5801 3.23423 8.56351
16.5756 3.28059 8.56778
16.571 3.32694 8.57194
16.5662 3.37325 8.57607
16.5608 3.41946 8.58061
16.5549 3.4656 8.58541
16.5489 3.51175 8.59007
16.5427 3.55793 8.59458
16.5359 3.60405 8.59937
16.5288 3.65009 8.60434
16.5215 3.69616 8.60921
16.5138 3.74225 8.61433
16.5057 3.7883 8.6196
16.4975 3.83434 8.62475
16.4711 3.87438 8.65457
16.4801 3.9265 8.63558
16.4711 3.97216 8.64084
16.462 4.01779 8.64598
16.4527 4.06342 8.65088
16.4432 4.10903 8.65578
16.4336 4.15461 8.66057
16.4237 4.20017 8.66522
16.4136 4.24563 8.66989
16.4029 4.29093 8.67476
16.3922 4.33623 8.67936
16.3815 4.38157 8.68351
16.3708 4.4269 8.68747
16.3599 4.4722 8.69131
16.349 4.51754 8.69481
16.338 4.56289 8.69803
16.3269 4.60823 8.70111
16.3161 4.65369 8.70354
16.3051 4.69915 8.70584
16.2937 4.7445 8.70828
16.2822 4.78982 8.71061
16.2699 4.8349 8.7136
16.2573 4.87991 8.71657
16.2446 4.92487 8.71942
16.2316 4.96973 8.72234
16.2184 5.0145 8.72522
16.2051 5.05921 8.72798
16.1916 5.10386 8.73061
16.1778 5.14843 8.73315
16.1637 5.19283 8.73601
16.1496 5.23728 8.73825
16.1356 5.28171 8.74015
16.1221 5.32629 8.7409
16.1071 5.37025 8.74347
16.0927 5.41436 8.74483
16.0781 5.45839 8.74604
16.0633 5.50234 8.74711
16.0484 5.54622 8.74806
16.0334 5.59004 8.74885
16.0182 5.63378 8.74951
16.0028 5.67746 8.75006
15.9873 5.72108 8.75049
15.9717 5.76465 8.75076
15.9559 5.80817 8.75089
15.94 5.85163 8.75091
15.9239 5.89502 8.75081
15.9077 5.93836 8.7506
15.8913 5.98164 8.75033
15.8746 6.02484 8.75013
15.8576 6.0679 8.75025
15.8404 6.11093 8.75029
15.8231 6.1539 8.75021
15.8059 6.19693 8.74962
15.7885 6.23989 8.7489
15.771 6.28281 8.74805
15.7533 6.32567 8.7471
15.7359 6.3686 8.74546
15.7184 6.41147 8.74367
15.7006 6.45427 8.74182
15.6826 6.49698 8.74008
15.6645 6.53962 8.73824
15.6462 6.58226 8.7362
15.6284 6.62505 8.73294
15.6107 6.66783 8.72924
15.593 6.7106 8.72515
15.5747 6.75319 8.72157
15.5564 6.79576 8.71772
15.5378 6.83825 8.71386
15.5191 6.88068 8.7099
15.5007 6.92318 8.7051
15.4822 6.96562 8.7002
15.4629 7.00786 8.69618
15.4428 7.04982 8.69317
15.4227 7.09172 8.69
15.4024 7.13356 8.68675
15.3818 7.17528 8.6838
15.361 7.21693 8.68083
15.3398 7.25841 8.6783
15.3185 7.29985 8.67569
15.2974 7.34138 8.67251
15.2763 7.38288 8.66919
15.2551 7.42434 8.66576
15.2339 7.46579 8.66205
15.2133 7.50742 8.65752
15.1923 7.54892 8.65327
15.1704 7.59007 8.65011
15.1484 7.63121 8.6469
15.1272 7.67266 8.64247
15.1058 7.71405 8.63833
15.0849 7.75561 8.6335
15.0642 7.79721 8.62842
15.0434 7.8388 8.6234
15.022 7.88016 8.61892
15.0006 7.92136 8.61428
14.9793 7.9627 8.60936
14.9577 8.00427 8.60463
14.9171 8.03871 8.62622
14.9146 8.08735 8.59575
14.8928 8.12893 8.59102
14.8711 8.17054 8.58627
14.8491 8.21207 8.58176
14.8271 8.25348 8.57742
14.805 8.29486 8.57305
14.7829 8.33621 8.56865
14.7607 8.37748 8.56436
14.7381 8.41856 8.56035
14.7153 8.45947 8.55671
14.6924 8.50036 8.55305
14.6695 8.54123 8.54937
14.646 8.58187 8.54642
14.6225 8.62249 8.54354
14.599 8.66312 8.54063
14.5754 8.70377 8.53768
14.5519 8.74446 8.53474
14.5282 8.78504 8.53213
14.504 8.82541 8.53009
14.4799 8.86579 8.52806
14.4557 8.90619 8.52604
14.4315 8.94653 8.52417
14.4064 8.9864 8.52352
14.3813 9.0263 8.5229
14.3563 9.06623 8.52231
14.3313 9.10616 8.52183
14.3061 9.14599 8.52161
14.2811 9.186 8.52112
14.256 9.22619 8.52065
14.2305 9.26611 8.52079
14.2044 9.30556 8.52199
14.1702 9.33916 8.53521
14.1525 9.38391 8.52472
14.1272 9.42342 8.52554
14.102 9.46309 8.52624
14.0769 9.50267 8.52711
14.0516 9.5422 8.52804
14.0261 9.5815 8.52945
14.0005 9.62068 8.5312
13.9748 9.65988 8.53298
13.9492 9.69914 8.5348
13.9246 9.73906 8.53532
13.9007 9.77939 8.53492
13.8771 9.81982 8.53437
13.8535 9.86026 8.53386
13.8306 9.90108 8.53251
13.8077 9.94192 8.5312
13.7847 9.98272 8.53007
13.7619 10.0236 8.52883
13.7391 10.0645 8.52764
13.7161 10.1053 8.52676
13.694 10.1465 8.52485
13.6718 10.1877 8.52314
13.6497 10.229 8.52146
13.6277 10.2703 8.51976
13.6056 10.3116 8.51815
13.5836 10.3528 8.5167
13.5617 10.3942 8.51513
13.5399 10.4356 8.51356
13.5181 10.4771 8.51205
13.4966 10.5187 8.51043
13.4755 10.5605 8.50847
13.4543 10.6022 8.50658
13.4358 10.6452 8.50161
13.4119 10.6856 8.50369
13.3906 10.7273 8.50265
13.3694 10.7691 8.50164
13.3483 10.8109 8.50063
13.3277 10.8529 8.49901
13.3072 10.895 8.49741
13.286 10.9368 8.49699
13.2648 10.9785 8.49661
13.2441 11.0205 8.49573
13.2236 11.0626 8.4946
13.2031 11.1047 8.49362
13.1825 11.1468 8.49283
13.162 11.1889 8.49208
13.1417 11.2311 8.49095
13.1215 11.2733 8.48984
13.1006 11.3152 8.48959
13.0797 11.357 8.48933
13.0588 11.3989 8.48905
13.038 11.4407 8.48874
13.0166 11.4823 8.48927
12.9952 11.5239 8.49001
12.9737 11.5655 8.49084
12.9525 11.6072 8.49114
12.9314 11.6489 8.49128
12.9103 11.6905 8.49157
12.8891 11.732 8.49199
12.8679 11.7736 8.49245
12.8467 11.8153 8.49259
12.8252 11.8569 8.4927
12.8034 11.8985 8.49317
12.7811 11.9407 8.49394
12.7349 11.9689 8.5443
12.7362 12.026 8.49726
12.7136 12.0682 8.49907
12.6911 12.1105 8.5009
12.6683 12.1523 8.50361
12.6452 12.1935 8.50683
12.6216 12.234 8.51163
12.5978 12.2745 8.51685
12.5741 12.3149 8.52225
12.55 12.3546 8.52839
12.526 12.3942 8.53441
12.5021 12.4337 8.54042
12.4781 12.4732 8.54642
12.4541 12.5128 8.55243
12.4301 12.5523 8.55846
12.4061 12.5919 8.56451
12.3821 12.6314 8.57058
12.358 12.6709 8.57695
12.334 12.7104 8.58346
12.3103 12.7502 8.58904
12.2868 12.7902 8.59423
12.2633 12.8301 8.59944
12.2397 12.87 8.60481
12.2162 12.9098 8.61012
12.1929 12.9498 8.61512
12.1698 12.9899 8.61965
12.1467 13.0299 8.62419
12.1237 13.07 8.62864
12.1008 13.1101 8.63274
12.0781 13.1504 8.63658
12.0554 13.1906 8.64045
12.0327 13.2307 8.64455
12.0038 13.266 8.66229
11.9873 13.3112 8.65274
11.9646 13.3514 8.65713
11.9419 13.3913 8.66191
11.919 13.431 8.66697
11.896 13.4705 8.67246
11.8728 13.5099 8.67811
11.8497 13.5493 8.68376
11.8267 13.5886 8.68941
11.8035 13.6279 8.69537
11.7803 13.6671 8.70128
11.7571 13.7063 8.70719
11.7339 13.7455 8.71314
11.7103 13.7843 8.72002
11.6867 13.8231 8.72692
11.663 13.8618 8.7338
11.6393 13.9006 8.74065
11.6154 13.9392 8.74754
11.5913 13.9776 8.75487
11.5673 14.0161 8.76198
11.5436 14.0549 8.76831
11.5199 14.0938 8.77463
11.4962 14.1326 8.78091
11.4727 14.1717 8.78661
11.4492 14.2108 8.79227
11.4256 14.2499 8.79787
11.4019 14.2891 8.80345
11.3781 14.3281 8.8092
11.3548 14.3677 8.81379
11.3318 14.4075 8.81791
11.3088 14.4473 8.82199
11.2857 14.4874 8.82592
11.2693 14.532 8.81935
11.241 14.5687 8.83168
11.218 14.6086 8.83473
11.195 14.6488 8.8379
11.1721 14.689 8.84104
11.1488 14.7291 8.8445
11.1251 14.7689 8.84859
11.1013 14.8087 8.85265
11.0775 14.8485 8.85659
11.0537 14.8885 8.86032
11.0299 14.9284 8.86402
11.006 14.9683 8.86769
10.982 15.0081 8.87164
10.9577 15.0478 8.87579
10.9335 15.0875 8.87976
10.9093 15.1273 8.88371
10.885 15.167 8.88764
10.8607 15.2068 8.89144
10.8365 15.2466 8.89516
10.8122 15.2864 8.89886
10.7878 15.3261 8.90273
10.7631 15.3656 8.90701
10.7384 15.4051 8.91126
10.7137 15.4447 8.91539
10.689 15.4842 8.91949
10.6642 15.5236 8.92357
10.6394 15.5632 8.92744
10.6148 15.6028 8.93084
10.5898 15.6422 8.93496
10.5647 15.6814 8.93941
10.5395 15.7206 8.94385
10.5143 15.7599 8.94804
10.4904 15.8002 8.94937
10.4646 15.839 8.95498
10.4395 15.8783 8.95881
10.4144 15.9176 8.96276
10.3897 15.9574 8.96525
10.365 15.997 8.96776
10.3403 16.0367 8.97025
10.3155 16.0763 8.9727
10.2907 16.1158 8.9752
10.2663 16.1556 8.97638
10.2419 16.1953 8.97754
10.2175 16.2351 8.97866
10.193 16.2748 8.97967
10.1685 16.3145 8.9807
10.1438 16.3542 8.98175
10.1191 16.3939 8.98277
10.0942 16.4337 8.98376
10.0692 16.4736 8.98471
10.0436 16.5134 8.9866
10.0176 16.5528 8.98946
9.99141 16.5922 8.99247
9.96529 16.6315 8.99556
9.93904 16.6706 8.99882
9.9125 16.7096 9.00244
9.88479 16.7475 9.00875
9.85695 16.7857 9.01441
9.82925 16.824 9.0185
9.80152 16.8622 9.02253
9.77325 16.8996 9.02868
9.74462 16.9364 9.03657
9.71597 16.9731 9.04446
9.68737 17.0098 9.05233
9.65359 17.0364 9.08908
9.62983 17.0838 9.07093
9.60142 17.12 9.08038
9.5731 17.1561 9.08983
9.54467 17.1915 9.10106
9.51682 17.2273 9.11085
9.48912 17.2631 9.12048
9.4614 17.2989 9.12979
9.43377 17.335 9.13812
9.40595 17.3708 9.14764
9.37806 17.4067 9.15733
9.35012 17.4424 9.1671
9.32221 17.4785 9.17546
9.29436 17.5148 9.18257
9.26643 17.5511 9.18959
9.2384 17.5873 9.19642
9.21024 17.6236 9.20311
9.18186 17.6598 9.20978
9.15332 17.6961 9.21643
9.12464 17.7322 9.22329
9.09588 17.7683 9.22986
9.06704 17.8043 9.23634
9.03807 17.8401 9.24306
9.00903 17.8759 9.2496
8.97992 17.9118 9.25577
8.95071 17.948 9.26191
8.92158 17.9845 9.26667
8.89246 18.0211 9.2706
8.86329 18.0578 9.27356
8.83376 18.0943 9.27642
8.80415 18.131 9.27907
8.77337 18.1687 9.28072
8.75617 18.2212 9.20216
8.71202 18.2519 9.28009
8.68054 18.2906 9.2792
8.6495 18.3294 9.2775
8.61903 18.3681 9.27261
8.59053 18.4057 9.26712
8.56255 18.4429 9.26175
8.53451 18.48 9.25577
8.50773 18.5166 9.24642
8.48145 18.5525 9.23674
8.45526 18.5879 9.2271
8.42959 18.6232 9.21594
8.40388 18.6585 9.20455
8.37793 18.6938 9.1932
8.35158 18.7293 9.18244
8.3241 18.7649 9.17437
8.29653 18.8013 9.16633
8.26887 18.8391 9.15838
8.24157 18.8776 9.14941
8.21439 18.9163 9.14005
8.18721 18.9547 9.13067
8.15665 18.9917 9.12959
8.12446 19.0278 9.13212
8.09197 19.0638 9.13507
8.05914 19.0999 9.13789
8.02563 19.1357 9.14057
7.99064 19.1696 9.1465
7.95511 19.2021 9.15437
7.91908 19.2344 9.16337
7.88278 19.268 9.17305
7.84601 19.3006 9.18367
7.80889 19.3324 9.1953
7.75686 19.3262 9.26203
7.73116 19.3923 9.21944
7.69373 19.4197 9.23014
7.65662 19.4465 9.24096
7.61912 19.4721 9.25276
7.58286 19.498 9.26499
7.54687 19.524 9.27721
7.51061 19.5494 9.28966
7.47415 19.5746 9.30203
7.43749 19.6008 9.31273
7.40055 19.6265 9.32404
7.36342 19.6519 9.33576
7.32605 19.6764 9.34856
7.2885 19.7001 9.36227
7.25078 19.7237 9.37589
7.21291 19.7473 9.38913
7.17502 19.7706 9.40321
7.13725 19.7935 9.41837
7.09943 19.8165 9.43354
7.06144 19.8398 9.44772
7.02328 19.8632 9.46162
6.98495 19.8862 9.4755
6.94644 19.9091 9.48922
6.90774 19.9319 9.50255
6.86881 19.9547 9.51513
6.82957 19.9775 9.52659
6.79018 19.9998 9.53839
6.7506 20.0221 9.54976
6.71085 20.0441 9.56114
6.67101 20.0657 9.57299
6.63102 20.0871 9.5848
6.59061 20.1085 9.59634
6.54919 20.1359 9.592
6.51068 20.1529 9.61912
6.47014 20.1742 9.62962
6.42948 20.1954 9.64009
6.38874 20.2161 9.65146
6.34765 20.2369 9.66155
6.30646 20.2574 9.67223
6.26498 20.278 9.68132
6.22329 20.2985 9.68969
6.1815 20.3186 9.6979
6.13948 20.3387 9.70477
6.09734 20.3585 9.71162
6.05508 20.3781 9.71844
6.01267 20.3975 9.72501
5.97007 20.4168 9.73058
5.92735 20.4358 9.73568
5.88459 20.4545 9.74153
5.84177 20.4728 9.74749
5.79888 20.4908 9.75336
5.75585 20.5087 9.75766
5.7127 20.5262 9.76174
5.6693 20.5435 9.76431
5.62582 20.5604 9.76757
5.58226 20.577 9.77166
5.53859 20.5935 9.77403
5.49493 20.6099 9.7764
5.45124 20.6259 9.782
5.40744 20.6415 9.78777
5.36318 20.6572 9.79125
5.31862 20.6728 9.79605
5.27388 20.688 9.80209
5.22898 20.7029 9.80808
5.18633 20.7111 9.84821
5.13801 20.7301 9.82053
5.09281 20.7435 9.82678
5.04752 20.7565 9.83296
5.00231 20.769 9.83998
4.95731 20.7807 9.84815
4.91229 20.792 9.8565
4.86717 20.8029 9.86488
4.82203 20.8136 9.87331
4.77709 20.8235 9.88295
4.73197 20.8334 9.89139
4.6869 20.8428 9.90062
4.64193 20.8518 9.91078
4.59684 20.8605 9.92084
4.55156 20.8692 9.92994
4.50646 20.8773 9.94053
4.46132 20.8852 9.95108
4.41618 20.8928 9.96154
4.37107 20.9001 9.97227
4.32582 20.9073 9.98246
4.28053 20.9143 9.9926
4.23515 20.9211 10.0025
4.18964 20.9278 10.012
4.14412 20.9343 10.0217
4.0985 20.9406 10.0314
4.05275 20.9468 10.041
4.00692 20.9528 10.0505
3.96123 20.9584 10.0609
3.91523 20.9642 10.0697
3.86892 20.9701 10.0763
3.82265 20.9758 10.0837
3.77641 20.981 10.0922
3.72946 20.9873 10.0957
3.68342 20.9922 10.1065
3.63721 20.9972 10.1164
3.59099 21.002 10.127
3.54456 21.007 10.1369
3.49813 21.0118 10.1466
3.4519 21.0162 10.1575
3.4057 21.0204 10.1686
3.35924 21.0248 10.1785
3.31277 21.0291 10.1881
3.26658 21.0327 10.1993
3.22045 21.0362 10.2104
3.17412 21.0398 10.2204
3.12764 21.0436 10.2295
3.0815 21.0466 10.2399
3.03543 21.0494 10.2503
2.9886 21.0536 10.2562
2.94187 21.0576 10.2612
2.89512 21.0615 10.2659
2.84834 21.0653 10.2702
2.80153 21.0691 10.2739
2.7547 21.0728 10.2774
2.70783 21.0767 10.2796
2.66098 21.0804 10.2812
2.61419 21.0841 10.2827
2.56748 21.0876 10.2839
2.52082 21.0913 10.2836
