BEGIN_Polyline
-18.8142 -9.56714 10.0143
-18.8285 -9.61147 10.0148
-18.8428 -9.65557 10.0155
-18.8552 -9.70008 10.02
-18.8667 -9.74478 10.0269
-18.8783 -9.78943 10.0338
-18.8901 -9.83416 10.0406
-18.9016 -9.87901 10.0471
-18.9131 -9.92378 10.0536
-18.9246 -9.96839 10.0601
-18.9362 -10.0127 10.0667
-18.9478 -10.057 10.0733
-18.9595 -10.1009 10.0799
-18.9712 -10.1446 10.0866
-18.983 -10.188 10.0933
-18.9949 -10.2316 10.0999
-19.0068 -10.275 10.1064
-19.0187 -10.318 10.1128
-19.0305 -10.3605 10.1192
-19.0424 -10.4029 10.1257
-19.0541 -10.4449 10.1321
-19.0657 -10.4865 10.1385
-19.0857 -10.5277 10.1314
-19.0884 -10.5699 10.1509
-19.0995 -10.6118 10.157
-19.1111 -10.6532 10.1619
-19.1226 -10.6945 10.1672
-19.134 -10.7355 10.1726
-19.1455 -10.776 10.178
-19.157 -10.8164 10.1835
-19.1685 -10.8566 10.189
-19.1808 -10.8969 10.1934
-19.1943 -10.937 10.1964
-19.2079 -10.977 10.1995
-19.2208 -11.017 10.204
-19.2333 -11.0571 10.2091
-19.246 -11.097 10.2143
-19.2588 -11.1368 10.2196
-19.2717 -11.1765 10.2249
-19.2844 -11.2161 10.2302
-19.2973 -11.2557 10.2352
-19.3111 -11.2952 10.2395
-19.3251 -11.335 10.2439
-19.3391 -11.3748 10.2484
-19.3534 -11.4151 10.253
-19.368 -11.4556 10.2578
-19.3829 -11.4962 10.2628
-19.3979 -11.5364 10.2679
-19.413 -11.577 10.2731
-19.4283 -11.618 10.2784
-19.4442 -11.6596 10.283
-19.4594 -11.7015 10.2888
-19.4748 -11.7441 10.2942
-19.4901 -11.7872 10.2995
-19.5096 -11.8299 10.2967
-19.5198 -11.8733 10.3097
-19.5343 -11.9164 10.3146
-19.5488 -11.9599 10.3194
-19.5634 -12.0041 10.3243
-19.5781 -12.0484 10.3292
-19.5931 -12.0933 10.3344
-19.608 -12.1387 10.3401
-19.6232 -12.1845 10.3458
-19.6382 -12.23 10.3515
-19.6535 -12.2757 10.3573
-19.6692 -12.3216 10.3633
-19.6854 -12.3678 10.3697
-19.7013 -12.4141 10.3768
-19.7177 -12.4605 10.3841
-19.7344 -12.5069 10.3916
-19.7508 -12.5532 10.4002
-19.7673 -12.5994 10.4075
-19.7849 -12.6452 10.4127
-19.8029 -12.6908 10.4182
-19.8214 -12.7363 10.4238
-19.8399 -12.7818 10.4295
-19.859 -12.8272 10.4353
-19.8786 -12.8724 10.4413
-19.8986 -12.9175 10.4475
-19.9187 -12.9626 10.4536
-19.9398 -13.0075 10.4572
-19.9608 -13.0525 10.4617
-19.982 -13.0972 10.4667
-20.0034 -13.1419 10.4717
-20.0245 -13.1866 10.4766
-20.0452 -13.2314 10.4815
-20.065 -13.2768 10.4864
-20.0842 -13.3227 10.4911
-20.1024 -13.3689 10.4966
-20.1198 -13.415 10.5037
-20.1372 -13.4608 10.5108
-20.1549 -13.5064 10.518
-20.1733 -13.5515 10.5242
-20.1919 -13.5962 10.53
-20.2109 -13.6404 10.5361
-20.2296 -13.6848 10.544
-20.2492 -13.7287 10.5505
-20.2695 -13.7719 10.557
-20.2909 -13.8139 10.5634
-20.3123 -13.8557 10.5716
-20.3346 -13.8964 10.5805
-20.3576 -13.9365 10.5889
-20.3809 -13.9766 10.5961
-20.4031 -14.0175 10.6034
-20.4256 -14.0582 10.6107
-20.449 -14.0982 10.6179
-20.4734 -14.1374 10.6244
-20.4977 -14.1766 10.6306
-20.5235 -14.2148 10.6351
-20.5505 -14.2522 10.6395
-20.5791 -14.2885 10.6437
-20.6077 -14.3249 10.6478
-20.6375 -14.3607 10.6519
-20.6676 -14.3962 10.6558
-20.6985 -14.4314 10.6576
-20.7298 -14.4661 10.658
-20.7614 -14.5009 10.6588
-20.793 -14.536 10.6597
-20.8156 -14.5804 10.6326
-20.8504 -14.6124 10.6645
-20.8767 -14.6532 10.6676
-20.9044 -14.693 10.6699
-20.9324 -14.7327 10.6721
-20.9608 -14.7722 10.6742
-20.9903 -14.8106 10.676
-21.0206 -14.8482 10.6775
-21.0519 -14.8848 10.6794
-21.0829 -14.9216 10.684
-21.1153 -14.9568 10.6892
-21.149 -14.9907 10.6941
-21.1845 -15.0226 10.6984
-21.2201 -15.0542 10.7027
-21.2572 -15.084 10.7064
-21.2953 -15.1127 10.7098
-21.3337 -15.1412 10.7131
-21.3705 -15.1724 10.7139
-21.4075 -15.2036 10.7131
-21.4456 -15.2335 10.7119
-21.4848 -15.2613 10.7101
-21.5238 -15.2887 10.7082
-21.5643 -15.3137 10.7055
-21.6059 -15.3374 10.7008
-21.6493 -15.3596 10.6951
-21.6925 -15.3831 10.6883
-21.736 -15.4064 10.6761
-21.7796 -15.4292 10.6614
-21.8241 -15.4506 10.6451
-21.8686 -15.471 10.6286
-21.9133 -15.4913 10.612
-21.9606 -15.5146 10.5937
-21.9636 -15.5431 10.4857
-22.0472 -15.5669 10.5568
-22.0884 -15.5936 10.5363
-22.1252 -15.6183 10.5174
-22.1611 -15.6419 10.4989
-22.1977 -15.6655 10.4801
-22.2347 -15.687 10.4611
-22.2717 -15.7069 10.4421
-22.3081 -15.7248 10.4203
-22.3453 -15.7432 10.3991
-22.3848 -15.7598 10.3804
-22.4252 -15.7748 10.3616
-22.4663 -15.7873 10.3432
-22.5062 -15.7998 10.3252
-22.5435 -15.8088 10.2974
-22.5872 -15.8194 10.2801
-22.6321 -15.8295 10.2635
-22.6735 -15.8389 10.2422
-22.7151 -15.8486 10.2207
-22.7575 -15.8573 10.1995
-22.8011 -15.8649 10.1785
-22.8447 -15.8724 10.1577
-22.8894 -15.879 10.1375
-22.9344 -15.8848 10.1172
-22.981 -15.892 10.1
-23.0271 -15.9001 10.0829
-23.0731 -15.9081 10.0659
-23.1177 -15.9125 10.0447
-23.1635 -15.9181 10.0252
-23.2095 -15.9236 10.0065
-23.2555 -15.9298 9.98746
-23.3016 -15.9361 9.96823
-23.3319 -15.9045 9.89925
-23.3872 -15.9596 9.92351
-23.4331 -15.9692 9.90337
-23.4788 -15.9791 9.88296
-23.5245 -15.9892 9.86331
-23.5697 -15.997 9.84187
-23.6133 -15.9998 9.8166
-23.6573 -16.0018 9.79064
-23.7007 -16.0035 9.76525
-23.7429 -16.0054 9.74031
-23.784 -16.0065 9.7161
-23.8242 -16.0055 9.69089
-23.8646 -16.0039 9.66625
-23.9055 -16.0023 9.64137
-23.9468 -16.0002 9.61682
-23.988 -15.9978 9.59238
-24.0292 -15.9943 9.56792
-24.0711 -15.9932 9.54388
-24.1146 -15.9953 9.52288
-24.1587 -15.9981 9.50315
-24.203 -16.0006 9.48413
-24.2473 -16.0031 9.46499
-24.2897 -15.9985 9.44166
-24.3315 -15.993 9.41837
-24.3735 -15.9872 9.39546
-24.4154 -15.9815 9.37234
-24.4574 -15.9757 9.34947
-24.4993 -15.9697 9.32687
-24.5405 -15.9622 9.3036
-24.5815 -15.9542 9.27988
-24.6225 -15.946 9.25631
-24.6634 -15.937 9.23656
-24.6934 -15.9123 9.19631
-24.7494 -15.9254 9.1976
-24.7932 -15.922 9.17494
-24.8354 -15.9178 9.15184
-24.8764 -15.9125 9.12678
-24.9168 -15.9071 9.1022
-24.9582 -15.9032 9.07997
-24.9994 -15.8984 9.05732
-25.0371 -15.8904 9.03047
-25.0753 -15.8824 9.00322
-25.1134 -15.8741 8.97626
-25.1543 -15.8676 8.95315
-25.1973 -15.8632 8.9343
-25.2395 -15.8592 8.91581
-25.2814 -15.8546 8.89793
-25.3233 -15.8496 8.88041
-25.3652 -15.8444 8.86303
-25.4058 -15.8376 8.84232
-25.4456 -15.8292 8.81997
-25.4854 -15.8203 8.79804
-25.5252 -15.811 8.77719
-25.5664 -15.8039 8.75938
-25.6074 -15.796 8.74209
-25.6483 -15.7873 8.72485
-25.6896 -15.7774 8.70811
-25.7316 -15.767 8.69131
-25.7737 -15.7561 8.67477
-25.8154 -15.7454 8.65829
-25.8549 -15.7329 8.63909
-25.8922 -15.7187 8.61749
-25.9303 -15.7051 8.59661
-25.9682 -15.6919 8.57579
-25.9857 -15.6688 8.52413
-26.0446 -15.6688 8.53259
-26.083 -15.659 8.51016
-26.1214 -15.6496 8.48761
-26.1598 -15.6406 8.46498
-26.1981 -15.631 8.44253
-26.2373 -15.6218 8.42202
-26.277 -15.6132 8.40194
-26.3131 -15.602 8.37895
-26.3516 -15.5921 8.35815
-26.3897 -15.5809 8.33749
-26.4272 -15.5688 8.31669
-26.4645 -15.5558 8.29653
-26.5018 -15.543 8.27626
-26.539 -15.5294 8.25659
-26.576 -15.5153 8.23736
-26.6115 -15.4994 8.21663
-26.6467 -15.4835 8.19533
-26.682 -15.4673 8.17423
-26.7173 -15.4507 8.15348
-26.7526 -15.4337 8.13303
-26.788 -15.417 8.1124
-26.8213 -15.3978 8.09006
-26.8546 -15.3782 8.06788
-26.8884 -15.3581 8.04671
-26.9219 -15.338 8.0255
-26.9555 -15.3172 8.00453
-26.9889 -15.2948 7.98453
-27.0234 -15.2742 7.9626
-27.0582 -15.2571 7.93669
-27.0914 -15.2399 7.90653
-27.1244 -15.2231 7.87607
-27.1008 -15.1526 7.81211
-27.1992 -15.1634 7.82516
-27.227 -15.1413 7.79813
-27.2549 -15.1181 7.7716
-27.2843 -15.0955 7.74589
-27.3144 -15.0727 7.71925
-27.345 -15.0494 7.69227
-27.3755 -15.0259 7.66567
-27.406 -15.0022 7.63922
-27.4364 -14.9784 7.61266
-27.4636 -14.9528 7.58408
-27.4903 -14.9264 7.55543
-27.5172 -14.8992 7.52686
-27.5443 -14.872 7.49823
-27.5715 -14.8441 7.46973
-27.5989 -14.8159 7.44138
-27.6276 -14.7883 7.41391
-27.6568 -14.7615 7.38658
-27.6858 -14.7348 7.35944
-27.7149 -14.7077 7.33258
-27.7439 -14.6802 7.30604
-27.7729 -14.653 7.27936
-27.8019 -14.6251 7.25319
-27.8308 -14.5967 7.22719
-27.8589 -14.5667 7.20158
-27.8873 -14.536 7.17647
-27.9134 -14.5036 7.15052
-27.9395 -14.4717 7.12394
-27.9645 -14.4395 7.09654
-27.9892 -14.4073 7.06914
-28.015 -14.3757 7.04225
-28.0401 -14.3445 7.01452
-28.0223 -14.3003 6.96256
-28.0913 -14.2913 6.94844
-28.1159 -14.2613 6.91912
-28.1403 -14.232 6.88947
-28.1638 -14.2027 6.85984
-28.1871 -14.1736 6.83012
-28.2101 -14.1446 6.80076
-28.2331 -14.1156 6.7717
-28.2559 -14.0866 6.74292
-28.2789 -14.0576 6.71383
-28.3015 -14.0281 6.68515
-28.3238 -13.9982 6.65688
-28.3456 -13.9677 6.62933
-28.3662 -13.9367 6.60149
-28.3868 -13.9053 6.57438
-28.4074 -13.8735 6.54777
-28.4333 -13.8434 6.52314
-28.455 -13.8123 6.4962
-28.4766 -13.781 6.46943
-28.4982 -13.7493 6.44322
-28.5195 -13.717 6.41779
-28.5408 -13.6845 6.39241
-28.5621 -13.6514 6.3681
-28.5832 -13.6178 6.34467
-28.6005 -13.5824 6.32059
-28.6174 -13.5475 6.29545
-28.6419 -13.5147 6.27346
-28.6663 -13.4827 6.25336
-28.6893 -13.4482 6.23353
-28.7117 -13.4104 6.21296
-28.728 -13.3708 6.19021
-28.7383 -13.333 6.1679
-28.731 -13.2899 6.13486
-28.7808 -13.2589 6.12837
-28.8017 -13.2205 6.10311
-28.8178 -13.1862 6.07582
-28.8339 -13.1519 6.04846
-28.8516 -13.1169 6.02211
-28.8681 -13.0804 5.99677
-28.8874 -13.0444 5.97489
-28.9027 -13.0073 5.95226
-28.9167 -12.9703 5.92855
-28.9305 -12.9326 5.90595
-28.9403 -12.8932 5.88378
-28.9483 -12.8525 5.86287
-28.9608 -12.8121 5.8434
-28.9756 -12.7712 5.82593
-28.9901 -12.7297 5.80924
-29.0026 -12.6878 5.79191
-29.0154 -12.6468 5.77319
-29.0282 -12.6061 5.75442
-29.0407 -12.5651 5.73642
-29.0516 -12.5236 5.71906
-29.0618 -12.4819 5.70163
-29.0715 -12.4395 5.68567
-29.0807 -12.3968 5.67064
-29.0914 -12.3536 5.65744
-29.1034 -12.3106 5.64421
-29.1184 -12.2676 5.63328
-29.1332 -12.2242 5.62287
-29.1476 -12.1805 5.61328
-29.1618 -12.1367 5.60402
-29.1759 -12.093 5.59498
-29.1871 -12.0508 5.58454
-29.2246 -12.0107 5.58762
-29.2175 -11.9633 5.56127
-29.2336 -11.9217 5.55107
-29.2497 -11.8803 5.54089
-29.2677 -11.8398 5.53231
-29.2826 -11.7985 5.52141
-29.2957 -11.7569 5.51025
-29.3083 -11.7152 5.50001
-29.3208 -11.6733 5.49041
-29.3335 -11.6313 5.48018
-29.3459 -11.5888 5.47083
-29.358 -11.5461 5.46239
-29.3694 -11.5029 5.45546
-29.3874 -11.4612 5.45253
-29.4008 -11.418 5.44793
-29.4139 -11.3746 5.4441
-29.4267 -11.331 5.44065
-29.4396 -11.2878 5.4361
-29.4522 -11.2445 5.43186
-29.4644 -11.2009 5.42837
-29.476 -11.1568 5.42592
-29.4877 -11.1126 5.42353
-29.4989 -11.068 5.42242
-29.5098 -11.0231 5.42207
-29.5203 -10.9778 5.42252
-29.531 -10.9326 5.42261
-29.5415 -10.8872 5.42313
-29.5517 -10.8417 5.42402
-29.5611 -10.7956 5.42499
-29.5699 -10.7491 5.42587
-29.5805 -10.7029 5.42764
-29.5883 -10.6566 5.42752
-29.5888 -10.609 5.42198
-29.6091 -10.5657 5.42697
-29.6202 -10.5203 5.42541
-29.6314 -10.475 5.42355
-29.6428 -10.4297 5.42147
-29.654 -10.3843 5.41963
-29.6651 -10.3387 5.41817
-29.6761 -10.293 5.41694
-29.6869 -10.2471 5.41608
-29.6978 -10.2013 5.415
-29.7083 -10.1552 5.41463
-29.7184 -10.1089 5.41475
-29.7275 -10.0622 5.41557
-29.7366 -10.0154 5.4164
-29.7431 -9.96809 5.41684
-29.747 -9.92046 5.417
-29.7579 -9.87387 5.42087
-29.7693 -9.82788 5.42449
-29.7786 -9.78149 5.42716
-29.7876 -9.73497 5.43047
-29.7961 -9.6883 5.43461
-29.8046 -9.64168 5.43874
-29.8122 -9.59466 5.44369
-29.8169 -9.54692 5.4472
-29.8246 -9.49934 5.45481
-29.8347 -9.45305 5.46303
-29.8334 -9.40281 5.46434
-29.8359 -9.35378 5.46859
-29.8381 -9.3044 5.4734
-29.8401 -9.25508 5.47846
-29.8421 -9.20574 5.48356
-29.8441 -9.15633 5.48858
-29.8318 -9.10558 5.48253
-29.8489 -9.05769 5.49568
-29.8514 -9.00881 5.49771
-29.8527 -8.96046 5.49928
-29.8558 -8.91238 5.50196
-29.8607 -8.86424 5.50609
-29.8654 -8.81602 5.51062
-29.8695 -8.76797 5.51529
-29.8733 -8.71998 5.52036
-29.8772 -8.67185 5.52512
-29.8806 -8.62377 5.53053
-29.8836 -8.57579 5.53651
-29.886 -8.52799 5.54336
-29.8882 -8.48019 5.55015
-29.8879 -8.43238 5.55639
-29.8885 -8.38466 5.56393
-29.8917 -8.33738 5.57348
-29.8955 -8.28988 5.58234
-29.8991 -8.24234 5.59136
-29.9023 -8.19491 5.60083
-29.9048 -8.14767 5.61091
-29.9066 -8.10037 5.62069
-29.9079 -8.05342 5.6313
-29.9087 -8.0067 5.64243
-29.9092 -7.96024 5.65405
-29.9099 -7.91363 5.66531
-29.91 -7.8672 5.67666
-29.9091 -7.82064 5.68777
-29.9077 -7.77485 5.69944
-29.9071 -7.72981 5.71187
-29.9098 -7.68607 5.72692
-29.9123 -7.64208 5.74238
-29.8896 -7.59 5.73935
-29.92 -7.55331 5.76963
-29.9255 -7.50809 5.78323
-29.9344 -7.46323 5.8015
-29.926 -7.41232 5.81123
-29.9286 -7.36586 5.82454
-29.9283 -7.31983 5.83473
-29.9236 -7.27335 5.84256
-29.9183 -7.22748 5.85048
-29.9131 -7.18226 5.85824
-29.9075 -7.13792 5.86652
-29.8997 -7.09382 5.8737
-29.8897 -7.04995 5.88033
-29.8794 -7.00558 5.88712
-29.8703 -6.96124 5.89553
-29.8648 -6.91719 5.90683
-29.8591 -6.87329 5.91837
-29.8537 -6.82938 5.9294
-29.8482 -6.7856 5.94065
-29.8424 -6.74193 5.95232
-29.8363 -6.69832 5.96456
-29.8297 -6.65457 5.97657
-29.8212 -6.61085 5.98817
-29.8115 -6.56724 5.99957
-29.8015 -6.52377 6.01144
-29.7916 -6.48046 6.02318
-29.7815 -6.43721 6.03515
-29.7714 -6.39353 6.04724
-29.7668 -6.35004 6.06298
-29.7645 -6.30785 6.0803
-29.7623 -6.26516 6.09739
-29.7603 -6.22207 6.11442
-29.7388 -6.17369 6.11847
-29.7581 -6.12922 6.14123
-29.7551 -6.08327 6.15492
-29.7494 -6.0371 6.16739
-29.7427 -5.99061 6.17919
-29.7347 -5.94509 6.1913
-29.7263 -5.90005 6.20361
-29.7178 -5.85486 6.21586
-29.709 -5.81009 6.2281
-29.6959 -5.76623 6.23886
-29.6827 -5.72253 6.24989
-29.6695 -5.6789 6.26115
-29.6562 -5.6353 6.2727
-29.6429 -5.59159 6.28412
-29.6294 -5.54786 6.29586
-29.6182 -5.50355 6.30874
-29.6093 -5.45894 6.3227
-29.6005 -5.41449 6.33645
-29.5918 -5.36995 6.35004
-29.5828 -5.3253 6.36352
-29.5732 -5.28054 6.37672
-29.5635 -5.23567 6.38993
-29.5537 -5.19092 6.40339
-29.5477 -5.14619 6.41941
-29.5434 -5.10175 6.43677
-29.539 -5.05769 6.45407
-29.5345 -5.01396 6.47162
-29.5298 -4.97029 6.48925
-29.5249 -4.92668 6.50738
-29.5196 -4.8829 6.52605
-29.5141 -4.8392 6.54462
-29.5064 -4.79521 6.56192
-29.4791 -4.74846 6.56378
-29.4913 -4.70674 6.59624
-29.4838 -4.66241 6.6129
-29.476 -4.61833 6.62917
-29.4667 -4.57431 6.64421
-29.4582 -4.53046 6.66005
-29.4504 -4.48699 6.67665
-29.4426 -4.44368 6.6933
-29.4347 -4.40045 6.71002
-29.426 -4.35691 6.72593
-29.417 -4.31335 6.74177
-29.408 -4.26987 6.75762
-29.3989 -4.2265 6.77352
-29.3894 -4.1831 6.78901
-29.3785 -4.1397 6.80335
-29.3676 -4.09635 6.81767
-29.3568 -4.05303 6.83192
-29.346 -4.00968 6.84612
-29.3353 -3.96634 6.86023
-29.3247 -3.92301 6.87431
-29.314 -3.87969 6.88839
-29.3033 -3.83638 6.90257
-29.2925 -3.79306 6.91674
-29.2816 -3.7497 6.93068
-29.2706 -3.70635 6.94426
-29.2604 -3.66309 6.95846
-29.2503 -3.61978 6.97257
-29.2405 -3.57622 6.98635
-29.2302 -3.53288 7.0008
-29.2189 -3.49015 7.01625
-29.2066 -3.44739 7.03194
-29.1943 -3.40455 7.04766
-29.1379 -3.3565 7.01691
-29.1718 -3.3129 7.07486
-29.1599 -3.26851 7.08817
-29.1482 -3.22387 7.10127
-29.1358 -3.17943 7.11343
-29.123 -3.13537 7.1255
-29.1103 -3.09149 7.13751
-29.0977 -3.04746 7.14935
-29.0852 -3.00339 7.16115
-29.0721 -2.95936 7.1729
-29.0587 -2.91531 7.18405
-29.0437 -2.87142 7.19339
-29.0289 -2.82734 7.20243
-29.0141 -2.78315 7.21142
-28.9996 -2.73886 7.22006
-28.9854 -2.69458 7.22846
-28.9713 -2.65043 7.23667
-28.9571 -2.60641 7.24505
-28.9431 -2.56259 7.25328
-28.9279 -2.51906 7.26005
-28.9127 -2.47564 7.2664
-28.8974 -2.43218 7.2728
-28.8823 -2.38873 7.27902
-28.8673 -2.34531 7.28513
-28.8526 -2.30189 7.29095
-28.8382 -2.25845 7.29656
-28.8238 -2.21499 7.30212
-28.8092 -2.17149 7.30786
-28.7944 -2.12805 7.31377
-28.7799 -2.0848 7.31943
-28.7647 -2.04146 7.32575
-28.7491 -1.99909 7.3325
-28.7834 -1.94399 7.39588
-28.7117 -1.90504 7.35294
-28.6965 -1.8615 7.36427
-28.6809 -1.81789 7.37603
-28.6653 -1.77458 7.38776
-28.6513 -1.73106 7.40027
-28.6382 -1.68755 7.4131
-28.6249 -1.64409 7.42622
-28.6131 -1.6005 7.43954
-28.6038 -1.55665 7.45391
-28.5953 -1.51267 7.46718
-28.5862 -1.46879 7.47921
-28.577 -1.42495 7.49025
-28.5675 -1.38086 7.50184
-28.5585 -1.33727 7.51266
-28.5513 -1.29294 7.52466
-28.5556 -1.2513 7.53983
-28.5584 -1.21008 7.55376
-28.5599 -1.16923 7.5667
-28.5602 -1.12807 7.57933
-28.5606 -1.08632 7.59169
-28.561 -1.04429 7.60405
-28.5615 -1.00097 7.61637
-28.562 -0.956708 7.62871
-28.5626 -0.911635 7.64118
-28.5631 -0.867581 7.65369
-28.5637 -0.822233 7.66649
-28.5643 -0.775373 7.67949
-28.5625 -0.726239 7.6922
-28.5582 -0.677064 7.70425
-28.5537 -0.625634 7.71653
-28.5501 -0.572515 7.72925
-28.5508 -0.518401 7.74306
-28.5496 -0.465894 7.75647
-28.5486 -0.412547 7.77009
-28.5469 -0.357776 7.78371
-28.5452 -0.301048 7.79745
-28.5435 -0.24409 7.81119
-28.5419 -0.185394 7.8249
-28.5402 -0.125639 7.83855
-28.5388 -0.0652041 7.85208
-28.5373 -0.00574618 7.86559
-28.5342 0.0538866 7.8785
-28.5311 0.114107 7.8913
-28.5282 0.174943 7.90389
-28.5252 0.235784 7.9164
-28.5222 0.297113 7.92883
-28.5193 0.358624 7.94121
-28.5163 0.420614 7.95381
-28.5132 0.483023 7.96682
-28.5101 0.545179 7.97993
-28.5071 0.606899 7.99293
-28.5034 0.667415 8.00525
-28.4947 0.727298 8.01578
-28.486 0.786007 8.02599
-28.4774 0.843848 8.03603
-28.4688 0.90147 8.04624
-28.4598 0.960587 8.05704
-28.4508 1.01893 8.06771
-28.4393 1.07554 8.07683
-28.4262 1.1299 8.08489
-28.413 1.1841 8.09308
-28.4002 1.23627 8.10125
-28.3878 1.28698 8.1093
-28.2958 1.32231 8.08472
-28.3626 1.38793 8.126
-28.3501 1.4381 8.13447
-28.3383 1.48718 8.14283
-28.3287 1.53367 8.15147
-28.3191 1.58079 8.15984
-28.3092 1.62555 8.16722
-28.298 1.66833 8.17371
-28.2874 1.70948 8.17987
-28.2765 1.75168 8.18614
-28.266 1.79244 8.19204
-28.2554 1.83169 8.19743
-28.2455 1.86898 8.20239
-28.2356 1.90605 8.20732
-28.2261 1.94193 8.21199
-28.2168 1.97713 8.21649
-28.2074 2.01252 8.22103
-28.1976 2.04916 8.22593
-28.1876 2.08638 8.23084
-28.1774 2.12329 8.23544
-28.1673 2.15984 8.23975
-28.1574 2.19615 8.24398
-28.1478 2.23177 8.24783
-28.138 2.26701 8.25128
-28.127 2.30131 8.25378
-28.1159 2.33553 8.25638
-28.1055 2.36963 8.25914
-28.0956 2.40352 8.26189
-28.0856 2.4379 8.26452
-28.0739 2.47267 8.26634
-28.0616 2.50814 8.26808
-28.0491 2.54167 8.27074
-27.9765 2.5601 8.2389
-28.0274 2.61084 8.27785
-28.0166 2.64722 8.28067
-28.0057 2.68399 8.28346
-27.9946 2.72166 8.28606
-27.9835 2.75929 8.28871
-27.9724 2.79762 8.29115
-27.9613 2.83643 8.2934
-27.9501 2.87558 8.29549
-27.939 2.91438 8.29773
-27.9271 2.95303 8.2993
-27.9122 2.99083 8.2987
-27.8973 3.02927 8.29801
-27.8832 3.06842 8.29809
-27.8692 3.10786 8.29801
-27.8546 3.1471 8.29734
-27.8391 3.18545 8.29574
-27.8239 3.22317 8.29419
-27.8089 3.26043 8.29256
-27.794 3.29776 8.29087
-27.779 3.3353 8.2891
-27.7639 3.37306 8.28731
-27.7486 3.41136 8.28551
-27.7332 3.45 8.28371
-27.7176 3.48894 8.28195
-27.7021 3.52746 8.28024
-27.6864 3.56645 8.27862
-27.6705 3.60594 8.27698
-27.6548 3.64669 8.27607
-27.6398 3.68831 8.27602
-27.6227 3.72956 8.27463
-27.6066 3.77083 8.27309
-27.559 3.79989 8.24838
-27.5747 3.85378 8.2725
-27.5576 3.89497 8.27231
-27.5411 3.93604 8.27123
-27.5244 3.97753 8.27023
-27.5076 4.01918 8.26928
-27.4904 4.0614 8.26846
-27.473 4.10397 8.26771
-27.4554 4.14684 8.26704
-27.438 4.18945 8.26639
-27.4211 4.23257 8.26631
-27.4041 4.27601 8.26631
-27.3858 4.31952 8.26565
-27.3671 4.36296 8.26476
-27.3483 4.40673 8.26396
-27.3293 4.4507 8.2632
-27.309 4.49413 8.26132
-27.2886 4.53716 8.25918
-27.2683 4.58015 8.257
-27.2479 4.62325 8.25484
-27.2273 4.66633 8.25258
-27.2072 4.70952 8.25063
-27.1878 4.75333 8.24951
-27.1684 4.7972 8.24842
-27.1488 4.8415 8.24741
-27.1282 4.88593 8.2458
-27.1069 4.93017 8.24383
-27.0858 4.97402 8.24196
-27.0635 5.01677 8.23897
-27.0392 5.05844 8.23428
-27.0151 5.0998 8.22959
-26.9912 5.14081 8.22492
-26.9421 5.1639 8.19725
-26.944 5.2221 8.21547
-26.9208 5.26229 8.2107
-26.8978 5.30209 8.20593
-26.8755 5.34153 8.20145
-26.8528 5.38084 8.19676
-26.829 5.41881 8.19091
-26.8054 5.4566 8.18507
-26.7819 5.49414 8.17922
-26.7595 5.53256 8.17437
-26.7374 5.57097 8.1696
-26.7153 5.60928 8.16484
-26.6933 5.64746 8.16009
-26.6713 5.68557 8.15535
-26.6493 5.72371 8.15064
-26.6272 5.76194 8.14593
-26.6049 5.80042 8.14124
-26.5826 5.839 8.13655
-26.5598 5.87772 8.13162
-26.5368 5.91655 8.12663
-26.5137 5.95545 8.12151
-26.4925 5.99565 8.1181
-26.4733 6.03718 8.1164
-26.4539 6.07889 8.11468
-26.4346 6.12054 8.11301
-26.4154 6.16179 8.11147
-26.3961 6.20304 8.10992
-26.377 6.2445 8.10816
-26.3573 6.28623 8.10626
-26.3371 6.32806 8.10448
-26.3175 6.37074 8.10348
-26.298 6.41362 8.10238
-26.3126 6.47273 8.12562
-26.2592 6.49914 8.09979
-26.2401 6.5417 8.0982
-26.2211 6.58442 8.09648
-26.2021 6.62732 8.09456
-26.1841 6.6707 8.09338
-26.1664 6.71449 8.09231
-26.1486 6.75851 8.09121
-26.1307 6.80263 8.09004
-26.1127 6.84642 8.08872
-26.0948 6.89023 8.08736
-26.0768 6.93415 8.08598
-26.0587 6.97822 8.08456
-26.042 7.02286 8.08396
-26.0256 7.06781 8.08366
-26.0091 7.11282 8.08339
-25.9926 7.15784 8.08323
-25.9761 7.20279 8.08314
-25.9595 7.24766 8.08315
-25.9429 7.29252 8.08319
-25.9255 7.33698 8.08257
-25.9063 7.38057 8.08034
-25.8869 7.42417 8.07815
-25.8679 7.46791 8.07625
-25.85 7.51215 8.07522
-25.8323 7.55656 8.07443
-25.8146 7.60095 8.07355
-25.7969 7.64525 8.07263
-25.7791 7.68949 8.07178
-25.7606 7.73345 8.07038
-25.7419 7.77723 8.06893
-25.7223 7.82076 8.06692
-25.6988 7.86177 8.06062
-25.6878 7.90756 8.06508
-25.6743 7.95321 8.06787
-25.6586 7.99813 8.0689
-25.6418 8.04267 8.06923
-25.6251 8.08689 8.06956
-25.6085 8.13082 8.06999
-25.5913 8.17448 8.07003
-25.5737 8.21789 8.06979
-25.5567 8.26157 8.06985
-25.54 8.30529 8.07023
-25.5233 8.3489 8.07068
-25.5065 8.39236 8.07123
-25.4895 8.43573 8.07159
-25.4719 8.47878 8.07162
-25.4543 8.52177 8.07172
-25.4367 8.56474 8.07188
-25.419 8.60777 8.072
-25.4013 8.65083 8.07216
-25.383 8.69362 8.07185
-25.3639 8.73614 8.07099
-25.3448 8.77868 8.0701
-25.3256 8.82122 8.06924
-25.3065 8.86378 8.06839
-25.2873 8.90621 8.06765
-25.2681 8.94841 8.06707
-25.248 8.99017 8.0656
-25.229 9.03263 8.06466
-25.2099 9.0751 8.06372
-25.1905 9.11698 8.06344
-25.1714 9.15954 8.06249
-25.1526 9.20201 8.0612
-25.0601 9.21299 7.99424
-25.1139 9.29825 8.05299
-25.0986 9.34871 8.04295
-25.0778 9.39068 8.03588
-25.0568 9.4322 8.02714
-25.0339 9.47291 8.02279
-25.0102 9.51312 8.02042
-24.9869 9.55339 8.0173
-24.9637 9.59364 8.01407
-24.9405 9.63394 8.01049
-24.9164 9.67377 8.00617
-24.8919 9.71326 8.0015
-24.8674 9.7528 7.99686
-24.8427 9.79236 7.99239
-24.818 9.83193 7.98797
-24.7933 9.87151 7.98349
-24.7687 9.91107 7.97892
-24.7446 9.95087 7.97459
-24.7211 9.99104 7.97049
-24.6977 10.0312 7.96629
-24.6745 10.0714 7.96194
-24.6512 10.1116 7.95759
-24.6277 10.1516 7.95297
-24.6036 10.1912 7.94789
-24.5796 10.2308 7.94281
-24.5555 10.2704 7.93781
-24.5314 10.31 7.93292
-24.5076 10.3499 7.9282
-24.4838 10.3898 7.92346
-24.46 10.4297 7.91865
-24.4361 10.4697 7.91384
-24.4101 10.5101 7.90966
-24.3445 10.5202 7.87439
-24.3596 10.5883 7.89909
-24.3366 10.6274 7.89354
-24.3128 10.6681 7.88913
-24.2889 10.7088 7.88462
-24.2647 10.7491 7.87968
-24.2416 10.7902 7.87549
-24.216 10.8297 7.86951
-24.1904 10.8691 7.86343
-24.1652 10.9084 7.85723
-24.1401 10.9475 7.85089
-24.1151 10.9865 7.8445
-24.0902 11.0256 7.83807
-24.0651 11.0647 7.8317
-24.0402 11.104 7.82543
-24.0153 11.1432 7.81915
-23.9903 11.1825 7.81284
-23.9656 11.2218 7.80663
-23.9412 11.2615 7.8007
-23.9163 11.3007 7.7944
-23.8913 11.3399 7.78818
-23.8663 11.3792 7.78197
-23.8412 11.4184 7.77585
-23.8162 11.4576 7.76979
-23.7911 11.4967 7.76375
-23.7661 11.5359 7.7576
-23.741 11.5751 7.75151
-23.7159 11.6143 7.74553
-23.6907 11.6534 7.73968
-23.6626 11.6901 7.73157
-23.6339 11.7268 7.7235
-23.6051 11.7636 7.71557
-23.5733 11.7974 7.70532
-23.5475 11.837 7.6999
-23.5187 11.8736 7.69215
-23.4898 11.9102 7.68452
-23.4608 11.9467 7.67706
-23.4318 11.9832 7.6696
-23.4028 12.0197 7.66224
-23.3739 12.0561 7.65494
-23.346 12.0934 7.64847
-23.3182 12.1307 7.64194
-23.2905 12.168 7.63544
-23.2633 12.2055 7.62918
-23.2361 12.2429 7.62292
-23.2089 12.2802 7.61665
-23.1818 12.3176 7.61039
-23.1547 12.3549 7.60414
-23.1288 12.3936 7.59899
-23.1043 12.4335 7.59476
-23.0769 12.4716 7.58897
-23.0496 12.5094 7.583
-23.0224 12.5471 7.57695
-22.9978 12.5864 7.57239
-22.9742 12.6263 7.56829
-22.9507 12.6662 7.56413
-22.9271 12.7062 7.55983
-22.9034 12.7466 7.55541
-22.8797 12.787 7.55093
-22.8562 12.8271 7.54646
-22.8325 12.8674 7.54222
-22.8101 12.909 7.53921
-22.788 12.9508 7.53621
-22.7665 12.9933 7.53392
-22.8068 13.0691 7.56258
-22.7228 13.079 7.52976
-22.7009 13.1219 7.52765
-22.6809 13.165 7.526
-22.6617 13.2086 7.52472
-22.6432 13.2511 7.52309
-22.6259 13.2933 7.52139
-22.6086 13.3357 7.51965
-22.5914 13.3779 7.51763
-22.5741 13.42 7.51568
-22.5569 13.4619 7.51353
-22.5398 13.5039 7.51128
-22.523 13.5458 7.50877
-22.5063 13.5876 7.50614
-22.4895 13.6294 7.50341
-22.4728 13.6714 7.50063
-22.4557 13.7138 7.49814
-22.4384 13.7565 7.49609
-22.4208 13.7995 7.49423
-22.4033 13.8425 7.4922
-22.3854 13.8852 7.48967
-22.3663 13.9274 7.48642
-22.3465 13.9688 7.48229
-22.3254 14.0093 7.47688
-22.3021 14.0476 7.46949
-22.2787 14.0855 7.4624
-22.2557 14.1232 7.45507
-22.2329 14.161 7.44739
-22.2135 14.2007 7.44128
-22.195 14.2404 7.43569
-22.1768 14.28 7.42973
-22.1588 14.3197 7.4235
-22.1103 14.3427 7.39758
-22.1224 14.3996 7.41097
-22.104 14.44 7.40473
-22.0856 14.4804 7.39832
-22.0674 14.521 7.39154
-22.0489 14.5612 7.38418
-22.0304 14.6013 7.37658
-22.0126 14.6417 7.36952
-21.9934 14.6811 7.36177
-21.9734 14.7201 7.354
-21.9536 14.759 7.34623
-21.9338 14.7978 7.33829
-21.9139 14.8364 7.32985
-21.894 14.8752 7.32127
-21.8743 14.914 7.31221
-21.8548 14.9527 7.30287
-21.8356 14.9912 7.29324
-21.8164 15.0295 7.2838
-21.7974 15.0676 7.27416
-21.7757 15.1041 7.26287
-21.7528 15.1402 7.25068
-21.7298 15.1763 7.23885
-21.7066 15.2129 7.22665
-21.6832 15.2498 7.21408
-21.6598 15.2868 7.20108
-21.6369 15.3233 7.18802
-21.6137 15.3601 7.17488
-21.5903 15.3972 7.16171
-21.5658 15.4357 7.14889
-21.5384 15.4734 7.13572
-21.5086 15.5119 7.12311
-21.4782 15.551 7.11095
-21.3948 15.5447 7.0844
-21.4174 15.6288 7.08783
-21.3874 15.667 7.07676
-21.357 15.7055 7.06611
-21.3262 15.7444 7.05584
-21.2953 15.7835 7.04534
-21.2641 15.823 7.03503
-21.2322 15.8621 7.02496
-21.2005 15.9011 7.01484
-21.1696 15.9403 7.00446
-21.1356 15.9761 6.99237
-21.1018 16.0118 6.98017
-21.0682 16.0475 6.96775
-21.0344 16.0828 6.95534
-21.0005 16.1181 6.94272
-20.9667 16.1535 6.92991
-20.9324 16.1892 6.91689
-20.8975 16.2257 6.90388
-20.8627 16.2624 6.89086
-20.8315 16.3015 6.87878
-20.8007 16.3394 6.86627
-20.7692 16.3763 6.85348
-20.7387 16.4116 6.84033
-20.7091 16.4459 6.82704
-20.6802 16.4797 6.81359
-20.6503 16.5146 6.80012
-20.6213 16.5485 6.78664
-20.5936 16.5811 6.7732
-20.568 16.6118 6.75988
-20.5431 16.6428 6.74678
-20.5206 16.6725 6.7343
-20.4994 16.7007 6.72201
-20.4746 16.7237 6.70761
-20.457 16.7566 6.69854
-20.4357 16.7844 6.68724
-20.4156 16.811 6.67604
-20.397 16.8359 6.66488
-20.3787 16.8607 6.65369
-20.3625 16.8844 6.64246
-20.3473 16.9074 6.63106
-20.3328 16.9299 6.61931
-20.3174 16.9533 6.60765
-20.3024 16.9766 6.5955
-20.2879 16.9995 6.58301
-20.2742 17.022 6.56987
-20.2604 17.0447 6.55653
-20.2462 17.0659 6.54227
-20.2312 17.086 6.52733
-20.2167 17.1056 6.51279
-20.2024 17.1246 6.49921
-20.1879 17.1436 6.4858
-20.173 17.1632 6.47192
-20.1577 17.1844 6.45738
-20.1425 17.2061 6.44272
-20.1262 17.2295 6.42675
-20.109 17.2542 6.40988
-20.0903 17.2788 6.39179
-20.0726 17.3018 6.37465
-20.0538 17.3262 6.35649
-20.0334 17.3521 6.33702
-20.0106 17.3806 6.31567
-19.9874 17.4094 6.29421
-19.9621 17.4409 6.27098
-19.9351 17.4742 6.24662
-19.8923 17.4919 6.21513
-19.8808 17.54 6.19568
-19.8534 17.5724 6.17096
-19.8244 17.6065 6.14529
-19.793 17.6432 6.11839
-19.7614 17.6801 6.09126
-19.7274 17.7195 6.06304
-19.6912 17.7599 6.03401
-19.6529 17.8006 6.00436
-19.6159 17.8401 5.97527
-19.5781 17.8802 5.94623
-19.5392 17.9214 5.91695
-19.5 17.9647 5.88782
-19.4643 18.0117 5.85974
-19.4277 18.0598 5.8316
-19.3893 18.1071 5.80319
-19.3505 18.1546 5.77435
-19.3122 18.2018 5.74484
-19.2742 18.2485 5.71556
-19.2363 18.295 5.68692
-19.1987 18.341 5.65946
-19.162 18.3878 5.63237
-19.1271 18.4351 5.60722
-19.0926 18.4817 5.58332
-19.0592 18.5288 5.56064
-19.0266 18.5779 5.53705
-18.9944 18.6262 5.51471
-18.9619 18.6725 5.4936
-18.9298 18.7164 5.4747
-18.8983 18.7603 5.45635
-18.8685 18.8025 5.43999
-18.8396 18.8433 5.42486
-18.8141 18.8856 5.41018
-18.7819 18.9254 5.39254
-18.7538 18.9668 5.37551
-18.7266 19.0066 5.35979
-18.6999 19.043 5.346
-18.6729 19.0791 5.3326
-18.6477 19.1126 5.3218
-18.6235 19.1444 5.3127
-18.6013 19.1757 5.30521
-18.5792 19.2089 5.29636
-18.5576 19.2412 5.28884
-18.5367 19.2722 5.28288
-18.5168 19.3014 5.27913
-18.4972 19.3303 5.27564
-18.4782 19.358 5.27379
-18.4589 19.3849 5.27285
-18.4389 19.4118 5.27212
-18.4182 19.4397 5.27012
-18.397 19.4683 5.26783
-18.3759 19.4969 5.26605
-18.3548 19.5252 5.26477
-18.334 19.5533 5.26353
-18.3135 19.5808 5.26305
-18.2931 19.6081 5.26293
-18.273 19.6351 5.26377
-18.2529 19.662 5.26516
-18.2329 19.6887 5.26678
-18.2129 19.7152 5.26793
-18.1928 19.7412 5.26862
-18.1726 19.7673 5.26966
-18.1524 19.7937 5.26946
-18.1325 19.8199 5.26835
-18.0562 19.8044 5.25855
-18.0889 19.8765 5.25777
-18.0675 19.9019 5.25403
-18.0458 19.9277 5.24909
-18.0239 19.9538 5.24279
-18.002 19.9803 5.23637
-17.9798 20.0075 5.22908
-17.9573 20.0352 5.22146
-17.9345 20.0633 5.21354
-17.9119 20.091 5.20589
-17.8888 20.1193 5.19834
-17.8654 20.1479 5.19077
-17.8414 20.1774 5.18328
-17.8172 20.207 5.17576
-17.7926 20.237 5.1685
-17.7678 20.2674 5.16153
-17.7433 20.2973 5.15476
-17.7196 20.3263 5.14766
-17.6942 20.3536 5.14086
-17.6684 20.3811 5.13462
-17.6418 20.4094 5.12916
-17.6151 20.4378 5.12371
-17.5872 20.4673 5.11912
-17.5577 20.4969 5.11512
-17.5274 20.5272 5.11164
-17.4978 20.5568 5.10763
-17.4674 20.5872 5.10408
-17.436 20.6187 5.10106
-17.4032 20.6514 5.09892
-17.3703 20.6843 5.09707
-17.3362 20.7183 5.09576
-17.3016 20.753 5.09487
-17.2065 20.7284 5.0916
-17.2282 20.8226 5.08842
-17.1933 20.8553 5.0863
-17.1577 20.8885 5.08455
-17.1213 20.9226 5.08361
-17.0847 20.9569 5.08276
-17.047 20.9921 5.08296
-17.0086 21.028 5.08388
-16.9697 21.0644 5.0855
-16.9313 21.1004 5.08661
-16.8924 21.1367 5.08836
-16.853 21.1735 5.09078
-16.813 21.2109 5.09414
-16.7728 21.2485 5.09762
-16.7299 21.2838 5.10187
-16.6851 21.3171 5.1066
-16.6403 21.3505 5.11129
-16.5956 21.3837 5.11527
-16.5512 21.4167 5.11911
-16.5069 21.4496 5.12326
-16.4628 21.4824 5.12786
-16.4186 21.5153 5.13258
-16.3747 21.5479 5.13794
-16.3314 21.5809 5.14369
-16.2874 21.6127 5.14991
-16.2428 21.6449 5.15593
-16.1986 21.6768 5.1623
-16.1548 21.7084 5.16894
-16.1119 21.7393 5.17594
-16.0691 21.7702 5.18297
-16.0272 21.8004 5.1901
-15.9875 21.8315 5.19719
-15.9417 21.8547 5.20419
-15.9059 21.8932 5.21135
-15.8643 21.9221 5.21766
-15.8235 21.9505 5.22383
-15.7838 21.978 5.22983
-15.7442 22.0055 5.23593
-15.7059 22.0321 5.24198
-15.6683 22.0581 5.24796
-15.6312 22.0835 5.25391
-15.5932 22.109 5.25987
-15.5557 22.1341 5.26587
-15.5186 22.1587 5.27189
-15.4824 22.1827 5.27792
-15.4463 22.2067 5.28387
-15.4108 22.2302 5.2899
-15.3755 22.2536 5.29601
-15.3387 22.2749 5.30222
-15.3011 22.296 5.30855
-15.2631 22.3173 5.31505
-15.2251 22.3386 5.32155
-15.1873 22.3598 5.32795
-15.1495 22.381 5.33428
-15.1121 22.4021 5.34032
-15.0749 22.4232 5.34616
-15.038 22.4443 5.35183
-15.0011 22.4654 5.35777
-14.9648 22.4869 5.36341
-14.9298 22.5104 5.3688
-14.8949 22.5339 5.37362
-14.8595 22.5566 5.37832
-14.8239 22.5794 5.38246
-14.7882 22.6022 5.38622
-14.7485 22.6194 5.38961
-14.7162 22.6482 5.39389
-14.6799 22.6713 5.39778
-14.6435 22.6946 5.40127
-14.6063 22.7173 5.40409
-14.5683 22.7383 5.4067
-14.5293 22.7581 5.40865
-14.4896 22.7772 5.41019
-14.4491 22.7949 5.41151
-14.4094 22.8135 5.41326
-14.3697 22.8321 5.41489
-14.3299 22.8508 5.41623
-14.29 22.8696 5.41718
-14.2499 22.8884 5.41813
-14.2097 22.9073 5.41868
-14.1695 22.9262 5.419
-14.1295 22.945 5.41902
-14.0897 22.9637 5.41906
-14.0498 22.9816 5.41898
-14.0095 22.9987 5.41882
-13.969 23.0159 5.41877
-13.9284 23.0331 5.41878
-13.8875 23.0504 5.41907
-13.8464 23.0678 5.4196
-13.8052 23.0852 5.42022
-13.7648 23.1039 5.42049
-13.7255 23.1254 5.42146
-13.6858 23.1469 5.42302
-13.6457 23.1687 5.42528
-13.6047 23.1893 5.42717
-13.5625 23.2084 5.42984
-13.52 23.2277 5.43331
-13.4746 23.2409 5.43751
-13.4353 23.266 5.44171
-13.3934 23.2859 5.44667
-13.3522 23.3085 5.45247
-13.3086 23.3265 5.45913
-13.2652 23.3446 5.46568
-13.2222 23.3641 5.47277
-13.179 23.3837 5.48018
-13.1356 23.4033 5.48774
-13.0923 23.4229 5.49509
-13.049 23.4425 5.50216
-13.0055 23.4622 5.5091
-12.9621 23.482 5.51573
-12.9194 23.5033 5.52238
-12.8766 23.5246 5.52865
-12.8339 23.5459 5.53457
-12.7914 23.5675 5.54028
-12.75 23.5915 5.54648
-12.7106 23.6188 5.55204
-12.6704 23.6448 5.55718
-12.63 23.6702 5.56157
-12.5896 23.6956 5.56591
-12.5493 23.7206 5.56915
-12.5092 23.7454 5.57158
-12.4691 23.7701 5.57329
-12.4288 23.7949 5.57569
-12.3888 23.8195 5.57729
-12.349 23.844 5.578
-12.3096 23.8681 5.5773
-12.2701 23.8922 5.57626
-12.23 23.9144 5.57456
-12.19 23.9362 5.57225
-12.1457 23.9499 5.57192
-12.1102 23.9801 5.56935
-12.0704 24.0021 5.56871
-12.0309 24.0239 5.5674
-11.9917 24.0453 5.56496
-11.9525 24.0666 5.56221
-11.914 24.0879 5.55782
-11.8752 24.1081 5.55256
-11.836 24.1269 5.54663
-11.7962 24.145 5.54181
-11.757 24.1641 5.53576
-11.718 24.183 5.52866
-11.6792 24.2015 5.52008
-11.6404 24.2199 5.51131
-11.6016 24.2379 5.50148
-11.5626 24.2551 5.49115
-11.5236 24.2723 5.48075
-11.4845 24.2897 5.47137
-11.4453 24.307 5.46221
-11.406 24.3242 5.45262
-11.3666 24.3413 5.44243
-11.3271 24.3584 5.43211
-11.2875 24.3751 5.42105
-11.2475 24.3914 5.4096
-11.2075 24.4076 5.39757
-11.1676 24.4236 5.38566
-11.1275 24.4395 5.37344
-11.0873 24.4555 5.36105
-11.0468 24.4716 5.34846
-11.0063 24.4877 5.33578
-10.9656 24.5039 5.32336
-10.9247 24.5203 5.31123
-10.8807 24.5306 5.3011
-10.8427 24.5534 5.28842
-10.8017 24.5702 5.27787
-10.76 24.5859 5.26797
-10.7178 24.6013 5.25869
-10.6755 24.6167 5.24924
-10.6322 24.6304 5.24035
-10.5882 24.643 5.23184
-10.5437 24.6545 5.22367
-10.4999 24.6668 5.21522
-10.456 24.679 5.20659
-10.4118 24.6913 5.19783
-10.3672 24.7037 5.18888
-10.3226 24.7162 5.18004
-10.2776 24.7287 5.1709
-10.2318 24.7399 5.16183
-10.1853 24.7498 5.15257
-10.1401 24.7631 5.14265
-10.0947 24.7766 5.13225
-10.0491 24.79 5.12162
-10.0034 24.8034 5.11074
-9.95774 24.8166 5.09991
-9.91283 24.8319 5.08882
-9.86801 24.8472 5.07769
-9.82311 24.8624 5.06646
-9.77786 24.8779 5.05509
-9.73288 24.8932 5.04392
-9.68845 24.9083 5.03301
-9.64456 24.9233 5.02255
-9.59979 24.9368 5.01218
-9.55545 24.9488 5.00255
-9.51195 24.9606 4.99358
-9.46222 24.9467 4.98602
-9.42347 24.9802 4.97396
-9.38187 24.9863 4.9666
-9.34053 24.994 4.95979
-9.30008 25.0016 4.95348
-9.25948 25.0092 4.94703
-9.21903 25.0168 4.94055
-9.17866 25.0243 4.93407
-9.13796 25.0318 4.92733
-9.09699 25.0393 4.92052
-9.05532 25.0468 4.91316
-9.01334 25.0544 4.90549
-8.97089 25.0629 4.89708
-8.92827 25.0714 4.88851
-8.88536 25.0799 4.87958
-8.84219 25.0885 4.87037
-8.79966 25.0969 4.86153
-8.7583 25.1048 4.85378
-8.71653 25.1098 4.84651
-8.67398 25.1148 4.83868
-8.62995 25.1199 4.82983
-8.58556 25.125 4.82072
-8.53902 25.1302 4.8101
-8.49093 25.1355 4.79842
-8.44162 25.1408 4.78584
-8.39392 25.146 4.77427
-8.34462 25.1513 4.76161
-8.29325 25.1567 4.74773
-8.23942 25.1638 4.7316
-8.18563 25.1694 4.71535
-8.1291 25.175 4.69721
-8.07063 25.1807 4.67793
-8.01827 25.2513 4.65081
-7.94783 25.1955 4.63935
-7.88634 25.2044 4.62137
-7.82547 25.2149 4.60136
-7.76249 25.2256 4.5799
-7.69934 25.2363 4.55824
-7.63521 25.2519 4.53445
-7.57004 25.2693 4.5095
-7.50419 25.287 4.48371
-7.43981 25.3044 4.45861
-7.37543 25.3218 4.43315
-7.31075 25.3411 4.40682
-7.24777 25.3669 4.37904
-7.18456 25.3927 4.35126
-7.1207 25.4188 4.32312
-7.05591 25.4432 4.29508
-6.99067 25.467 4.26704
-6.92415 25.4878 4.23914
-6.85779 25.5072 4.21191
-6.79199 25.5264 4.18523
-6.72712 25.5445 4.15951
-6.66174 25.5601 4.13394
-6.5973 25.5737 4.10965
-6.53396 25.5869 4.08625
-6.47113 25.6001 4.06376
-6.40669 25.6141 4.04069
-6.34356 25.6284 4.01856
-6.28228 25.6424 3.99727
-6.22472 25.6592 3.97684
-6.1684 25.6778 3.95615
-6.11421 25.696 3.93691
-6.06146 25.7137 3.91845
-6.02333 25.7641 3.8916
-5.95557 25.7497 3.88295
-5.89995 25.7647 3.86391
-5.8465 25.7805 3.84513
-5.79576 25.7959 3.82775
-5.747 25.8138 3.81004
-5.70164 25.8315 3.79445
-5.65815 25.8488 3.78029
-5.61656 25.8655 3.7674
-5.57323 25.882 3.75346
-5.53156 25.8979 3.74075
-5.49169 25.9134 3.72944
-5.45442 25.9284 3.72015
-5.41754 25.9433 3.71118
-5.38235 25.958 3.70372
-5.34813 25.9725 3.69716
-5.31372 25.9872 3.69067
-5.2775 26.0023 3.68277
-5.24061 26.0176 3.67463
-5.20393 26.0322 3.66737
-5.16794 26.0467 3.66099
-5.13222 26.0609 3.65483
-5.09776 26.075 3.64982
-5.064 26.089 3.64549
-5.0312 26.1029 3.64208
-4.99821 26.1168 3.63857
-4.96585 26.1307 3.63557
-4.93389 26.1444 3.6328
-4.90242 26.1581 3.63033
-4.871 26.1718 3.62806
-4.83945 26.1854 3.62533
-4.80795 26.1988 3.62204
-4.76888 26.1983 3.62296
-4.74412 26.2271 3.61222
-4.71097 26.2413 3.60594
-4.6773 26.2555 3.59913
-4.64257 26.2692 3.59192
-4.6081 26.2828 3.58496
-4.5732 26.2967 3.57802
-4.5379 26.3108 3.57104
-4.50237 26.325 3.56428
-4.46715 26.3391 3.55756
-4.43187 26.3535 3.55143
-4.39647 26.3681 3.54569
-4.36078 26.383 3.54064
-4.3243 26.3967 3.53607
-4.28742 26.41 3.53237
-4.2506 26.4234 3.52913
-4.21427 26.4367 3.52605
-4.17847 26.4496 3.52236
-4.14307 26.4623 3.51896
-4.1076 26.4754 3.51609
-4.07189 26.4889 3.51404
-4.03604 26.5026 3.51203
-3.99955 26.5169 3.51094
-3.96261 26.5317 3.51046
-3.92522 26.5469 3.51052
-3.88823 26.5618 3.5101
-3.85059 26.5771 3.5101
-3.81231 26.5928 3.51061
-3.77302 26.6093 3.51184
-3.73364 26.626 3.51323
-3.69343 26.6432 3.51506
-3.65264 26.6607 3.51713
-3.61214 26.6793 3.51856
-3.57163 26.6952 3.52032
-3.5314 26.712 3.52136
-3.49052 26.729 3.52263
-3.44837 26.7454 3.52465
-3.40604 26.7619 3.52682
-3.36216 26.7775 3.53011
-3.31762 26.7936 3.53368
-3.27208 26.8087 3.53819
-3.2271 26.8235 3.5425
-3.18158 26.8383 3.54722
-3.13548 26.8534 3.55227
-3.08857 26.869 3.55776
-3.04152 26.8846 3.56327
-2.9938 26.9001 3.56929
-2.94574 26.9155 3.57559
-2.8977 26.9309 3.58197
-2.85029 26.9468 3.58785
-2.8033 26.9632 3.59335
-2.75625 26.9797 3.5989
-2.70908 26.9962 3.6045
-2.66175 27.0128 3.61014
-2.61376 27.0277 3.61666
-2.56544 27.0411 3.62377
-2.51701 27.0547 3.63088
-2.46859 27.0682 3.63804
-2.41982 27.0799 3.6459
-2.37094 27.0909 3.65396
-2.32213 27.1018 3.66185
-2.27339 27.1127 3.6697
-2.22479 27.1234 3.67734
-2.17623 27.1367 3.68367
-2.13003 27.1587 3.68634
-2.08055 27.166 3.69528
-2.03224 27.1778 3.70246
-1.98423 27.1895 3.70936
-1.93669 27.2009 3.71585
-1.88928 27.2131 3.72197
-1.84277 27.2265 3.72701
-1.79679 27.2403 3.73148
-1.75126 27.254 3.73557
-1.70549 27.2679 3.73995
-1.66012 27.2816 3.74403
-1.61479 27.2937 3.74828
-1.56999 27.3054 3.75206
-1.52526 27.317 3.75572
-1.48085 27.3282 3.7591
-1.43659 27.3393 3.7623
-1.39094 27.3445 3.76766
-1.34502 27.3492 3.77376
-1.29877 27.3545 3.77984
-1.25273 27.3611 3.78519
-1.20682 27.3676 3.79021
-1.16104 27.3741 3.79512
-1.11556 27.3792 3.79993
-1.07024 27.3827 3.80499
-1.02515 27.3859 3.80969
-0.979927 27.3892 3.81456
-0.934991 27.3923 3.81904
-0.890339 27.3947 3.82344
-0.845979 27.3965 3.82749
-0.801523 27.3981 3.83119
-0.75727 27.3984 3.83527
-0.71288 27.3978 3.83953
-0.669222 27.3745 3.85452
-0.622515 27.3977 3.85071
-0.576697 27.3981 3.85715
-0.53031 27.4 3.86182
-0.485428 27.3987 3.86746
-0.442593 27.3912 3.87513
-0.400272 27.3846 3.88214
-0.357954 27.378 3.88877
-0.315773 27.3713 3.89518
-0.273385 27.3647 3.90189
-0.231089 27.358 3.90838
-0.188939 27.3512 3.91457
-0.147043 27.3443 3.92032
-0.105262 27.3374 3.926
-0.0636351 27.3305 3.9313
-0.0220381 27.3234 3.93639
0.0199824 27.3179 3.94079
0.0626126 27.3152 3.94447
0.10563 27.3124 3.94815
0.148676 27.31 3.95147
0.191962 27.3077 3.95461
0.235682 27.3084 3.95661
0.279518 27.3105 3.95776
0.323233 27.3126 3.9587
0.366054 27.3226 3.95616
0.408374 27.33 3.9545
0.450265 27.3364 3.95301
0.491638 27.3456 3.95034
0.533083 27.3548 3.94766
0.574698 27.3639 3.94481
0.616681 27.3724 3.94259
0.658654 27.3809 3.94053
0.709191 27.3568 3.9554
0.749611 27.3951 3.93654
0.792703 27.3998 3.93702
0.835836 27.4026 3.93901
0.879175 27.405 3.94139
0.921896 27.4075 3.94402
0.964487 27.409 3.94757
1.00737 27.4099 3.95154
1.05028 27.4107 3.95549
1.09297 27.4115 3.95933
1.13564 27.4109 3.96374
1.17837 27.4102 3.96813
1.22141 27.4094 3.97239
1.26471 27.4086 3.97663
1.30824 27.4089 3.98005
1.3518 27.4117 3.98202
1.39522 27.4144 3.98392
1.4381 27.4189 3.98519
1.48092 27.4236 3.98619
1.5241 27.4269 3.98762
1.5677 27.4296 3.98892
1.61137 27.4324 3.99019
1.6556 27.4343 3.9914
1.7002 27.4355 3.99269
1.74503 27.4381 3.99298
1.78943 27.4411 3.99329
1.83415 27.4441 3.9934
1.87932 27.447 3.99329
1.92515 27.4498 3.99288
1.97104 27.4526 3.99236
2.01755 27.4553 3.99166
2.06467 27.4547 3.99266
2.11207 27.4536 3.99423
2.15889 27.4543 3.99518
2.20586 27.4547 3.99648
2.25321 27.4551 3.99773
2.30109 27.4551 3.9989
2.34902 27.4539 4.0006
2.39747 27.4523 4.00206
2.44622 27.4506 4.00331
2.49518 27.4488 4.00431
2.54395 27.4476 4.00519
2.59272 27.4471 4.00537
2.64154 27.4436 4.00672
2.69051 27.4391 4.00806
2.73946 27.4345 4.00935
2.78863 27.4297 4.01029
2.83791 27.4248 4.01099
2.88741 27.4198 4.01163
2.93701 27.415 4.01264
2.98659 27.41 4.01369
3.03604 27.4049 4.01455
3.08521 27.3995 4.01517
3.13432 27.3939 4.01582
3.18298 27.3882 4.01608
3.2313 27.3824 4.01607
3.27937 27.3764 4.01575
3.32784 27.3704 4.01554
3.37589 27.3644 4.01513
3.42336 27.3583 4.0145
3.47011 27.3523 4.0138
3.51652 27.3448 4.01424
3.56254 27.3371 4.01475
3.60803 27.3304 4.01499
3.64707 27.2814 4.03612
3.69967 27.3172 4.01603
3.74557 27.3106 4.01672
3.79024 27.3025 4.01812
3.83406 27.2936 4.01997
3.87703 27.2848 4.02159
3.91882 27.2761 4.02294
3.96 27.2665 4.02463
4.00059 27.2562 4.02648
4.04158 27.2459 4.02844
4.08231 27.235 4.03045
4.12255 27.2233 4.03259
4.1626 27.2117 4.03449
4.20275 27.2 4.0364
4.24273 27.1883 4.03811
4.28263 27.1765 4.03968
4.32224 27.1648 4.04117
4.36154 27.1532 4.04283
4.40088 27.1417 4.04444
4.44047 27.1299 4.04593
4.48055 27.118 4.04728
4.52068 27.1061 4.04863
4.56162 27.0938 4.04981
4.60323 27.0813 4.05088
4.64534 27.0685 4.05181
4.68618 27.0543 4.05353
4.72751 27.0386 4.05571
4.76972 27.0226 4.05796
4.81359 27.0058 4.06005
4.85801 26.9886 4.06168
4.9034 26.9705 4.06387
4.94943 26.9508 4.06663
4.97478 26.8849 4.09435
5.0415 26.9119 4.07309
5.08724 26.8929 4.07687
5.13336 26.8732 4.0811
5.1805 26.853 4.08567
5.22765 26.8327 4.09016
5.27569 26.812 4.09466
5.3231 26.7885 4.10056
5.37068 26.7643 4.10653
5.41764 26.7403 4.11213
5.46466 26.7162 4.11747
5.514 26.6955 4.12121
5.56385 26.6747 4.12493
5.6135 26.6541 4.12877
5.66326 26.6332 4.13284
5.71244 26.6105 4.13765
5.76158 26.5871 4.14279
5.81088 26.5635 4.14789
5.86012 26.5399 4.15296
5.90915 26.5164 4.15802
5.95772 26.4932 4.1631
6.00553 26.4687 4.16891
6.05191 26.4433 4.17541
6.0973 26.4174 4.18227
6.14234 26.3918 4.18908
6.188 26.3658 4.19592
6.23299 26.3401 4.20266
6.27721 26.3149 4.20932
6.31994 26.2902 4.21601
6.36232 26.2654 4.22282
6.40345 26.2414 4.22948
6.44372 26.2179 4.23602
6.49513 26.2117 4.2336
6.52476 26.1705 4.24922
6.56518 26.1464 4.25601
6.60473 26.1225 4.26258
6.64308 26.1004 4.26867
6.68229 26.0807 4.27365
6.71992 26.0619 4.27859
6.7567 26.0435 4.28347
6.79285 26.0254 4.28833
6.82946 26.0062 4.2936
6.86535 25.9867 4.29915
6.90059 25.9675 4.30467
6.93581 25.9503 4.30953
6.97124 25.9336 4.31412
7.00602 25.9174 4.31861
7.04044 25.9014 4.32309
7.07451 25.8856 4.32762
7.10874 25.8697 4.33221
7.14307 25.8538 4.33688
7.17746 25.8379 4.34157
7.21257 25.8227 4.34598
7.24788 25.8077 4.35032
7.28366 25.7925 4.35464
7.31984 25.7771 4.35893
7.35609 25.7616 4.36315
7.39157 25.7464 4.36734
7.42734 25.7306 4.37161
7.46356 25.7136 4.37611
7.50115 25.6959 4.38061
7.53989 25.68 4.38454
7.58114 25.665 4.38803
7.62363 25.6496 4.39156
7.66927 25.6394 4.39356
7.70936 25.6184 4.39879
7.75213 25.6016 4.40284
7.79701 25.5863 4.40647
7.84274 25.5685 4.41062
7.88854 25.5506 4.41461
7.9356 25.5322 4.41852
7.98269 25.5115 4.42294
8.02955 25.4892 4.42796
8.07577 25.4672 4.43314
8.12191 25.4453 4.4384
8.16869 25.4238 4.44328
8.21778 25.407 4.44632
8.26717 25.3902 4.44936
8.31771 25.3755 4.45131
8.36973 25.3659 4.45119
8.42218 25.3562 4.45103
8.47456 25.3466 4.4512
8.52654 25.3364 4.45138
8.57742 25.3226 4.45213
8.62883 25.3123 4.45158
8.68076 25.3051 4.45038
8.73242 25.2978 4.44867
8.78366 25.2906 4.4467
8.83476 25.2837 4.44439
8.88691 25.28 4.4416
8.9389 25.2806 4.438
8.99023 25.2812 4.43432
9.0406 25.2818 4.43054
9.09094 25.2824 4.42672
9.1398 25.2836 4.42305
9.18763 25.2849 4.41962
9.23382 25.3015 4.41464
9.28154 25.2856 4.41418
9.32821 25.2855 4.41197
9.3736 25.2855 4.41013
9.41724 25.2856 4.40876
9.46077 25.2857 4.40736
9.50281 25.2858 4.4062
9.54387 25.286 4.4052
9.58438 25.2861 4.40421
9.6259 25.2862 4.40304
9.66721 25.2854 4.40184
9.70796 25.2845 4.40058
9.74772 25.2841 4.39927
9.78697 25.2781 4.39915
9.82581 25.2714 4.39922
9.86448 25.2647 4.39921
9.90289 25.258 4.39906
9.94111 25.2514 4.39883
9.97948 25.2445 4.39845
10.018 25.2371 4.39807
10.0572 25.2295 4.39769
10.0965 25.222 4.39742
10.1369 25.2155 4.3971
10.1777 25.2079 4.3968
10.2187 25.2001 4.39649
10.2589 25.1925 4.39626
10.2997 25.1848 4.39591
10.3416 25.1769 4.39548
10.3847 25.1687 4.39477
10.4273 25.1606 4.39386
10.4719 25.1529 4.39269
10.5173 25.1456 4.39136
10.5547 25.0711 4.39879
10.6185 25.1214 4.38333
10.6633 25.1086 4.38339
10.7093 25.0955 4.38331
10.7566 25.082 4.38343
10.8049 25.0692 4.38327
10.8551 25.0586 4.38236
10.9059 25.0479 4.3813
10.9572 25.0371 4.38029
11.008 25.0265 4.37947
11.0592 25.0151 4.37885
11.1103 25.0014 4.37879
11.1625 24.9885 4.37816
11.2146 24.9756 4.37743
11.2673 24.9626 4.37648
11.3204 24.9494 4.37541
11.3741 24.936 4.37433
11.4279 24.9227 4.3735
11.4818 24.9094 4.37263
11.5355 24.8961 4.37158
11.5874 24.8783 4.37174
11.6375 24.8573 4.37299
11.6873 24.8363 4.37388
11.7368 24.8154 4.3745
11.7867 24.7942 4.3747
11.8376 24.7721 4.37504
11.8882 24.7499 4.37506
11.9376 24.7283 4.37495
11.9852 24.7064 4.37476
12.0315 24.6814 4.37544
12.0763 24.6572 4.376
12.1198 24.6336 4.37647
12.1238 24.5397 4.40357
12.2071 24.586 4.38091
12.2488 24.5628 4.3826
12.2892 24.5404 4.38422
12.3276 24.5191 4.3856
12.366 24.4977 4.387
12.4029 24.4771 4.38792
12.439 24.4576 4.38829
12.4745 24.4383 4.38808
12.5112 24.4185 4.3879
12.5476 24.3987 4.38725
12.5835 24.3791 4.38625
12.6189 24.3607 4.38479
12.6541 24.342 4.3835
12.6874 24.3214 4.38275
12.7202 24.3006 4.382
12.7529 24.2799 4.38131
12.786 24.2593 4.38073
12.8194 24.2387 4.38025
12.8531 24.218 4.37974
12.8871 24.197 4.37919
12.9208 24.1754 4.37875
12.9545 24.1529 4.37836
12.9886 24.1301 4.37791
13.023 24.1071 4.37739
13.0567 24.0846 4.37693
13.0911 24.0621 4.37631
13.1268 24.04 4.37536
13.1633 24.0173 4.37427
13.1998 23.9946 4.37322
13.2361 23.9694 4.37241
13.2731 23.9437 4.37155
13.3226 23.9343 4.36657
13.3517 23.8948 4.3676
13.3908 23.8715 4.36615
13.4308 23.8478 4.36465
13.4719 23.8233 4.3631
13.5132 23.7988 4.36142
13.5551 23.7729 4.35989
13.5975 23.7464 4.3586
13.6405 23.7195 4.35737
13.6841 23.6945 4.35557
13.7292 23.6716 4.35338
13.7757 23.65 4.35108
13.8241 23.6309 4.34853
13.8727 23.6117 4.34602
13.9215 23.5924 4.34379
13.9705 23.5731 4.34176
14.0191 23.5533 4.33994
14.067 23.5332 4.33782
14.1146 23.5138 4.33593
14.1619 23.4944 4.33435
14.2088 23.4753 4.33322
14.2558 23.456 4.33213
14.3026 23.4369 4.33148
14.3491 23.4178 4.33117
14.3956 23.3988 4.33102
14.4425 23.3796 4.33044
14.4893 23.3604 4.33008
14.5359 23.3413 4.33011
14.581 23.3204 4.33066
14.6255 23.2986 4.33126
14.6689 23.2757 4.33244
14.7119 23.2525 4.33401
14.7566 23.2327 4.33596
14.7963 23.203 4.3372
14.8384 23.1775 4.33878
14.8822 23.1556 4.34084
14.9255 23.1341 4.34335
14.9684 23.1127 4.34604
15.0105 23.0917 4.34916
15.0522 23.071 4.35245
15.0917 23.0467 4.35566
15.1311 23.0211 4.35874
15.1704 22.9966 4.36175
15.2118 22.9774 4.36486
15.2518 22.9574 4.36798
15.2903 22.9346 4.37111
15.3285 22.912 4.37419
15.3664 22.8895 4.37728
15.4046 22.8669 4.38055
15.4435 22.8439 4.38416
15.4826 22.8208 4.38771
