BEGIN_Polyline
-17.053 -3.52973 9.44762
-17.0634 -3.57502 9.45337
-17.0742 -3.62089 9.45758
-17.092 -3.66596 9.45153
-17.0958 -3.71247 9.46804
-17.1067 -3.75856 9.47236
-17.1177 -3.80477 9.47668
-17.1285 -3.85101 9.48141
-17.1403 -3.8971 9.48484
-17.1522 -3.9432 9.48832
-17.1641 -3.98937 9.49182
-17.1758 -4.03559 9.49564
-17.1875 -4.08183 9.49948
-17.2001 -4.12797 9.50206
-17.213 -4.17404 9.50439
-17.2255 -4.22021 9.50723
-17.238 -4.26639 9.51008
-17.2506 -4.31257 9.51296
-17.2636 -4.35865 9.5153
-17.2769 -4.40465 9.51748
-17.2903 -4.45058 9.51977
-17.3038 -4.49645 9.52206
-17.3175 -4.54223 9.52414
-17.3309 -4.58806 9.52671
-17.344 -4.63391 9.52959
-17.3571 -4.67971 9.53248
-17.3704 -4.72543 9.53519
-17.3837 -4.7711 9.53778
-17.397 -4.81677 9.54047
-17.4102 -4.86238 9.54316
-17.4234 -4.90794 9.54582
-17.4365 -4.95341 9.54843
-17.4498 -4.99876 9.55082
-17.463 -5.04401 9.55317
-17.4762 -5.08914 9.55548
-17.4834 -5.13546 9.56459
-17.5024 -5.17888 9.55961
-17.5148 -5.22352 9.56196
-17.5272 -5.26805 9.56427
-17.5395 -5.31247 9.56654
-17.5518 -5.35682 9.56884
-17.5635 -5.40121 9.57179
-17.5751 -5.44554 9.57472
-17.5867 -5.48981 9.57764
-17.5984 -5.53402 9.58057
-17.6099 -5.57821 9.5836
-17.6212 -5.6224 9.58698
-17.6324 -5.66655 9.59036
-17.6437 -5.71068 9.59369
-17.655 -5.75476 9.59691
-17.6662 -5.79884 9.60024
-17.6774 -5.84292 9.60376
-17.6885 -5.88699 9.60735
-17.6996 -5.93106 9.61098
-17.7108 -5.97512 9.61462
-17.7219 -6.0192 9.61834
-17.7329 -6.06331 9.6222
-17.7439 -6.10743 9.62605
-17.755 -6.15158 9.62992
-17.766 -6.19574 9.63379
-17.7768 -6.23995 9.63814
-17.7877 -6.28418 9.64227
-17.7986 -6.32845 9.64635
-17.8096 -6.37277 9.65045
-17.8205 -6.41718 9.65482
-17.8315 -6.46166 9.65905
-17.8427 -6.50622 9.6631
-17.8534 -6.55099 9.66791
-17.8654 -6.59584 9.67136
-17.8769 -6.64091 9.67555
-17.8886 -6.68606 9.67963
-17.9008 -6.73123 9.68287
-17.9132 -6.77645 9.68614
-17.9257 -6.82172 9.68921
-17.9384 -6.86701 9.69202
-17.951 -6.91235 9.69494
-17.9637 -6.95769 9.69787
-17.9765 -7.00305 9.70076
-17.9893 -7.04843 9.70361
-18.0021 -7.09384 9.70647
-18.0149 -7.13929 9.7095
-18.0275 -7.18479 9.71284
-18.04 -7.23031 9.7163
-18.0528 -7.27583 9.71949
-18.0656 -7.32134 9.7224
-18.0782 -7.36688 9.72573
-18.0906 -7.41246 9.72954
-18.103 -7.45804 9.73341
-18.1153 -7.50361 9.73729
-18.1274 -7.5492 9.74162
-18.1394 -7.59479 9.74616
-18.1514 -7.64037 9.7507
-18.1635 -7.68593 9.75515
-18.1755 -7.73148 9.75962
-18.1876 -7.77702 9.76408
-18.1996 -7.82252 9.76855
-18.2117 -7.86797 9.77305
-18.2236 -7.91342 9.77788
-18.2357 -7.95881 9.78239
-18.2372 -8.005 9.80671
-18.2597 -8.04957 9.79133
-18.2714 -8.09494 9.79603
-18.2831 -8.14017 9.80076
-18.2947 -8.18535 9.80546
-18.3062 -8.23049 9.81035
-18.3172 -8.27561 9.8161
-18.3281 -8.32072 9.82204
-18.339 -8.36578 9.82796
-18.3498 -8.41076 9.83395
-18.3601 -8.45568 9.84071
-18.3705 -8.50056 9.84742
-18.3809 -8.54542 9.85413
-18.3913 -8.59027 9.86091
-18.4014 -8.63508 9.86814
-18.4115 -8.67987 9.87537
-18.4217 -8.72462 9.8825
-18.4319 -8.76934 9.88957
-18.4418 -8.814 9.89707
-18.4518 -8.85864 9.90458
-18.4619 -8.90325 9.91195
-18.472 -8.94783 9.91925
-18.4821 -8.99238 9.92658
-18.4923 -9.03692 9.93381
-18.5024 -9.08145 9.94105
-18.5128 -9.126 9.94805
-18.5236 -9.17055 9.95425
-18.5345 -9.21507 9.96045
-18.5453 -9.25962 9.96668
-18.5565 -9.30429 9.97254
-18.5683 -9.34897 9.97734
-18.5799 -9.39363 9.98211
-18.6018 -9.43767 9.96825
-18.6036 -9.4835 9.99171
-18.6161 -9.52771 9.99525
-18.6284 -9.57196 9.99887
-18.6408 -9.61615 10.0025
-18.6533 -9.66032 10.0059
-18.6662 -9.7044 10.0086
-18.6791 -9.74846 10.0113
-18.6919 -9.79254 10.0143
-18.7046 -9.83658 10.0174
-18.7174 -9.88059 10.0203
-18.7302 -9.92455 10.0233
-18.7429 -9.9685 10.0267
-18.7552 -10.0125 10.0308
-18.7668 -10.0564 10.0364
-18.7783 -10.1004 10.0421
-18.7898 -10.1443 10.0479
-18.8016 -10.1883 10.0532
-18.8134 -10.2322 10.0586
-18.825 -10.276 10.0642
-18.8366 -10.3198 10.07
-18.8482 -10.3636 10.0758
-18.8598 -10.4073 10.0815
-18.8715 -10.451 10.0874
-18.8831 -10.4946 10.0934
-18.8947 -10.5382 10.0994
-18.9063 -10.5817 10.1054
-18.918 -10.6251 10.1115
-18.9297 -10.6684 10.1175
-18.9414 -10.7117 10.1235
-18.9531 -10.7548 10.1296
-18.9648 -10.7979 10.1358
-18.9832 -10.8404 10.1316
-18.9881 -10.8834 10.1482
-18.9998 -10.926 10.1544
-19.0116 -10.9684 10.1603
-19.0237 -11.0108 10.166
-19.0358 -11.053 10.1716
-19.0479 -11.0951 10.1773
-19.0599 -11.1372 10.1833
-19.0719 -11.1792 10.1894
-19.0847 -11.2211 10.1944
-19.0974 -11.263 10.1995
-19.1101 -11.3049 10.205
-19.1227 -11.3468 10.2106
-19.1357 -11.3886 10.2157
-19.1488 -11.4304 10.2206
-19.1628 -11.4721 10.2245
-19.1768 -11.5137 10.2283
-19.1909 -11.5553 10.2321
-19.2051 -11.5969 10.2357
-19.2194 -11.6385 10.2394
-19.2333 -11.6802 10.2439
-19.247 -11.7219 10.2488
-19.2609 -11.7638 10.2536
-19.2748 -11.8056 10.2584
-19.2888 -11.8476 10.2634
-19.3032 -11.8895 10.2678
-19.3181 -11.9315 10.2714
-19.3331 -11.9735 10.2751
-19.3478 -12.0158 10.2796
-19.3621 -12.0582 10.285
-19.3768 -12.1008 10.2901
-19.3917 -12.1437 10.2949
-19.4061 -12.1869 10.301
-19.421 -12.2306 10.3064
-19.4356 -12.2746 10.3126
-19.4507 -12.3189 10.3182
-19.4661 -12.3633 10.3234
-19.4816 -12.4079 10.3286
-19.4972 -12.4526 10.3339
-19.5129 -12.4974 10.3392
-19.5284 -12.5423 10.3451
-19.5439 -12.5872 10.3514
-19.5595 -12.6321 10.3579
-19.5753 -12.6771 10.364
-19.5913 -12.7221 10.3702
-19.6074 -12.7671 10.3765
-19.6236 -12.8122 10.3827
-19.6399 -12.8572 10.3892
-19.656 -12.9021 10.3965
-19.6723 -12.9469 10.4037
-19.6888 -12.9917 10.411
-19.7054 -13.0363 10.4183
-19.722 -13.0809 10.4259
-19.7391 -13.1255 10.4334
-19.7571 -13.17 10.4382
-19.7753 -13.2145 10.443
-19.7936 -13.2589 10.448
-19.8117 -13.3031 10.4542
-19.8298 -13.3474 10.4605
-19.8483 -13.3915 10.4662
-19.8673 -13.4356 10.4704
-19.8863 -13.4796 10.4744
-19.9054 -13.5235 10.4783
-19.9247 -13.5673 10.4818
-19.9435 -13.6109 10.49
-19.9634 -13.6549 10.4885
-19.9827 -13.6986 10.4922
-20.0017 -13.742 10.4982
-20.021 -13.7852 10.5029
-20.0406 -13.8284 10.5075
-20.0605 -13.8713 10.5122
-20.0803 -13.9139 10.5188
-20.1003 -13.9563 10.5261
-20.1205 -13.9984 10.5333
-20.141 -14.0404 10.54
-20.1617 -14.0822 10.5466
-20.1825 -14.1234 10.5551
-20.2038 -14.1646 10.5632
-20.2254 -14.2058 10.5691
-20.2473 -14.2467 10.5748
-20.2696 -14.2872 10.5807
-20.2923 -14.3272 10.5873
-20.3154 -14.3667 10.5938
-20.3389 -14.406 10.6003
-20.3626 -14.4451 10.6067
-20.3867 -14.484 10.6125
-20.4109 -14.5229 10.6165
-20.4356 -14.5615 10.6211
-20.4608 -14.5998 10.6268
-20.4866 -14.6375 10.6342
-20.5124 -14.6756 10.6395
-20.5384 -14.7138 10.643
-20.5647 -14.7518 10.6461
-20.5912 -14.7897 10.649
-20.6182 -14.8275 10.6513
-20.6456 -14.8649 10.6539
-20.6707 -14.9059 10.6342
-20.7037 -14.9381 10.6587
-20.7341 -14.9742 10.6609
-20.7642 -15.0102 10.6623
-20.7948 -15.046 10.6636
-20.8262 -15.0813 10.6656
-20.8582 -15.1162 10.6679
-20.8908 -15.1503 10.6706
-20.9239 -15.184 10.6732
-20.9574 -15.2172 10.6755
-20.9916 -15.2495 10.6788
-21.0264 -15.2811 10.684
-21.0614 -15.3126 10.6863
-21.0968 -15.3438 10.6886
-21.1326 -15.3746 10.6908
-21.1688 -15.4052 10.693
-21.2053 -15.4355 10.6951
-21.2423 -15.4661 10.6962
-21.2796 -15.4967 10.6961
-21.3172 -15.527 10.6957
-21.3551 -15.5567 10.6952
-21.393 -15.5857 10.6947
-21.4311 -15.6142 10.6937
-21.4697 -15.6422 10.6924
-21.5088 -15.6701 10.6884
-21.5492 -15.698 10.6832
-21.59 -15.7256 10.6761
-21.63 -15.7525 10.6656
-21.6717 -15.7791 10.6547
-21.7167 -15.8054 10.6396
-21.7606 -15.8309 10.618
-21.7996 -15.8612 10.5984
-21.8077 -15.875 10.4891
-21.8768 -15.9148 10.5644
-21.9171 -15.9358 10.548
-21.957 -15.9561 10.5318
-21.9969 -15.9754 10.5158
-22.0366 -15.9943 10.4983
-22.0751 -16.0114 10.4775
-22.1146 -16.0283 10.4572
-22.155 -16.0448 10.4384
-22.1957 -16.0609 10.4209
-22.2353 -16.0755 10.3997
-22.2758 -16.09 10.3803
-22.3167 -16.1042 10.3613
-22.358 -16.1182 10.3422
-22.3987 -16.1311 10.3212
-22.4391 -16.1431 10.2993
-22.48 -16.1549 10.2781
-22.5214 -16.1665 10.2579
-22.5635 -16.1782 10.2388
-22.6059 -16.1899 10.2206
-22.6486 -16.2012 10.2026
-22.6919 -16.2127 10.1856
-22.7346 -16.2223 10.1663
-22.7776 -16.2315 10.1472
-22.8208 -16.2408 10.1285
-22.863 -16.2479 10.1073
-22.9053 -16.255 10.0861
-22.9484 -16.2625 10.0653
-22.9928 -16.2724 10.0474
-23.0381 -16.2837 10.03
-23.0825 -16.2928 10.0103
-23.1272 -16.3014 9.98981
-23.1533 -16.2585 9.90593
-23.2248 -16.3184 9.94703
-23.2652 -16.3253 9.92532
-23.3094 -16.3309 9.90403
-23.3536 -16.3363 9.88292
-23.3978 -16.3413 9.86153
-23.4416 -16.3452 9.83916
-23.4855 -16.3489 9.81687
-23.5294 -16.3523 9.79476
-23.5722 -16.3539 9.77109
-23.6149 -16.3552 9.7475
-23.6575 -16.3561 9.72382
-23.7 -16.3567 9.69997
-23.7427 -16.357 9.676
-23.7851 -16.3565 9.65144
-23.8272 -16.3553 9.62648
-23.8692 -16.354 9.60166
-23.9122 -16.3542 9.57885
-23.9544 -16.3533 9.55476
-23.9976 -16.3536 9.53265
-24.0408 -16.3537 9.51066
-24.0837 -16.3536 9.4885
-24.1264 -16.3531 9.46635
-24.1688 -16.3516 9.44348
-24.2107 -16.349 9.41992
-24.2531 -16.346 9.39651
-24.2963 -16.3442 9.37454
-24.3378 -16.3397 9.35034
-24.3793 -16.335 9.32631
-24.4208 -16.3299 9.30214
-24.4621 -16.3244 9.27788
-24.5025 -16.3224 9.25456
-24.5226 -16.2839 9.19991
-24.5842 -16.3165 9.2088
-24.6261 -16.3124 9.18688
-24.6667 -16.3052 9.16329
-24.7073 -16.2975 9.13938
-24.7475 -16.2908 9.11771
-24.7877 -16.2848 9.09699
-24.828 -16.279 9.07639
-24.8684 -16.2733 9.05583
-24.9089 -16.2674 9.03493
-24.9468 -16.2582 9.01032
-24.9851 -16.2494 8.98649
-25.0271 -16.2457 8.96693
-25.0686 -16.2413 8.94758
-25.1077 -16.2338 8.92542
-25.146 -16.2252 8.90241
-25.185 -16.2172 8.88023
-25.2247 -16.2099 8.8593
-25.2641 -16.2021 8.83805
-25.3033 -16.194 8.81675
-25.3434 -16.1868 8.79687
-25.3835 -16.1797 8.77736
-25.4238 -16.1726 8.75824
-25.4641 -16.1654 8.73918
-25.5044 -16.1579 8.71989
-25.5448 -16.1503 8.70015
-25.5851 -16.1422 8.68011
-25.6252 -16.1339 8.66019
-25.665 -16.1252 8.64025
-25.7033 -16.114 8.6185
-25.7427 -16.105 8.5991
-25.7815 -16.0944 8.57865
-25.8024 -16.0626 8.53548
-25.8581 -16.0689 8.53458
-25.895 -16.0584 8.51378
-25.9322 -16.045 8.49171
-25.9709 -16.0326 8.47072
-26.0095 -16.021 8.45032
-26.0481 -16.0093 8.42998
-26.0868 -15.9977 8.41003
-26.1244 -15.9847 8.38889
-26.1615 -15.9714 8.36754
-26.198 -15.9572 8.34562
-26.2343 -15.9429 8.3237
-26.2704 -15.928 8.3015
-26.307 -15.9134 8.2797
-26.3445 -15.8996 8.25903
-26.3824 -15.8859 8.23873
-26.4202 -15.8721 8.21853
-26.4557 -15.8557 8.1956
-26.4892 -15.8381 8.17115
-26.526 -15.8231 8.14967
-26.5631 -15.8085 8.12865
-26.5999 -15.7938 8.1078
-26.6367 -15.7791 8.08705
-26.6692 -15.7593 8.06147
-26.7016 -15.7383 8.03527
-26.74 -15.7204 8.01344
-26.7804 -15.7039 7.99318
-26.819 -15.6844 7.97158
-26.8489 -15.659 7.94224
-26.8792 -15.6378 7.91626
-26.9122 -15.6198 7.89285
-26.9456 -15.6023 7.86973
-26.9409 -15.5515 7.81429
-27.0171 -15.5558 7.81813
-27.0499 -15.5329 7.79157
-27.0818 -15.5102 7.76418
-27.113 -15.4868 7.73606
-27.1444 -15.4631 7.70943
-27.1766 -15.4397 7.68374
-27.2091 -15.4166 7.65835
-27.2383 -15.3911 7.63091
-27.2679 -15.3657 7.604
-27.2975 -15.3402 7.57721
-27.3296 -15.3161 7.55195
-27.3595 -15.2904 7.52532
-27.3888 -15.2642 7.49857
-27.4174 -15.2375 7.47148
-27.4459 -15.2106 7.44443
-27.4741 -15.1834 7.41727
-27.5019 -15.1559 7.38999
-27.5317 -15.1294 7.36383
-27.5602 -15.1021 7.3371
-27.5885 -15.0745 7.31029
-27.6163 -15.0467 7.28336
-27.6445 -15.0189 7.25662
-27.6713 -14.9904 7.22935
-27.6982 -14.9616 7.20215
-27.7257 -14.9328 7.17524
-27.7528 -14.9036 7.14818
-27.7793 -14.8742 7.121
-27.8053 -14.8443 7.09355
-27.8309 -14.8141 7.06595
-27.8561 -14.7837 7.03813
-27.881 -14.7527 7.00963
-27.8722 -14.7091 6.96666
-27.9294 -14.6929 6.95289
-27.9543 -14.6632 6.92495
-27.9795 -14.6335 6.897
-28.0047 -14.6039 6.86917
-28.0277 -14.5734 6.84063
-28.0493 -14.5423 6.8116
-28.0726 -14.5116 6.78302
-28.0962 -14.481 6.75477
-28.1197 -14.4503 6.72689
-28.1433 -14.4197 6.69937
-28.1687 -14.3897 6.67278
-28.1929 -14.3592 6.64589
-28.2159 -14.3281 6.61867
-28.2384 -14.2966 6.5914
-28.2613 -14.2652 6.56452
-28.2829 -14.2332 6.53729
-28.3044 -14.2009 6.51024
-28.3259 -14.1686 6.48338
-28.3478 -14.1361 6.45687
-28.3716 -14.1043 6.43142
-28.3949 -14.0722 6.40623
-28.4181 -14.0398 6.38123
-28.4375 -14.006 6.35489
-28.4567 -13.9718 6.32865
-28.4784 -13.9383 6.30366
-28.5012 -13.9051 6.27945
-28.5232 -13.8712 6.25511
-28.5415 -13.8362 6.23026
-28.5614 -13.8019 6.2066
-28.5849 -13.7692 6.18511
-28.6053 -13.7324 6.16258
-28.6026 -13.6896 6.131
-28.6366 -13.6572 6.11294
-28.6531 -13.6201 6.09054
-28.6689 -13.5824 6.0683
-28.6845 -13.5445 6.04642
-28.7003 -13.5064 6.02505
-28.7159 -13.4681 6.004
-28.7313 -13.4295 5.98329
-28.7481 -13.391 5.96337
-28.7655 -13.3524 5.94406
-28.7795 -13.3129 5.92401
-28.7932 -13.2731 5.90424
-28.8062 -13.233 5.88459
-28.8208 -13.193 5.86585
-28.8355 -13.1529 5.84749
-28.8502 -13.1125 5.82941
-28.8648 -13.0721 5.81157
-28.8767 -13.0311 5.79303
-28.8888 -12.9899 5.7748
-28.901 -12.9487 5.75692
-28.9131 -12.9073 5.73941
-28.925 -12.8659 5.72232
-28.9366 -12.8242 5.70561
-28.9483 -12.7824 5.68921
-28.963 -12.741 5.67438
-28.9767 -12.6991 5.65944
-28.9905 -12.657 5.64501
-29.0047 -12.6149 5.63107
-29.0215 -12.5735 5.61895
-29.0379 -12.5318 5.60772
-29.0536 -12.4899 5.5965
-29.0684 -12.4482 5.5851
-29.1098 -12.4122 5.58469
-29.0958 -12.3634 5.56294
-29.1094 -12.3202 5.55263
-29.1261 -12.278 5.54405
-29.1425 -12.2353 5.53577
-29.1583 -12.193 5.52779
-29.1733 -12.1506 5.51997
-29.1859 -12.1076 5.51175
-29.2004 -12.065 5.50475
-29.2148 -12.0221 5.49828
-29.2302 -11.9793 5.49281
-29.2455 -11.9365 5.4877
-29.2606 -11.8935 5.48293
-29.2753 -11.8504 5.47831
-29.2902 -11.8072 5.47413
-29.3049 -11.764 5.47025
-29.3194 -11.7207 5.46657
-29.3318 -11.6768 5.46231
-29.3442 -11.6328 5.45831
-29.3568 -11.5889 5.45473
-29.3691 -11.5448 5.45135
-29.3798 -11.5003 5.44761
-29.3904 -11.4558 5.44414
-29.401 -11.4113 5.44091
-29.4145 -11.3672 5.43904
-29.4282 -11.323 5.43715
-29.4426 -11.279 5.43573
-29.4576 -11.2353 5.43489
-29.4667 -11.1898 5.43197
-29.4764 -11.145 5.43032
-29.4866 -11.1005 5.42941
-29.4982 -11.0571 5.42962
-29.4879 -11.0074 5.41954
-29.5229 -10.9692 5.4298
-29.5337 -10.9241 5.42863
-29.5432 -10.8799 5.42769
-29.5526 -10.8357 5.42693
-29.5619 -10.7915 5.42641
-29.5711 -10.7473 5.42613
-29.5804 -10.7031 5.42606
-29.5893 -10.6589 5.42611
-29.5981 -10.6147 5.4263
-29.6063 -10.5703 5.42651
-29.6137 -10.5258 5.42663
-29.6211 -10.4812 5.42697
-29.6297 -10.4368 5.428
-29.6397 -10.3927 5.43002
-29.6496 -10.3485 5.43224
-29.6578 -10.3039 5.43396
-29.6663 -10.2594 5.43619
-29.6747 -10.2148 5.43869
-29.6829 -10.1702 5.44143
-29.6911 -10.1254 5.44439
-29.6981 -10.0804 5.44699
-29.7046 -10.0353 5.44962
-29.7111 -9.99004 5.45248
-29.7174 -9.94469 5.45558
-29.7232 -9.89918 5.45868
-29.7283 -9.85345 5.46167
-29.7333 -9.80761 5.46493
-29.7383 -9.7616 5.46841
-29.7423 -9.71523 5.47166
-29.7462 -9.66866 5.4751
-29.7499 -9.6219 5.47876
-29.7375 -9.57296 5.47321
-29.7574 -9.52824 5.48678
-29.7617 -9.48102 5.49128
-29.7659 -9.4336 5.49609
-29.77 -9.386 5.50132
-29.7738 -9.33816 5.50702
-29.776 -9.29002 5.51234
-29.7784 -9.24176 5.518
-29.7808 -9.19347 5.52396
-29.784 -9.14533 5.53047
-29.787 -9.09718 5.53716
-29.7901 -9.04902 5.54416
-29.7935 -9.00087 5.55151
-29.7973 -8.95277 5.55933
-29.801 -8.90464 5.56736
-29.8046 -8.85649 5.5756
-29.8083 -8.80835 5.58413
-29.8111 -8.76006 5.59249
-29.8136 -8.71175 5.60098
-29.8161 -8.66346 5.60968
-29.8198 -8.61541 5.61916
-29.824 -8.56757 5.62922
-29.8279 -8.51976 5.63935
-29.8306 -8.47185 5.64913
-29.8327 -8.42391 5.65888
-29.8341 -8.37594 5.66856
-29.8353 -8.32802 5.6784
-29.8361 -8.28014 5.6883
-29.8369 -8.23238 5.6984
-29.8375 -8.18485 5.70863
-29.8382 -8.13744 5.71916
-29.8391 -8.09018 5.73008
-29.8166 -8.04007 5.73026
-29.842 -7.99698 5.75383
-29.8439 -7.94988 5.76656
-29.8449 -7.90286 5.77902
-29.8443 -7.85596 5.79108
-29.8419 -7.80965 5.80221
-29.8394 -7.76367 5.81347
-29.8369 -7.71777 5.8249
-29.8332 -7.67195 5.83597
-29.8287 -7.62626 5.84667
-29.8239 -7.58067 5.85745
-29.819 -7.53519 5.86836
-29.8137 -7.4898 5.87926
-29.8084 -7.44448 5.89034
-29.8011 -7.39921 5.90061
-29.7945 -7.35401 5.9114
-29.7886 -7.30886 5.92272
-29.7825 -7.26377 5.93424
-29.7761 -7.21875 5.94572
-29.7684 -7.17384 5.95671
-29.7608 -7.12899 5.96785
-29.7531 -7.08419 5.97909
-29.7457 -7.03944 5.99064
-29.7385 -6.99475 6.00244
-29.7312 -6.95011 6.01437
-29.7235 -6.90555 6.02626
-29.7153 -6.86107 6.03804
-29.7098 -6.81654 6.05127
-29.7047 -6.77206 6.06479
-29.6995 -6.72768 6.07829
-29.6944 -6.68336 6.0918
-29.6892 -6.63905 6.10531
-29.6815 -6.59473 6.11759
-29.6802 -6.55055 6.13247
-29.6763 -6.50629 6.14619
-29.6718 -6.46205 6.15967
-29.6665 -6.41784 6.17285
-29.661 -6.37372 6.18598
-29.6556 -6.32965 6.19913
-29.6501 -6.28564 6.21232
-29.6429 -6.24169 6.22492
-29.6354 -6.19783 6.23744
-29.6278 -6.15401 6.25003
-29.6195 -6.11024 6.26239
-29.6103 -6.06656 6.27438
-29.6013 -6.02288 6.28662
-29.5916 -5.97926 6.29854
-29.581 -5.93573 6.31002
-29.571 -5.8921 6.3218
-29.5619 -5.8483 6.33394
-29.5526 -5.80449 6.34591
-29.5428 -5.76073 6.35763
-29.5342 -5.71694 6.37017
-29.5273 -5.67318 6.38384
-29.5204 -5.62944 6.3976
-29.5134 -5.58574 6.41147
-29.5071 -5.54216 6.42595
-29.5021 -5.49887 6.44152
-29.4971 -5.45561 6.45722
-29.4919 -5.41234 6.47306
-29.4867 -5.36909 6.48904
-29.4813 -5.3259 6.50516
-29.4759 -5.28266 6.52154
-29.4708 -5.23947 6.53841
-29.4504 -5.19382 6.54508
-29.4597 -5.15257 6.57359
-29.4529 -5.10877 6.5912
-29.4458 -5.06501 6.60832
-29.4389 -5.02129 6.62581
-29.432 -4.97752 6.6434
-29.4247 -4.93371 6.6609
-29.4164 -4.88977 6.67773
-29.4079 -4.84585 6.6945
-29.3991 -4.802 6.7111
-29.3898 -4.75815 6.72738
-29.3805 -4.71432 6.74364
-29.3706 -4.67045 6.75955
-29.3605 -4.62655 6.77539
-29.3501 -4.58264 6.79108
-29.3395 -4.53873 6.8065
-29.3287 -4.49485 6.82186
-29.3177 -4.45101 6.83696
-29.3068 -4.4072 6.85205
-29.2956 -4.3634 6.86687
-29.2845 -4.31961 6.88187
-29.2735 -4.27583 6.89679
-29.2624 -4.23204 6.9117
-29.2513 -4.18826 6.92661
-29.2405 -4.14448 6.94174
-29.2296 -4.10067 6.9569
-29.2185 -4.05684 6.97189
-29.2072 -4.01299 6.98672
-29.1958 -3.96912 7.00142
-29.1844 -3.92522 7.01594
-29.1731 -3.88126 7.03035
-29.1618 -3.83726 7.04465
-29.1104 -3.79107 7.02093
-29.1402 -3.7468 7.07148
-29.1289 -3.70278 7.08442
-29.1176 -3.6584 7.09761
-29.1064 -3.61404 7.11069
-29.0954 -3.56972 7.12364
-29.083 -3.5254 7.13528
-29.0707 -3.48104 7.14688
-29.0583 -3.43675 7.15831
-29.0456 -3.39268 7.16939
-29.0325 -3.34873 7.18003
-29.0196 -3.30481 7.19063
-29.0068 -3.26091 7.20115
-28.9932 -3.21704 7.21083
-28.9793 -3.17322 7.22003
-28.9655 -3.12944 7.22916
-28.9518 -3.08576 7.23805
-28.9376 -3.04233 7.2461
-28.9236 -2.99898 7.25402
-28.9097 -2.95566 7.26185
-28.8954 -2.91242 7.26915
-28.8809 -2.86919 7.27628
-28.8665 -2.82594 7.28335
-28.8522 -2.78269 7.29036
-28.8375 -2.73951 7.29688
-28.823 -2.69637 7.30316
-28.8085 -2.65321 7.30944
-28.7941 -2.60997 7.31577
-28.7795 -2.56668 7.32217
-28.7646 -2.52335 7.32906
-28.7499 -2.4798 7.33664
-28.7353 -2.43534 7.34521
-28.7705 -2.38329 7.40104
-28.7055 -2.34437 7.36399
-28.6911 -2.29893 7.37334
-28.6773 -2.25468 7.38403
-28.6637 -2.21046 7.39481
-28.6502 -2.16625 7.40539
-28.6378 -2.12196 7.4168
-28.6269 -2.07753 7.42959
-28.6164 -2.03314 7.44223
-28.6068 -1.98897 7.45448
-28.5974 -1.94489 7.46632
-28.5885 -1.90074 7.47816
-28.5822 -1.85666 7.49146
-28.5759 -1.81238 7.50477
-28.5698 -1.76805 7.51783
-28.5634 -1.72379 7.53024
-28.5605 -1.6796 7.54389
-28.5597 -1.63592 7.55709
-28.5589 -1.59228 7.56983
-28.5581 -1.54855 7.58221
-28.5562 -1.50466 7.59406
-28.556 -1.4607 7.60634
-28.5559 -1.41657 7.61861
-28.5559 -1.37225 7.63084
-28.5546 -1.32764 7.64278
-28.5544 -1.28293 7.65523
-28.5542 -1.23794 7.66779
-28.5538 -1.19258 7.68039
-28.5534 -1.14687 7.69301
-28.5518 -1.10079 7.70536
-28.5501 -1.0542 7.71772
-28.5484 -1.00704 7.73015
-28.5552 -0.95931 7.74488
-28.5458 -0.909782 7.7557
-28.5449 -0.85988 7.76875
-28.5438 -0.809368 7.78181
-28.5417 -0.758349 7.79465
-28.5395 -0.706964 7.80756
-28.5392 -0.655275 7.82095
-28.5375 -0.603214 7.83394
-28.5354 -0.550923 7.84672
-28.5333 -0.498567 7.85944
-28.5308 -0.446082 7.87196
-28.5261 -0.393433 7.88356
-28.5233 -0.340675 7.8959
-28.5212 -0.287824 7.90848
-28.5194 -0.23489 7.92113
-28.517 -0.181877 7.93358
-28.5139 -0.128814 7.94576
-28.5104 -0.0757644 7.95799
-28.5067 -0.0227351 7.97014
-28.5022 0.0302754 7.98193
-28.4977 0.0832132 7.99366
-28.4927 0.136023 8.00502
-28.4878 0.188746 8.01628
-28.4829 0.241394 8.02743
-28.4778 0.293984 8.03823
-28.4719 0.346569 8.04836
-28.4653 0.399053 8.05792
-28.4586 0.451292 8.06748
-28.4523 0.503616 8.0769
-28.446 0.556473 8.0856
-28.4383 0.609188 8.09341
-28.4305 0.66148 8.10125
-28.3455 0.707054 8.07515
-28.4148 0.766295 8.11724
-28.4054 0.815485 8.12635
-28.396 0.864109 8.13538
-28.3859 0.912002 8.14348
-28.3764 0.959432 8.1502
-28.3672 1.00645 8.15649
-28.3576 1.05301 8.16261
-28.3475 1.09916 8.16831
-28.3369 1.14495 8.17353
-28.3265 1.19048 8.17869
-28.3176 1.23596 8.18451
-28.3088 1.2812 8.19023
-28.2994 1.32609 8.19552
-28.2898 1.37079 8.20063
-28.2803 1.41538 8.2057
-28.2708 1.45997 8.21077
-28.2612 1.50475 8.21591
-28.2512 1.54947 8.22082
-28.2409 1.59405 8.22555
-28.2307 1.63851 8.23023
-28.2202 1.68269 8.23464
-28.209 1.72654 8.23856
-28.1977 1.77025 8.24237
-28.1862 1.81382 8.24603
-28.1745 1.85731 8.24954
-28.1629 1.90068 8.25297
-28.1507 1.9437 8.256
-28.1386 1.98655 8.25892
-28.1265 2.02923 8.26175
-28.1146 2.07173 8.26453
-28.1022 2.11416 8.26812
-28.0236 2.13961 8.23358
-28.077 2.19812 8.27465
-28.0652 2.23965 8.2769
-28.0534 2.28095 8.27905
-28.0411 2.32176 8.28063
-28.0291 2.36214 8.28199
-28.0173 2.40228 8.28327
-28.0054 2.44226 8.28441
-27.9934 2.48206 8.28535
-27.9815 2.52179 8.28622
-27.9694 2.56139 8.2869
-27.9561 2.60053 8.28675
-27.9427 2.63958 8.28646
-27.9294 2.67867 8.2863
-27.916 2.71767 8.28602
-27.9024 2.75658 8.2856
-27.889 2.79551 8.2853
-27.8749 2.83407 8.28445
-27.8602 2.87233 8.28309
-27.8455 2.91067 8.28183
-27.8308 2.94906 8.28058
-27.8159 2.98745 8.2792
-27.8004 3.02568 8.2774
-27.785 3.0641 8.27578
-27.77 3.10282 8.27457
-27.7549 3.14162 8.27335
-27.7397 3.18053 8.27212
-27.7243 3.21963 8.27091
-27.7088 3.25891 8.26982
-27.6931 3.2984 8.26906
-27.677 3.33807 8.26829
-27.6608 3.37807 8.26757
-27.614 3.40561 8.24215
-27.6281 3.45876 8.26605
-27.6119 3.50029 8.26578
-27.5956 3.54252 8.26573
-27.5793 3.58505 8.26572
-27.5627 3.6277 8.26566
-27.5457 3.67039 8.26534
-27.5284 3.71325 8.26497
-27.5109 3.75617 8.26455
-27.4934 3.799 8.26404
-27.4757 3.84186 8.26349
-27.4578 3.88474 8.26279
-27.4396 3.9276 8.26189
-27.4212 3.9706 8.26102
-27.4029 4.0137 8.26017
-27.3842 4.05675 8.25909
-27.3654 4.09986 8.25799
-27.3466 4.14302 8.25689
-27.3277 4.18616 8.25565
-27.3086 4.22926 8.25429
-27.2893 4.27232 8.25285
-27.2698 4.31523 8.25119
-27.2502 4.35813 8.24953
-27.2306 4.40103 8.24784
-27.2106 4.44384 8.24592
-27.1902 4.48666 8.24379
-27.1698 4.52947 8.24161
-27.1493 4.57214 8.23945
-27.128 4.61435 8.23652
-27.1064 4.65656 8.23323
-27.084 4.69823 8.22919
-27.0617 4.73973 8.22513
-27.0124 4.76437 8.19829
-27.0165 4.82291 8.21702
-26.9939 4.86309 8.21293
-26.9712 4.9024 8.20781
-26.9483 4.9412 8.20241
-26.925 4.97939 8.19672
-26.902 5.01756 8.19124
-26.8795 5.05595 8.18609
-26.8572 5.09443 8.18108
-26.8346 5.13275 8.17573
-26.8119 5.17108 8.17036
-26.7893 5.20941 8.16498
-26.7667 5.2478 8.15969
-26.7446 5.28638 8.15469
-26.7228 5.32523 8.15002
-26.7009 5.36406 8.14526
-26.6789 5.40297 8.14048
-26.658 5.44283 8.13677
-26.6375 5.48309 8.13346
-26.6171 5.52351 8.13025
-26.5964 5.56384 8.12677
-26.5757 5.60418 8.12323
-26.5557 5.64498 8.12031
-26.536 5.68605 8.11769
-26.5163 5.72717 8.11502
-26.4964 5.76831 8.11222
-26.477 5.80983 8.1099
-26.4578 5.85143 8.10763
-26.4386 5.89329 8.10553
-26.4189 5.93555 8.10346
-26.3996 5.97795 8.10166
-26.3812 6.02105 8.10065
-26.3972 6.07942 8.1258
-26.3431 6.10696 8.09917
-26.3252 6.15021 8.09787
-26.3073 6.19348 8.0965
-26.2895 6.2368 8.09505
-26.272 6.28025 8.0938
-26.2543 6.32362 8.09236
-26.2365 6.36698 8.09084
-26.2192 6.41055 8.08957
-26.2022 6.45435 8.08854
-26.1852 6.49817 8.08744
-26.1682 6.54202 8.08633
-26.1512 6.58593 8.08525
-26.1341 6.62988 8.08417
-26.1171 6.67386 8.08309
-26.1003 6.71798 8.08222
-26.0835 6.76211 8.08135
-26.0667 6.80625 8.08053
-26.0498 6.8504 8.07974
-26.0329 6.89458 8.07898
-26.0153 6.93848 8.07772
-25.9976 6.98233 8.07635
-25.9797 7.02617 8.07496
-25.963 7.07048 8.07438
-25.9457 7.1146 8.07338
-25.9284 7.15872 8.0724
-25.9112 7.20289 8.07153
-25.8936 7.2469 8.07033
-25.8762 7.29101 8.06934
-25.859 7.33518 8.06849
-25.8417 7.37935 8.06767
-25.8245 7.42355 8.06696
-25.8023 7.46573 8.06222
-25.7909 7.51209 8.06642
-25.7744 7.55656 8.06643
-25.758 7.60112 8.06665
-25.7415 7.64565 8.06686
-25.725 7.69013 8.067
-25.7088 7.73475 8.06753
-25.6929 7.77945 8.06831
-25.6773 7.82421 8.06931
-25.6613 7.86881 8.07006
-25.6452 7.91331 8.0707
-25.629 7.95777 8.07131
-25.6128 8.00221 8.07194
-25.5966 8.04665 8.07258
-25.5798 8.09083 8.07272
-25.5625 8.13487 8.0726
-25.5444 8.17855 8.07183
-25.5263 8.22224 8.07107
-25.5082 8.26594 8.07032
-25.4895 8.30944 8.06918
-25.4708 8.35289 8.06798
-25.4521 8.3963 8.06679
-25.4334 8.43973 8.0656
-25.4144 8.48301 8.06409
-25.3952 8.52627 8.06251
-25.3761 8.56951 8.06098
-25.3565 8.61259 8.059
-25.3372 8.65597 8.05712
-25.3177 8.69923 8.05481
-25.2982 8.74192 8.05198
-25.279 8.7856 8.04952
-25.2597 8.82885 8.04698
-25.1726 8.83969 7.99488
-25.2205 8.91991 8.03898
-25.1996 8.96399 8.03523
-25.1776 9.00666 8.03314
-25.1571 9.04972 8.03166
-25.1353 9.09119 8.02801
-25.1125 9.13188 8.02316
-25.0909 9.17383 8.01939
-25.0695 9.21589 8.01576
-25.0469 9.25687 8.01137
-25.0239 9.29759 8.00685
-25.001 9.33831 8.00234
-24.9775 9.37874 7.99749
-24.9535 9.41888 7.99225
-24.9302 9.45951 7.98753
-24.9071 9.5002 7.9829
-24.8836 9.54051 7.97794
-24.8602 9.58075 7.97305
-24.8372 9.62116 7.9684
-24.8143 9.66158 7.9638
-24.7921 9.70236 7.95961
-24.769 9.74252 7.95477
-24.7459 9.78262 7.9499
-24.7233 9.82311 7.94541
-24.7008 9.86374 7.94106
-24.6781 9.90454 7.93689
-24.6553 9.94543 7.93279
-24.6328 9.98624 7.92857
-24.6095 10.0267 7.9239
-24.5854 10.0669 7.91892
-24.5612 10.1069 7.91377
-24.537 10.1468 7.9085
-24.4708 10.157 7.87165
-24.489 10.2263 7.89814
-24.4649 10.2659 7.8927
-24.4411 10.3059 7.88689
-24.4173 10.3459 7.88096
-24.3936 10.3857 7.87515
-24.3697 10.4255 7.86926
-24.3462 10.4654 7.86356
-24.3227 10.5053 7.85785
-24.299 10.5452 7.85203
-24.2754 10.5851 7.84615
-24.2517 10.625 7.8402
-24.2275 10.6645 7.83394
-24.2032 10.704 7.82754
-24.1789 10.7435 7.82114
-24.1546 10.7829 7.81472
-24.1303 10.8224 7.80837
-24.1062 10.862 7.8021
-24.0819 10.9014 7.79573
-24.0574 10.9407 7.7892
-24.0329 10.98 7.7827
-24.0083 11.0192 7.77624
-23.9834 11.0582 7.7695
-23.9583 11.0971 7.7627
-23.9337 11.1363 7.7563
-23.9087 11.1754 7.7497
-23.8835 11.2144 7.74296
-23.8578 11.253 7.73592
-23.8318 11.2913 7.72871
-23.805 11.329 7.72097
-23.7776 11.3664 7.71293
-23.7501 11.4036 7.7049
-23.7204 11.4389 7.69539
-23.6939 11.4773 7.68885
-23.6657 11.514 7.68112
-23.6377 11.5511 7.67378
-23.6097 11.5881 7.66652
-23.5818 11.6253 7.65946
-23.554 11.6626 7.65252
-23.5262 11.6999 7.64561
-23.4985 11.7372 7.63879
-23.4711 11.7747 7.63215
-23.4437 11.8122 7.62551
-23.4174 11.8506 7.61969
-23.3903 11.8883 7.61336
-23.3637 11.9265 7.60742
-23.3377 11.9653 7.60195
-23.3116 12.004 7.59644
-23.2853 12.0426 7.59087
-23.2589 12.0814 7.58544
-23.2329 12.1207 7.58033
-23.2071 12.1601 7.57537
-23.1815 12.1996 7.57057
-23.1562 12.2393 7.56585
-23.1314 12.2793 7.56141
-23.1069 12.3196 7.55716
-23.0823 12.3599 7.55289
-23.0575 12.4004 7.54867
-23.0328 12.4412 7.54456
-23.0092 12.4822 7.5408
-22.986 12.5238 7.53746
-22.9635 12.5671 7.53543
-22.942 12.6113 7.53413
-22.9209 12.6545 7.53193
-22.9589 12.7289 7.55787
-22.879 12.7433 7.52677
-22.8596 12.7861 7.52431
-22.8405 12.8286 7.52163
-22.8223 12.8711 7.51914
-22.8052 12.9135 7.51667
-22.788 12.9555 7.51398
-22.77 12.9972 7.51104
-22.7515 13.0387 7.50788
-22.7325 13.0804 7.50477
-22.7143 13.1225 7.50215
-22.6965 13.1648 7.49974
-22.6787 13.2071 7.49729
-22.6609 13.2495 7.49468
-22.6429 13.2918 7.49185
-22.6275 13.335 7.49044
-22.6112 13.3777 7.48853
-22.5928 13.4197 7.48551
-22.5729 13.4611 7.4817
-22.553 13.5024 7.47784
-22.5327 13.5435 7.47367
-22.5129 13.5848 7.46955
-22.493 13.626 7.46535
-22.4732 13.6673 7.4611
-22.4528 13.7081 7.45651
-22.4312 13.7482 7.45141
-22.4097 13.7883 7.44628
-22.3882 13.8284 7.44096
-22.3704 13.8707 7.43763
-22.3494 13.911 7.43238
-22.3286 13.9514 7.42702
-22.3057 13.9914 7.41994
-22.2683 14.0208 7.40187
-22.2695 14.0739 7.40886
-22.2495 14.1164 7.40393
-22.2282 14.1563 7.39645
-22.2071 14.1962 7.38889
-22.188 14.2378 7.38292
-22.1726 14.2808 7.37919
-22.1498 14.3198 7.36987
-22.126 14.3581 7.35975
-22.1095 14.4006 7.35447
-22.0908 14.4423 7.34827
-22.0705 14.4828 7.34117
-22.0523 14.5245 7.33495
-22.0341 14.5664 7.32861
-22.0145 14.6074 7.32146
-21.9921 14.6465 7.31286
-21.9698 14.6856 7.30414
-21.9469 14.7244 7.29506
-21.9253 14.7641 7.28647
-21.904 14.8038 7.27765
-21.8827 14.8435 7.26868
-21.8609 14.8828 7.25939
-21.8383 14.9215 7.24974
-21.8158 14.9604 7.23995
-21.7931 14.999 7.22991
-21.7689 15.0367 7.21918
-21.7437 15.0736 7.20793
-21.7181 15.1106 7.19656
-21.6932 15.1483 7.18531
-21.6688 15.1862 7.17405
-21.6444 15.2243 7.16279
-21.6187 15.263 7.15112
-21.5435 15.2639 7.12478
-21.5606 15.3409 7.12791
-21.5329 15.3757 7.11557
-21.5054 15.4135 7.10407
-21.4779 15.4513 7.09263
-21.4501 15.4891 7.08106
-21.4213 15.526 7.06915
-21.3925 15.5631 7.0572
-21.3637 15.6 7.04521
-21.335 15.6367 7.0332
-21.3063 15.6732 7.02116
-21.2773 15.7095 7.00896
-21.2475 15.7449 6.99641
-21.2177 15.7803 6.98378
-21.188 15.8157 6.97109
-21.1591 15.8519 6.95852
-21.1302 15.888 6.9458
-21.101 15.9238 6.93275
-21.0713 15.959 6.91933
-21.0422 15.9947 6.90603
-21.0134 16.0303 6.89263
-20.9851 16.066 6.87929
-20.957 16.1017 6.86591
-20.93 16.1379 6.85277
-20.9027 16.1736 6.83943
-20.8756 16.2092 6.82605
-20.8487 16.2446 6.81265
-20.8231 16.2804 6.79962
-20.7978 16.316 6.78653
-20.7725 16.3509 6.77322
-20.7474 16.3852 6.75973
-20.7224 16.4184 6.74594
-20.697 16.4498 6.73159
-20.6768 16.4839 6.71934
-20.6548 16.5149 6.70575
-20.6334 16.5454 6.69205
-20.6133 16.5762 6.67877
-20.5935 16.6066 6.66536
-20.5736 16.6366 6.65175
-20.5545 16.6666 6.63829
-20.5356 16.6965 6.62473
-20.516 16.7258 6.61071
-20.4967 16.7551 6.59667
-20.4778 16.7846 6.58269
-20.459 16.814 6.56862
-20.4404 16.8434 6.55443
-20.4218 16.8727 6.54017
-20.4028 16.9016 6.52563
-20.3831 16.9298 6.51065
-20.3631 16.9578 6.49553
-20.343 16.9858 6.48032
-20.324 17.0149 6.46549
-20.3041 17.0434 6.4502
-20.2838 17.0719 6.43458
-20.2633 17.1006 6.41877
-20.2426 17.1295 6.40279
-20.2218 17.1585 6.38661
-20.2002 17.187 6.37004
-20.1786 17.2159 6.35337
-20.1576 17.2462 6.33677
-20.1364 17.2769 6.31981
-20.1142 17.3077 6.30212
-20.091 17.3388 6.28376
-20.0666 17.3708 6.2653
-20.0223 17.3854 6.23938
-20.0159 17.4385 6.22552
-19.9881 17.4744 6.20394
-19.9595 17.5099 6.18252
-19.9304 17.5461 6.16076
-19.9005 17.5825 6.13866
-19.8695 17.6185 6.11611
-19.8382 17.6552 6.09339
-19.8069 17.6923 6.07062
-19.775 17.7291 6.04782
-19.7435 17.7666 6.02514
-19.7121 17.8047 6.00252
-19.6806 17.843 5.97988
-19.6494 17.882 5.95735
-19.6186 17.9217 5.93497
-19.5877 17.9614 5.91264
-19.5572 18.0018 5.8905
-19.5269 18.0422 5.86844
-19.4963 18.0825 5.84646
-19.4659 18.1229 5.82469
-19.4355 18.1633 5.80311
-19.405 18.2036 5.78177
-19.3749 18.2441 5.76076
-19.345 18.2846 5.74005
-19.3151 18.325 5.7196
-19.2853 18.3656 5.69939
-19.2558 18.4062 5.67958
-19.2264 18.4465 5.66022
-19.1983 18.4874 5.64155
-19.1703 18.528 5.62338
-19.1425 18.5681 5.60586
-19.1153 18.6078 5.58913
-19.0915 18.6489 5.57389
-19.0628 18.6847 5.55911
-19.0376 18.7218 5.54583
-19.012 18.758 5.53317
-18.9868 18.7936 5.52119
-18.9621 18.8292 5.50979
-18.9377 18.8645 5.49893
-18.9132 18.8993 5.48854
-18.8886 18.9336 5.47853
-18.8641 18.9679 5.46882
-18.8398 19.002 5.45946
-18.8156 19.0361 5.45046
-18.7918 19.0701 5.44183
-18.7681 19.1039 5.43356
-18.7441 19.1374 5.42555
-18.7202 19.1709 5.41782
-18.6965 19.2045 5.41033
-18.6726 19.2382 5.403
-18.6487 19.2718 5.39585
-18.6246 19.3053 5.38887
-18.6006 19.3388 5.38207
-18.5765 19.3722 5.37544
-18.5522 19.4053 5.36893
-18.5273 19.438 5.3625
-18.5025 19.4706 5.35619
-18.4778 19.5033 5.35003
-18.4532 19.536 5.34394
-18.4282 19.5684 5.33786
-18.4032 19.6009 5.33179
-18.3783 19.6334 5.32575
-18.3534 19.666 5.31964
-18.3284 19.6986 5.31341
-18.2508 19.6907 5.30297
-18.2757 19.7653 5.29994
-18.2497 19.7976 5.29263
-18.2235 19.8299 5.2852
-18.1975 19.8625 5.27773
-18.1714 19.8952 5.27033
-18.1447 19.9275 5.26291
-18.1178 19.9598 5.25546
-18.0914 19.9926 5.24816
-18.0644 20.0249 5.24114
-18.0369 20.0569 5.23426
-18.0094 20.0889 5.22752
-17.9817 20.1209 5.2209
-17.9533 20.1525 5.21432
-17.9246 20.184 5.20786
-17.8957 20.2154 5.20155
-17.8669 20.2469 5.19545
-17.8379 20.2784 5.18958
-17.809 20.3099 5.18393
-17.7798 20.3413 5.17845
-17.75 20.3723 5.17316
-17.7201 20.4036 5.16805
-17.6912 20.4359 5.16311
-17.6609 20.4672 5.15837
-17.6297 20.4977 5.15379
-17.5984 20.5278 5.14933
-17.567 20.5581 5.14506
-17.5354 20.5885 5.14104
-17.5039 20.6201 5.13725
-17.4722 20.6535 5.13364
-17.4386 20.6852 5.13031
-17.4041 20.717 5.12727
-17.3177 20.6933 5.12507
-17.3348 20.7812 5.1222
-17.3002 20.8136 5.1202
-17.2649 20.8464 5.11859
-17.2293 20.8794 5.11727
-17.1936 20.9124 5.1163
-17.1578 20.9456 5.11563
-17.1215 20.9788 5.11523
-17.0846 21.0115 5.11512
-17.0477 21.0442 5.1153
-17.0105 21.0768 5.11574
-16.9732 21.1096 5.1164
-16.9359 21.1425 5.11729
-16.8977 21.1748 5.11841
-16.8592 21.2068 5.11974
-16.8203 21.2388 5.12124
-16.781 21.2701 5.12291
-16.7416 21.3014 5.12464
-16.7022 21.3326 5.1265
-16.6619 21.3631 5.12857
-16.6216 21.3935 5.13083
-16.5812 21.424 5.13332
-16.5405 21.4544 5.13604
-16.4996 21.4849 5.13897
-16.4587 21.5154 5.14212
-16.4177 21.5461 5.14546
-16.3765 21.5768 5.14904
-16.3354 21.6078 5.15288
-16.2942 21.639 5.15706
-16.253 21.6706 5.16174
-16.2112 21.7017 5.16678
-16.1691 21.7326 5.17223
-16.1042 21.7329 5.17765
-16.0847 21.7949 5.18472
-16.0422 21.8264 5.19172
-15.9993 21.8575 5.19897
-15.9564 21.8888 5.20654
-15.9134 21.92 5.21411
-15.8707 21.9516 5.22183
-15.828 21.9834 5.22975
-15.7849 22.0144 5.23776
-15.7417 22.0454 5.2458
-15.6985 22.0762 5.2539
-15.6548 22.1063 5.26205
-15.6107 22.1359 5.27025
-15.5666 22.1653 5.27852
-15.5221 22.1941 5.28681
-15.4775 22.2228 5.29513
-15.4329 22.2512 5.30349
-15.3879 22.2791 5.31184
-15.343 22.3069 5.3202
-15.2983 22.335 5.32855
-15.2542 22.3636 5.33688
-15.2102 22.392 5.34513
-15.1664 22.4204 5.35326
-15.1227 22.4487 5.36128
-15.0793 22.4771 5.36917
-15.0364 22.506 5.37696
-14.9937 22.5347 5.38456
-14.9511 22.5629 5.39188
-14.9084 22.5905 5.39896
-14.8658 22.6177 5.40592
-14.8234 22.6442 5.41246
-14.7809 22.6701 5.41832
-14.7206 22.6658 5.42269
-14.696 22.7212 5.42813
-14.6548 22.7434 5.4321
-14.614 22.7653 5.43563
-14.5736 22.7869 5.43878
-14.5338 22.8088 5.44168
-14.4941 22.8302 5.44429
-14.4548 22.8513 5.44666
-14.4152 22.8717 5.44874
-14.3757 22.8916 5.45056
-14.3364 22.9116 5.45217
-14.2972 22.9315 5.45359
-14.2584 22.9516 5.45483
-14.2197 22.9716 5.4559
-14.1811 22.9916 5.45682
-14.1426 23.0114 5.45759
-14.1041 23.0312 5.45825
-14.0656 23.0511 5.45883
-14.0274 23.0714 5.45936
-13.9895 23.0923 5.45981
-13.9513 23.1125 5.46015
-13.9129 23.1325 5.46041
-13.8753 23.1541 5.46065
-13.8377 23.1757 5.46082
-13.8001 23.1973 5.46091
-13.7625 23.2186 5.46086
-13.7246 23.2396 5.46075
-13.6865 23.2607 5.46064
-13.6483 23.2817 5.46058
-13.61 23.3026 5.4607
-13.5711 23.3232 5.46089
-13.5316 23.3435 5.46126
-13.5026 23.3856 5.46133
-13.4507 23.3861 5.46314
-13.4096 23.4081 5.46434
-13.3682 23.4303 5.46565
-13.3264 23.4526 5.46701
-13.2845 23.475 5.46837
-13.2423 23.4972 5.46971
-13.2012 23.5217 5.47086
-13.1599 23.5462 5.47193
-13.1188 23.5706 5.47274
-13.078 23.5957 5.47332
-13.037 23.6204 5.47382
-12.9961 23.6453 5.4742
-12.9561 23.6719 5.47424
-12.9158 23.6981 5.4742
-12.8754 23.724 5.47407
-12.8352 23.7502 5.47365
-12.7953 23.7766 5.47289
-12.7553 23.8028 5.47193
-12.7152 23.8286 5.47082
-12.6754 23.8547 5.4694
-12.6356 23.8806 5.4678
-12.5956 23.906 5.46603
-12.5558 23.9313 5.46402
-12.5155 23.9558 5.46193
-12.475 23.9797 5.45972
-12.4345 24.0034 5.45725
-12.3945 24.0274 5.45442
-12.3549 24.0518 5.45113
-12.3151 24.0752 5.44764
-12.2755 24.0984 5.44373
-12.2355 24.121 5.43957
-12.1835 24.1217 5.44026
-12.1567 24.1641 5.42924
-12.118 24.1847 5.42306
-12.0796 24.205 5.41663
-12.0415 24.2251 5.40978
-12.0034 24.245 5.40261
-11.9656 24.2648 5.39512
-11.9279 24.2843 5.38733
-11.8902 24.3036 5.37928
-11.8524 24.3225 5.37114
-11.8145 24.3411 5.36281
-11.7768 24.3596 5.35424
-11.739 24.378 5.34546
-11.7012 24.3961 5.3365
-11.6635 24.4142 5.32731
-11.6258 24.4323 5.31792
-11.5881 24.4503 5.30834
-11.5504 24.4682 5.2986
-11.5126 24.486 5.2887
-11.4748 24.5039 5.27863
-11.4367 24.5213 5.26859
-11.3985 24.5386 5.25851
-11.3603 24.5558 5.24833
-11.322 24.5731 5.23807
-11.2832 24.5896 5.2279
-11.2441 24.6058 5.21761
-11.2049 24.6219 5.20726
-11.1655 24.6382 5.19698
-11.1257 24.6541 5.18686
-11.0858 24.6698 5.17675
-11.0456 24.6858 5.1668
-11.0042 24.7016 5.15721
-10.9458 24.6791 5.15832
-10.9179 24.7324 5.14154
-10.8744 24.747 5.13403
-10.8311 24.7615 5.12686
-10.7875 24.7758 5.11984
-10.7437 24.79 5.11276
-10.6999 24.8048 5.10558
-10.6564 24.8206 5.09828
-10.6128 24.8364 5.09086
-10.569 24.8521 5.08309
-10.5251 24.8679 5.07514
-10.481 24.8837 5.06707
-10.4372 24.9003 5.05877
-10.3936 24.9175 5.05034
-10.35 24.9347 5.04179
-10.3063 24.9518 5.0331
-10.2625 24.9689 5.02425
-10.2185 24.9858 5.01525
-10.1744 25.0028 5.00604
-10.1304 25.0196 4.99659
-10.0864 25.0365 4.98688
-10.0425 25.0532 4.97685
-9.99834 25.0687 4.96667
-9.95403 25.0837 4.95624
-9.90974 25.0986 4.94548
-9.86489 25.1123 4.93465
-9.8195 25.124 4.9237
-9.77434 25.1358 4.9122
-9.72941 25.1473 4.9002
-9.68473 25.1584 4.88784
-9.6406 25.17 4.87464
-9.59665 25.1807 4.86026
-9.54432 25.1605 4.85038
-9.51126 25.2002 4.82832
-9.47008 25.2091 4.81089
-9.42944 25.2181 4.7926
-9.38929 25.227 4.77364
-9.34933 25.2356 4.75408
-9.30955 25.2439 4.73404
-9.26987 25.2517 4.71363
-9.23027 25.2594 4.6929
-9.19063 25.2672 4.67201
-9.15107 25.2752 4.65088
-9.11145 25.2828 4.62956
-9.07184 25.2902 4.60805
-9.03225 25.2977 4.58631
-8.99246 25.3044 4.56453
-8.9525 25.3105 4.54274
-8.91253 25.3166 4.52087
-8.87253 25.3225 4.49901
-8.83243 25.3284 4.47716
-8.79218 25.3342 4.45533
-8.7518 25.3404 4.4335
-8.71118 25.3469 4.41173
-8.67029 25.3534 4.39007
-8.62906 25.3598 4.36857
-8.58759 25.3663 4.34718
-8.54604 25.3731 4.32585
-8.50422 25.3803 4.30466
-8.46189 25.3878 4.28373
-8.41885 25.395 4.26319
-8.37509 25.4024 4.243
-8.33076 25.4109 4.22318
-8.28546 25.42 4.20394
-8.24797 25.4631 4.17947
-8.18926 25.4411 4.16877
-8.13934 25.453 4.15262
-8.08843 25.465 4.13713
-8.03698 25.4772 4.12212
-7.98628 25.4922 4.1067
-7.93522 25.5074 4.09161
-7.88371 25.5228 4.07691
-7.83273 25.5405 4.06204
-7.78182 25.5584 4.04735
-7.73074 25.5764 4.0329
-7.68014 25.5961 4.01826
-7.62979 25.617 4.00361
-7.57924 25.638 3.98926
-7.52842 25.6589 3.97521
-7.47795 25.6807 3.96105
-7.42755 25.7026 3.94693
-7.37617 25.7224 3.93346
-7.32413 25.7405 3.9205
-7.27137 25.7567 3.90814
-7.2186 25.7727 3.89597
-7.16616 25.789 3.88387
-7.11381 25.8052 3.87198
-7.06173 25.8216 3.86018
-7.00962 25.8374 3.8487
-6.95742 25.8526 3.83761
-6.90529 25.8671 3.82685
-6.85363 25.8818 3.81615
-6.80239 25.8964 3.80557
-6.75144 25.9109 3.79513
-6.70117 25.9252 3.78478
-6.65193 25.9397 3.77456
-6.60846 25.9681 3.76031
-6.55596 25.9668 3.75491
-6.51018 25.9818 3.74459
-6.46561 25.9963 3.73396
-6.42149 26.0101 3.72364
-6.37791 26.024 3.71328
-6.3351 26.0386 3.70276
-6.29273 26.053 3.69236
-6.25074 26.0673 3.68208
-6.20904 26.0817 3.67189
-6.16793 26.0968 3.66159
-6.12708 26.1117 3.65144
-6.08648 26.1265 3.64144
-6.04618 26.1414 3.63154
-6.0061 26.1563 3.62178
-5.96598 26.1707 3.61235
-5.92624 26.1856 3.60285
-5.88664 26.2007 3.59342
-5.84713 26.2158 3.58414
-5.80772 26.231 3.57502
-5.76838 26.2461 3.56607
-5.72909 26.2612 3.55729
-5.68998 26.2766 3.54857
-5.65098 26.2921 3.53997
-5.612 26.3075 3.53159
-5.57304 26.323 3.52346
-5.53382 26.3379 3.51578
-5.49419 26.352 3.50861
-5.4545 26.3662 3.50161
-5.41497 26.3808 3.49457
-5.37544 26.3957 3.48756
-5.33574 26.4107 3.4807
-5.28862 26.4102 3.48056
-5.25515 26.4415 3.46741
-5.21426 26.4573 3.46098
-5.17327 26.4734 3.45464
-5.13205 26.4894 3.44856
-5.09076 26.5054 3.44269
-5.04919 26.5211 3.43721
-5.00743 26.5366 3.43203
-4.9656 26.552 3.4271
-4.92369 26.5669 3.42257
-4.88201 26.5823 3.41799
-4.84037 26.5978 3.41357
-4.79874 26.6134 3.40932
-4.75704 26.6288 3.40534
-4.71516 26.6438 3.40175
-4.67375 26.6598 3.39783
-4.63241 26.6759 3.39406
-4.59081 26.6913 3.39079
-4.54879 26.7054 3.38829
-4.50685 26.7195 3.38595
-4.46501 26.7337 3.38378
-4.4233 26.748 3.38178
-4.38159 26.762 3.38008
-4.33987 26.7757 3.37873
-4.29833 26.7896 3.37743
-4.25689 26.8038 3.3762
-4.21559 26.818 3.37514
-4.17449 26.8322 3.37427
-4.13394 26.8474 3.37315
-4.09363 26.8626 3.37219
-4.05368 26.878 3.3714
-4.01408 26.8934 3.37087
-3.97504 26.9089 3.37059
-3.93532 26.9204 3.37274
-3.89666 26.9337 3.37435
-3.85833 26.9471 3.37621
-3.82026 26.9605 3.37831
-3.7823 26.9737 3.38064
-3.74419 26.9859 3.38368
-3.70621 26.9981 3.38691
-3.66821 27.0099 3.39044
-3.63019 27.0218 3.39404
-3.59219 27.0338 3.39775
-3.55418 27.0456 3.40164
-3.51618 27.0574 3.40564
-3.4782 27.0692 3.40975
-3.44017 27.0808 3.41403
-3.40209 27.0923 3.41843
-3.36398 27.1038 3.42291
-3.32579 27.1149 3.4276
-3.28751 27.126 3.43236
-3.24906 27.1367 3.43732
-3.21045 27.1474 3.44233
-3.17167 27.1582 3.44731
-3.13269 27.169 3.45229
-3.09349 27.1797 3.45734
-3.05411 27.1905 3.46237
-3.01461 27.2014 3.46741
-2.97484 27.2123 3.47241
-2.93461 27.2228 3.47761
-2.89397 27.2332 3.48281
-2.85294 27.2436 3.48794
-2.81138 27.2541 3.49299
-2.76917 27.2644 3.49801
-2.72627 27.2757 3.50248
-2.68171 27.285 3.50769
-2.63648 27.2953 3.51234
-2.59052 27.3051 3.51711
-2.54402 27.3149 3.52177
-2.49715 27.3248 3.5263
-2.44998 27.3352 3.53057
-2.40237 27.3451 3.53495
-2.35452 27.3551 3.53925
-2.30663 27.3651 3.54345
-2.25859 27.3753 3.54753
-2.21036 27.3855 3.55152
-2.16196 27.3958 3.5554
-2.11342 27.4062 3.55913
-2.0647 27.4166 3.56281
-2.01583 27.427 3.56642
-1.96671 27.437 3.57012
-1.91726 27.4466 3.5739
-1.8677 27.4561 3.57762
-1.81811 27.4657 3.58126
-1.7685 27.4748 3.58496
-1.71873 27.4819 3.5894
-1.66903 27.4889 3.59373
-1.61943 27.4958 3.59795
-1.56968 27.5002 3.60306
-1.51999 27.5039 3.60825
-1.47046 27.5077 3.61327
-1.42118 27.5115 3.61815
-1.37216 27.514 3.62339
-1.32336 27.5164 3.62849
-1.27498 27.5186 3.63348
-1.22711 27.5205 3.63842
-1.17997 27.5117 3.64772
-1.13361 27.5238 3.64789
-1.08815 27.5243 3.65281
-1.04357 27.5238 3.65787
-0.999404 27.5234 3.6627
-0.955426 27.5231 3.66729
-0.911836 27.521 3.67243
-0.868658 27.5176 3.67795
-0.825845 27.5128 3.68385
-0.783266 27.5077 3.68974
-0.740815 27.5024 3.69557
-0.698441 27.4969 3.70134
-0.656111 27.4912 3.70701
-0.613872 27.4852 3.71267
-0.571772 27.4783 3.71856
-0.529079 27.4737 3.72339
-0.486203 27.4686 3.7283
-0.442975 27.4631 3.73329
-0.39951 27.4575 3.7382
-0.355249 27.4559 3.74136
-0.31067 27.4551 3.74407
-0.26604 27.4541 3.74671
-0.22133 27.4528 3.74932
-0.176191 27.4535 3.75098
-0.131298 27.4579 3.75085
-0.0866988 27.4622 3.75053
-0.0419869 27.4665 3.75003
0.00310584 27.4704 3.74958
0.0483379 27.4772 3.74756
0.0937921 27.4841 3.74535
0.13977 27.491 3.7429
0.185964 27.4982 3.74004
0.236739 27.4874 3.74513
0.28182 27.5136 3.73149
0.331657 27.5204 3.72679
0.38179 27.525 3.72381
0.432461 27.5294 3.72078
0.483267 27.5337 3.71754
0.534446 27.537 3.71464
0.586109 27.5387 3.71247
0.637966 27.5404 3.7102
0.689801 27.5422 3.70799
0.741741 27.5439 3.70576
0.793885 27.5446 3.70401
0.846199 27.5453 3.70216
0.89874 27.5467 3.69974
0.951304 27.5498 3.69629
1.00395 27.5528 3.69274
1.05662 27.5561 3.68893
1.10924 27.5595 3.68495
1.16186 27.5628 3.68088
1.21451 27.5661 3.67673
1.26716 27.5695 3.67247
1.31978 27.573 3.66802
1.37242 27.5765 3.66349
1.42507 27.58 3.65891
1.47782 27.5832 3.65446
1.53086 27.5853 3.65063
1.58395 27.5873 3.64679
1.63693 27.5893 3.64289
1.68986 27.5909 3.63915
1.74277 27.5914 3.63599
1.79557 27.5918 3.6328
1.84849 27.5918 3.62947
1.90203 27.5594 3.64361
1.95423 27.59 3.62429
2.00598 27.5886 3.62175
2.0575 27.587 3.61937
2.10883 27.5851 3.61706
2.15992 27.5833 3.61482
2.21082 27.5812 3.61276
2.26157 27.5788 3.61076
2.31216 27.5763 3.60883
2.36259 27.5736 3.60699
2.41288 27.5708 3.60513
2.46303 27.568 3.60328
2.51304 27.565 3.60145
2.56292 27.5618 3.5998
2.61267 27.5585 3.5981
2.66232 27.5553 3.59636
2.71188 27.552 3.5946
2.76135 27.5479 3.59319
2.81074 27.5441 3.59164
2.86002 27.5403 3.59003
2.90916 27.5365 3.58842
2.95809 27.5323 3.58697
3.00685 27.5278 3.58573
3.05548 27.5233 3.58452
3.10399 27.5188 3.58335
3.15234 27.5139 3.58254
3.20056 27.5087 3.5819
3.24852 27.5037 3.58136
3.29656 27.4986 3.58077
3.34484 27.4906 3.58121
3.39317 27.4822 3.58185
3.44133 27.4737 3.58254
3.48063 27.4185 3.60872
3.53727 27.4551 3.5862
3.58302 27.4468 3.5887
3.62901 27.4385 3.59058
3.67457 27.4291 3.59309
3.71961 27.4198 3.59539
3.7644 27.4107 3.59755
3.80903 27.4018 3.59967
3.85335 27.3924 3.60206
3.89746 27.3827 3.60457
3.94142 27.3729 3.60706
3.98527 27.3634 3.60948
4.02895 27.3537 3.61198
4.07244 27.3437 3.61461
4.1157 27.3333 3.61745
4.15883 27.3228 3.62034
4.20178 27.3119 3.62344
4.24476 27.3009 3.62648
4.28748 27.2893 3.62984
4.32939 27.2756 3.63433
4.37125 27.262 3.63876
4.41328 27.249 3.64272
4.45529 27.236 3.64656
4.49703 27.2225 3.65066
4.53875 27.209 3.65474
4.5805 27.1955 3.65885
4.62221 27.182 3.66292
4.66349 27.1677 3.66737
4.70468 27.1533 3.67178
4.74596 27.1387 3.67604
4.78687 27.1236 3.68057
4.82784 27.1082 3.68517
4.85643 27.0655 3.70436
4.90843 27.0778 3.69449
4.94875 27.0629 3.69856
4.98894 27.0479 3.70255
5.02889 27.0327 3.70658
5.0686 27.0173 3.71062
5.10844 27.0023 3.71432
5.14823 26.9874 3.71795
5.188 26.9725 3.72153
5.22773 26.9574 3.72516
5.26739 26.9421 3.72882
5.30706 26.9268 3.7324
5.34665 26.9114 3.736
5.38579 26.8951 3.74008
5.42492 26.8788 3.74412
5.46379 26.8619 3.74846
5.50236 26.8445 3.75314
5.54116 26.8276 3.75756
5.57995 26.8108 3.76199
5.61868 26.7938 3.76652
5.65697 26.776 3.77154
5.6954 26.7583 3.77642
5.73408 26.741 3.78105
5.77264 26.7234 3.78584
5.81083 26.7052 3.79101
5.849 26.687 3.7962
5.8872 26.6687 3.80138
5.92499 26.6495 3.80702
5.96267 26.6299 3.81283
6.00046 26.6103 3.81858
6.0387 26.5912 3.82395
6.07693 26.572 3.82934
6.12401 26.5675 3.82608
6.15387 26.5329 3.83982
6.19254 26.5136 3.84489
6.23123 26.494 3.85009
6.26997 26.4742 3.85529
6.30889 26.4546 3.86049
6.34852 26.4362 3.86508
6.38825 26.4177 3.86969
6.428 26.3991 3.87435
6.46803 26.381 3.87873
6.50805 26.3628 3.88319
6.54812 26.3447 3.8877
6.58867 26.3273 3.89182
6.6293 26.3099 3.89601
6.6696 26.2918 3.90063
6.71015 26.274 3.90511
6.75119 26.2574 3.90922
6.79215 26.2409 3.91345
6.83305 26.2242 3.91783
6.87394 26.2075 3.92236
6.9153 26.1916 3.92661
6.95678 26.1759 3.93095
6.99827 26.1599 3.93544
7.03963 26.1434 3.94024
7.08111 26.127 3.94509
7.1227 26.1106 3.94997
7.16432 26.0939 3.95504
7.20596 26.0769 3.96037
7.24779 26.0599 3.9658
7.28976 26.043 3.9714
7.33196 26.0261 3.97717
7.37445 26.0093 3.98312
7.41257 25.9819 3.99344
7.46055 25.9747 3.99632
7.50402 25.9572 4.00347
7.54766 25.9395 4.01088
7.59097 25.9208 4.01889
7.63426 25.902 4.0271
7.67776 25.8834 4.03535
7.72229 25.867 4.04291
7.76689 25.8507 4.05057
7.81194 25.8352 4.05793
7.8576 25.8211 4.06485
7.90334 25.807 4.07183
7.94906 25.7927 4.07893
7.99478 25.7782 4.08612
8.04082 25.7646 4.09305
8.0876 25.7531 4.09929
8.13461 25.742 4.10534
8.18186 25.7311 4.1112
8.22965 25.7221 4.11648
8.27746 25.7128 4.12174
8.32528 25.7035 4.12693
8.3734 25.6955 4.13171
8.42158 25.6879 4.13631
8.47002 25.6819 4.14049
8.51852 25.6761 4.14454
