BEGIN_Polyline
-29.6584 -10.238 5.41396
-29.668 -10.1929 5.41316
-29.6762 -10.1474 5.41234
-29.6839 -10.1018 5.41246
-29.6917 -10.0562 5.41254
-29.6997 -10.0106 5.41392
-29.708 -9.9649 5.41634
-29.7173 -9.91934 5.41986
-29.7276 -9.87407 5.42301
-29.736 -9.82814 5.42535
-29.7462 -9.78258 5.42979
-29.7562 -9.73696 5.43529
-29.7651 -9.69108 5.44006
-29.7718 -9.64472 5.44464
-29.778 -9.59823 5.44983
-29.7835 -9.55169 5.45556
-29.7868 -9.50488 5.45924
-29.7898 -9.45794 5.46334
-29.7926 -9.4108 5.46782
-29.7951 -9.36355 5.47274
-29.7976 -9.31651 5.47768
-29.8011 -9.26937 5.48353
-29.8049 -9.22239 5.48941
-29.7871 -9.17129 5.47961
-29.8135 -9.12438 5.49696
-29.8136 -9.07756 5.49877
-29.8156 -9.03034 5.5011
-29.8191 -8.98353 5.50488
-29.823 -8.9361 5.50826
-29.8266 -8.88834 5.51173
-29.8296 -8.84061 5.51536
-29.8322 -8.79287 5.51938
-29.835 -8.7452 5.52313
-29.8371 -8.6975 5.52733
-29.8423 -8.65002 5.53477
-29.848 -8.60297 5.54395
-29.8491 -8.55532 5.54987
-29.8497 -8.50774 5.55646
-29.8499 -8.46021 5.5636
-29.8508 -8.41275 5.5714
-29.8533 -8.36532 5.57925
-29.8558 -8.3179 5.58724
-29.8593 -8.27081 5.59669
-29.8622 -8.22385 5.60688
-29.8638 -8.17668 5.61631
-29.8651 -8.12977 5.62679
-29.8659 -8.08301 5.63784
-29.8664 -8.03643 5.64946
-29.8669 -7.98974 5.66062
-29.8673 -7.94325 5.67226
-29.8672 -7.89674 5.68419
-29.8667 -7.85063 5.69657
-29.8675 -7.80513 5.70989
-29.8691 -7.76002 5.72393
-29.8707 -7.71487 5.73801
-29.8454 -7.66292 5.73444
-29.875 -7.62319 5.76502
-29.8777 -7.57668 5.77792
-29.8804 -7.53015 5.79085
-29.8831 -7.48389 5.80385
-29.8806 -7.43703 5.81359
-29.8777 -7.39027 5.82385
-29.8746 -7.34347 5.83451
-29.8712 -7.29706 5.84535
-29.8682 -7.25086 5.85569
-29.8637 -7.20521 5.86528
-29.8569 -7.15984 5.87375
-29.8497 -7.11473 5.88281
-29.8424 -7.06942 5.89197
-29.8347 -7.02426 5.90171
-29.8266 -6.97932 5.91172
-29.8183 -6.93453 5.92192
-29.8107 -6.88959 5.93203
-29.8037 -6.84482 5.94275
-29.7964 -6.80024 5.95382
-29.7888 -6.7559 5.96531
-29.7812 -6.71153 5.97676
-29.7733 -6.66739 5.9887
-29.7669 -6.62347 6.00228
-29.7604 -6.57975 6.01644
-29.7505 -6.53606 6.02841
-29.7406 -6.49233 6.0404
-29.7306 -6.44859 6.05251
-29.7207 -6.405 6.06457
-29.7107 -6.36133 6.07711
-29.7083 -6.31778 6.09202
-29.7059 -6.27403 6.10673
-29.6931 -6.22924 6.11747
-29.7016 -6.18543 6.13474
-29.6998 -6.14071 6.148
-29.698 -6.09585 6.16105
-29.6962 -6.05105 6.17396
-29.69 -6.00629 6.18564
-29.6807 -5.96158 6.19652
-29.6715 -5.91671 6.2074
-29.6622 -5.8721 6.21847
-29.6529 -5.82793 6.2296
-29.6436 -5.78428 6.24115
-29.6322 -5.74095 6.2527
-29.6168 -5.69858 6.26309
-29.6017 -5.65607 6.27345
-29.5864 -5.61369 6.28389
-29.5755 -5.57023 6.29668
-29.5682 -5.52644 6.311
-29.5609 -5.48313 6.32503
-29.5539 -5.43986 6.33872
-29.547 -5.39638 6.35238
-29.5399 -5.35283 6.3661
-29.5329 -5.30936 6.37991
-29.5224 -5.26582 6.39219
-29.5146 -5.22222 6.40645
-29.5092 -5.17896 6.42272
-29.5039 -5.1359 6.43884
-29.4983 -5.09297 6.45529
-29.4927 -5.05006 6.47214
-29.4867 -5.00717 6.4894
-29.4805 -4.96425 6.5065
-29.474 -4.92132 6.52398
-29.4674 -4.87837 6.54168
-29.4448 -4.83334 6.5486
-29.4535 -4.79273 6.57788
-29.4468 -4.74963 6.59533
-29.4401 -4.70652 6.61295
-29.4332 -4.66338 6.63079
-29.4262 -4.62025 6.64871
-29.419 -4.57715 6.66686
-29.4118 -4.53407 6.68512
-29.4045 -4.491 6.7035
-29.3972 -4.4479 6.72183
-29.3879 -4.40456 6.73872
-29.376 -4.36099 6.75333
-29.3641 -4.31732 6.7684
-29.3523 -4.27366 6.78348
-29.3403 -4.23001 6.79865
-29.3283 -4.18636 6.81385
-29.3163 -4.14281 6.82901
-29.3044 -4.09937 6.84408
-29.2927 -4.05603 6.85901
-29.281 -4.01271 6.87388
-29.2694 -3.96936 6.88868
-29.2577 -3.92593 6.9035
-29.2461 -3.88241 6.91827
-29.2346 -3.83886 6.93297
-29.2231 -3.79535 6.94765
-29.2118 -3.75201 6.96274
-29.2007 -3.70862 6.97781
-29.1896 -3.66506 6.99279
-29.1786 -3.62135 7.00765
-29.1676 -3.57785 7.02257
-29.1567 -3.53396 7.0373
-29.1461 -3.4897 7.05183
-29.0903 -3.44146 7.02325
-29.1233 -3.39929 7.0814
-29.1138 -3.35354 7.09483
-29.1024 -3.30765 7.10744
-29.0908 -3.26111 7.11875
-29.0782 -3.21625 7.13127
-29.0654 -3.17206 7.14406
-29.0522 -3.12759 7.15581
-29.039 -3.08314 7.16723
-29.0249 -3.0388 7.17812
-29.0107 -2.99446 7.18857
-28.9967 -2.95012 7.1988
-28.9816 -2.90582 7.20762
-28.9665 -2.86143 7.21639
-28.9516 -2.81701 7.22491
-28.9369 -2.77264 7.2332
-28.9224 -2.72846 7.24129
-28.9078 -2.68443 7.24953
-28.8935 -2.6406 7.25756
-28.8791 -2.59683 7.26516
-28.8641 -2.55327 7.27153
-28.8492 -2.50968 7.27807
-28.8344 -2.46598 7.28424
-28.8198 -2.42221 7.29038
-28.8054 -2.37818 7.29616
-28.7897 -2.33413 7.30068
-28.774 -2.28995 7.30512
-28.7584 -2.24596 7.30968
-28.7442 -2.20175 7.31571
-28.7306 -2.1574 7.32195
-28.7165 -2.11297 7.32862
-28.7015 -2.06748 7.33642
-28.7406 -2.01491 7.3961
-28.6724 -1.97668 7.35532
-28.6579 -1.9325 7.36503
-28.6432 -1.8884 7.37494
-28.6284 -1.84459 7.38499
-28.6135 -1.80065 7.39509
-28.5991 -1.75688 7.40481
-28.5873 -1.713 7.41632
-28.5773 -1.66912 7.42826
-28.5678 -1.6252 7.44004
-28.5598 -1.58125 7.45173
-28.5521 -1.53733 7.46304
-28.5444 -1.49338 7.4739
-28.5361 -1.44931 7.48477
-28.5279 -1.40532 7.4954
-28.5208 -1.36139 7.50629
-28.5146 -1.31775 7.51731
-28.5083 -1.2744 7.52849
-28.5022 -1.23116 7.53939
-28.502 -1.18789 7.5533
-28.5036 -1.14426 7.56815
-28.5053 -1.10075 7.58229
-28.5071 -1.05662 7.59648
-28.5088 -1.01194 7.61103
-28.5105 -0.966821 7.62585
-28.5122 -0.922153 7.6406
-28.5139 -0.876963 7.65554
-28.5157 -0.831188 7.67061
-28.5175 -0.784551 7.68582
-28.5159 -0.737517 7.70027
-28.5136 -0.68954 7.71452
-28.5113 -0.64105 7.72874
-28.5071 -0.592351 7.74258
-28.5067 -0.544388 7.75729
-28.5044 -0.496397 7.77147
-28.5029 -0.448055 7.78561
-28.5014 -0.399194 7.79943
-28.5 -0.350196 7.81321
-28.4987 -0.300632 7.82659
-28.4974 -0.250757 7.83968
-28.4962 -0.200598 7.85256
-28.495 -0.150654 7.86576
-28.4938 -0.100609 7.8787
-28.4926 -0.0503994 7.89133
-28.4904 -2.92529e-05 7.90311
-28.4859 0.050334 7.91409
-28.4815 0.100795 7.9248
-28.4771 0.151264 7.93533
-28.4727 0.201771 7.94592
-28.4683 0.252363 7.95688
-28.4637 0.302783 7.96789
-28.4592 0.353005 7.97886
-28.4551 0.402903 7.98933
-28.4519 0.452817 7.9993
-28.4487 0.502303 8.00913
-28.4455 0.551453 8.0192
-28.4419 0.600285 8.03038
-28.438 0.649368 8.04255
-28.4318 0.698098 8.05512
-28.4242 0.745733 8.06793
-28.4172 0.794326 8.07953
-28.4098 0.845223 8.08746
-28.3997 0.896938 8.0916
-28.3898 0.948017 8.09543
-28.2891 0.983813 8.06367
-28.3681 1.04956 8.10811
-28.3564 1.09797 8.11682
-28.3442 1.14286 8.12329
-28.3324 1.18622 8.12954
-28.3207 1.23016 8.13536
-28.3093 1.27348 8.14062
-28.2982 1.3161 8.14567
-28.2907 1.35937 8.1521
-28.2832 1.40344 8.15887
-28.2757 1.44771 8.16545
-28.2683 1.49165 8.17175
-28.2612 1.53502 8.17764
-28.254 1.57809 8.18345
-28.2461 1.62035 8.18845
-28.2358 1.6619 8.19214
-28.2256 1.70336 8.19574
-28.2152 1.74516 8.1996
-28.2048 1.78705 8.20343
-28.1945 1.82887 8.20714
-28.1845 1.87056 8.2107
-28.1748 1.91214 8.21434
-28.1653 1.95366 8.2178
-28.1558 1.99525 8.22118
-28.1462 2.03705 8.22453
-28.1366 2.07897 8.22798
-28.1269 2.12116 8.23145
-28.1144 2.16283 8.23366
-28.1018 2.20496 8.23587
-28.0892 2.24745 8.23789
-28.0758 2.28982 8.23972
-28.062 2.3327 8.24182
-27.9857 2.35648 8.21146
-28.0355 2.41562 8.24589
-28.0222 2.45657 8.24836
-28.0101 2.50074 8.25365
-27.9977 2.54455 8.25824
-27.9835 2.58691 8.26075
-27.9697 2.62916 8.26268
-27.9574 2.67243 8.26578
-27.9454 2.71617 8.26886
-27.9334 2.75983 8.27197
-27.9215 2.80377 8.27493
-27.9096 2.84789 8.27776
-27.8947 2.89155 8.27876
-27.8798 2.93518 8.27981
-27.8649 2.9788 8.28074
-27.8499 3.02242 8.28159
-27.8342 3.06539 8.28165
-27.8168 3.10736 8.28043
-27.7995 3.14911 8.27916
-27.7823 3.19085 8.27787
-27.765 3.23265 8.27656
-27.7478 3.27458 8.27525
-27.7304 3.31671 8.27398
-27.7129 3.35897 8.27275
-27.6953 3.40134 8.27166
-27.6777 3.44353 8.27065
-27.66 3.48591 8.26974
-27.641 3.52811 8.26801
-27.6214 3.57025 8.26597
-27.6042 3.6134 8.26592
-27.5869 3.65674 8.26594
-27.5698 3.70008 8.26613
-27.5216 3.73163 8.24151
-27.536 3.78718 8.26691
-27.5189 3.83095 8.26734
-27.5016 3.87467 8.2675
-27.4841 3.91854 8.26765
-27.4667 3.96234 8.26766
-27.4492 4.00617 8.26754
-27.4309 4.04989 8.26701
-27.4127 4.0936 8.2665
-27.3945 4.13715 8.26596
-27.3763 4.18063 8.26545
-27.3574 4.22387 8.26439
-27.3384 4.26718 8.26339
-27.3194 4.31052 8.26241
-27.3003 4.35398 8.26146
-27.2812 4.39749 8.26054
-27.262 4.44113 8.2596
-27.2428 4.48481 8.25862
-27.2233 4.52835 8.25729
-27.2032 4.57163 8.2555
-27.1828 4.61473 8.25348
-27.1625 4.6578 8.25145
-27.1422 4.70077 8.24945
-27.122 4.74363 8.24745
-27.1017 4.78643 8.2455
-27.0814 4.82934 8.24359
-27.0611 4.87209 8.24171
-27.041 4.91449 8.2397
-27.0208 4.95695 8.23787
-26.9965 4.99789 8.23315
-26.9714 5.03884 8.22829
-26.9468 5.07976 8.22283
-26.8986 5.10274 8.19452
-26.8985 5.16032 8.21195
-26.8748 5.1996 8.20676
-26.8514 5.23851 8.20153
-26.8284 5.27691 8.19634
-26.8053 5.31546 8.19114
-26.7823 5.35372 8.18598
-26.7596 5.39172 8.18082
-26.7368 5.42961 8.1757
-26.7139 5.46773 8.1706
-26.6909 5.50572 8.16535
-26.6682 5.54391 8.16045
-26.6473 5.58295 8.1569
-26.6264 5.62186 8.15328
-26.6055 5.66062 8.14954
-26.5846 5.69937 8.14577
-26.5635 5.73807 8.1419
-26.5424 5.77679 8.13809
-26.5211 5.81565 8.13428
-26.4998 5.85462 8.13046
-26.4785 5.89371 8.12657
-26.4573 5.9327 8.12265
-26.4361 5.97189 8.11867
-26.4147 6.01127 8.11465
-26.3931 6.05095 8.11064
-26.3715 6.09064 8.10672
-26.3526 6.13248 8.10553
-26.3348 6.17508 8.1051
-26.3167 6.21791 8.10486
-26.2973 6.25987 8.10384
-26.2778 6.30186 8.10292
-26.2583 6.34401 8.10197
-26.272 6.40213 8.12469
-26.2195 6.42835 8.09961
-26.2004 6.47057 8.09808
-26.1813 6.51294 8.0964
-26.1622 6.5555 8.09452
-26.1431 6.59801 8.09267
-26.1247 6.64109 8.09122
-26.1073 6.68485 8.09039
-26.0898 6.72871 8.0895
-26.0724 6.77233 8.08859
-26.0551 6.81597 8.08762
-26.0377 6.85976 8.08662
-26.0203 6.90375 8.08558
-26.0028 6.9478 8.08453
-25.9855 6.99212 8.08365
-25.9685 7.03666 8.083
-25.9516 7.08134 8.08255
-25.9348 7.12593 8.08217
-25.9179 7.17049 8.08186
-25.901 7.21509 8.08156
-25.8839 7.25964 8.08119
-25.8665 7.3041 8.08062
-25.8491 7.34857 8.08004
-25.8317 7.39302 8.07948
-25.8126 7.43675 8.07748
-25.7944 7.48135 8.07606
-25.7738 7.52386 8.07259
-25.7549 7.56762 8.0707
-25.736 7.61124 8.06886
-25.7172 7.65476 8.06698
-25.6996 7.69874 8.06631
-25.6833 7.74306 8.06676
-25.6596 7.78476 8.06138
-25.6486 7.83137 8.06678
-25.6311 7.87517 8.06627
-25.6137 7.91909 8.06613
-25.5978 7.96342 8.06743
-25.5816 8.00777 8.06846
-25.5637 8.05142 8.06828
-25.5458 8.09498 8.06816
-25.5285 8.13868 8.06862
-25.5115 8.18245 8.06925
-25.4952 8.22635 8.07041
-25.479 8.27029 8.07181
-25.4625 8.31402 8.07291
-25.445 8.35732 8.073
-25.4275 8.40072 8.07327
-25.4105 8.44433 8.074
-25.3934 8.48806 8.07477
-25.3761 8.53185 8.0756
-25.3565 8.57492 8.07415
-25.3365 8.61805 8.07286
-25.32 8.66233 8.07366
-25.3026 8.7062 8.07366
-25.2829 8.74882 8.07143
-25.2631 8.79151 8.06918
-25.2433 8.83422 8.06708
-25.2231 8.87676 8.0651
-25.2024 8.91926 8.06297
-25.1814 8.96232 8.06092
-25.1611 9.0048 8.05838
-25.1428 9.04627 8.05601
-25.1268 9.08845 8.05432
-25.1108 9.13139 8.05217
-25.018 9.14509 7.99301
-25.0747 9.22182 8.05074
-25.0542 9.26913 8.0497
-25.0322 9.31568 8.04363
-25.0083 9.36307 8.03635
-24.9857 9.40563 8.03105
-24.9635 9.4459 8.02608
-24.9411 9.48713 8.0198
-24.9185 9.52819 8.01406
-24.8954 9.56904 8.00947
-24.8718 9.60962 8.00595
-24.8482 9.65014 8.00258
-24.8242 9.69041 7.99912
-24.8 9.73054 7.99503
-24.7755 9.77051 7.99051
-24.7508 9.81021 7.98575
-24.7261 9.8499 7.98091
-24.7014 9.88957 7.97609
-24.6768 9.92923 7.97116
-24.6522 9.96888 7.96614
-24.6278 10.0086 7.96097
-24.6033 10.0484 7.95577
-24.5788 10.0882 7.95049
-24.5544 10.1279 7.94515
-24.53 10.1676 7.93985
-24.5057 10.2071 7.93464
-24.4825 10.2472 7.9302
-24.4595 10.2875 7.92588
-24.4364 10.3279 7.92152
-24.4133 10.3684 7.91718
-24.39 10.409 7.91265
-24.3655 10.4498 7.90776
-24.2978 10.4605 7.87162
-24.316 10.5309 7.89748
-24.2916 10.5711 7.89222
-24.2672 10.6114 7.8869
-24.2429 10.6518 7.88147
-24.2184 10.6921 7.87608
-24.1939 10.7324 7.8704
-24.1694 10.7725 7.86456
-24.1445 10.8123 7.85829
-24.1192 10.8516 7.85168
-24.094 10.8908 7.84502
-24.0689 10.9299 7.83831
-24.0439 10.969 7.83157
-24.0188 11.0082 7.82489
-23.9938 11.0474 7.8182
-23.9688 11.0866 7.8115
-23.9437 11.1258 7.80477
-23.9193 11.1656 7.79842
-23.8951 11.2056 7.7924
-23.8709 11.2456 7.78637
-23.8467 11.2855 7.78042
-23.8225 11.3253 7.7745
-23.7983 11.3651 7.76868
-23.774 11.4049 7.76295
-23.7494 11.4443 7.75703
-23.7238 11.483 7.75011
-23.6981 11.5216 7.7433
-23.6723 11.5602 7.73664
-23.6454 11.5979 7.72944
-23.6184 11.6356 7.72211
-23.5903 11.6723 7.71426
-23.5616 11.7086 7.70616
-23.529 11.7412 7.69512
-23.5039 11.7811 7.69014
-23.4751 11.8173 7.68221
-23.4462 11.8535 7.67451
-23.4175 11.8899 7.66717
-23.3888 11.9262 7.65983
-23.3601 11.9624 7.65264
-23.3313 11.9985 7.64553
-23.3027 12.0346 7.63847
-23.274 12.0707 7.6313
-23.2455 12.1067 7.62412
-23.2177 12.1433 7.61763
-23.1916 12.1812 7.61235
-23.1656 12.2191 7.60706
-23.1395 12.2569 7.60182
-23.1134 12.2948 7.59663
-23.0873 12.3326 7.59147
-23.0611 12.3706 7.58629
-23.0351 12.4087 7.58122
-23.0095 12.4473 7.57651
-22.9843 12.4861 7.57199
-22.9599 12.5253 7.56785
-22.9354 12.5646 7.56374
-22.911 12.6038 7.55963
-22.8863 12.6433 7.55557
-22.8614 12.6832 7.5516
-22.8364 12.7231 7.54761
-22.8116 12.7627 7.54352
-22.789 12.8036 7.54043
-22.7669 12.8447 7.53767
-22.7447 12.8861 7.53484
-22.7234 12.9299 7.53182
-22.7628 13.0054 7.56004
-22.6809 13.0176 7.52666
-22.6598 13.0603 7.52478
-22.6397 13.1029 7.52306
-22.6212 13.1462 7.52199
-22.6031 13.1887 7.52078
-22.5854 13.2306 7.51927
-22.5678 13.2725 7.51761
-22.5502 13.3144 7.51577
-22.5326 13.3565 7.51405
-22.515 13.3986 7.51213
-22.4975 13.4407 7.51003
-22.4802 13.4827 7.50767
-22.4629 13.5247 7.50524
-22.4457 13.5667 7.50264
-22.4285 13.6087 7.49995
-22.4088 13.6496 7.49612
-22.3902 13.6912 7.4932
-22.3714 13.7328 7.49035
-22.3517 13.7739 7.48687
-22.3321 13.8151 7.48318
-22.3126 13.8563 7.47938
-22.2931 13.8974 7.4752
-22.2737 13.9386 7.47084
-22.2542 13.9798 7.46642
-22.2345 14.0212 7.46229
-22.2148 14.0625 7.45792
-22.193 14.1025 7.45193
-22.1713 14.1427 7.44566
-22.1497 14.1829 7.43931
-22.1283 14.2231 7.43269
-22.1078 14.2628 7.42702
-22.0591 14.2858 7.39984
-22.0683 14.3436 7.41618
-22.0485 14.3848 7.41016
-22.0289 14.4258 7.40398
-22.0095 14.467 7.39746
-21.9902 14.5081 7.3909
-21.9711 14.5492 7.38416
-21.952 14.5903 7.37728
-21.9329 14.6313 7.37049
-21.9138 14.6724 7.36412
-21.895 14.7136 7.35814
-21.8744 14.7537 7.35055
-21.8525 14.7929 7.34181
-21.8307 14.8322 7.33308
-21.809 14.8714 7.32391
-21.7874 14.9105 7.3144
-21.766 14.9495 7.30463
-21.7447 14.9883 7.29502
-21.7234 15.027 7.28532
-21.7022 15.0658 7.27544
-21.681 15.1045 7.26561
-21.659 15.1426 7.25571
-21.6354 15.1799 7.24509
-21.6117 15.2174 7.23422
-21.588 15.2553 7.2226
-21.5644 15.2933 7.21045
-21.5407 15.3316 7.19786
-21.5162 15.3694 7.18499
-21.4893 15.4068 7.17222
-21.4613 15.4446 7.1605
-21.432 15.4822 7.14846
-21.4017 15.5201 7.13713
-21.3224 15.5137 7.10826
-21.3419 15.5955 7.11329
-21.3125 15.6328 7.10101
-21.2826 15.6704 7.08981
-21.2525 15.7082 7.0789
-21.2222 15.7462 7.06802
-21.1918 15.7842 7.05725
-21.1614 15.8223 7.04652
-21.1311 15.8602 7.03576
-21.1009 15.8979 7.02491
-21.0709 15.9354 7.01385
-21.0381 15.9701 7.00162
-21.0064 16.0056 6.98956
-20.9749 16.041 6.97754
-20.9435 16.0765 6.96524
-20.9122 16.1118 6.95269
-20.8807 16.1476 6.93991
-20.8485 16.1839 6.92731
-20.8163 16.2203 6.91442
-20.7843 16.256 6.90112
-20.7528 16.2909 6.8873
-20.7214 16.3257 6.87334
-20.6924 16.3607 6.85954
-20.666 16.3966 6.8463
-20.6406 16.4325 6.83323
-20.6138 16.4688 6.82024
-20.5867 16.5032 6.80677
-20.5606 16.5366 6.79329
-20.5361 16.5684 6.77981
-20.5118 16.6002 6.76617
-20.4889 16.6305 6.75267
-20.467 16.6597 6.73933
-20.4396 16.6821 6.72265
-20.423 16.7178 6.71364
-20.4009 16.7467 6.70122
-20.3796 16.7748 6.68889
-20.3595 16.8016 6.67663
-20.3397 16.8282 6.66432
-20.321 16.8538 6.65178
-20.3039 16.8796 6.63957
-20.2874 16.905 6.6271
-20.2702 16.9311 6.61468
-20.2533 16.9571 6.60186
-20.2368 16.9828 6.58878
-20.2209 17.0082 6.57521
-20.205 17.0337 6.56151
-20.1895 17.0589 6.54756
-20.1738 17.0836 6.53307
-20.1563 17.1058 6.51796
-20.1391 17.1276 6.50374
-20.1226 17.1505 6.49002
-20.1059 17.1737 6.47592
-20.0886 17.1979 6.46111
-20.0712 17.2222 6.44608
-20.0529 17.2478 6.42997
-20.0328 17.2732 6.4127
-20.0122 17.2992 6.39487
-19.9925 17.3241 6.37785
-19.972 17.3501 6.36006
-19.9504 17.3775 6.34129
-19.9271 17.4069 6.32109
-19.9037 17.4366 6.30085
-19.8786 17.4683 6.27919
-19.8528 17.5015 6.25651
-19.8117 17.5206 6.22769
-19.8023 17.5688 6.21087
-19.7769 17.6027 6.18811
-19.7494 17.6368 6.16432
-19.7195 17.6725 6.13934
-19.6898 17.7084 6.11445
-19.6585 17.7463 6.08889
-19.6256 17.7851 6.06276
-19.5904 17.8234 6.03599
-19.5563 17.8606 6.00962
-19.5215 17.8984 5.98333
-19.4859 17.9369 5.95691
-19.4496 17.977 5.93057
-19.4133 18.0176 5.90433
-19.3795 18.0624 5.879
-19.3457 18.1078 5.85383
-19.3118 18.1534 5.82844
-19.276 18.1966 5.80195
-19.2406 18.2393 5.77561
-19.2051 18.2818 5.74983
-19.1701 18.3243 5.72507
-19.1374 18.3688 5.70092
-19.1049 18.4129 5.6781
-19.0725 18.4565 5.65625
-19.0401 18.5 5.63523
-19.0072 18.5442 5.61329
-18.9748 18.5878 5.59237
-18.943 18.6309 5.5726
-18.9119 18.6726 5.55461
-18.8823 18.7153 5.53723
-18.8549 18.7578 5.52152
-18.8282 18.7992 5.5067
-18.803 18.8408 5.49206
-18.7733 18.8808 5.47504
-18.7457 18.9211 5.45822
-18.7187 18.9602 5.44234
-18.691 18.9961 5.42784
-18.6633 19.0318 5.4137
-18.6369 19.0659 5.40163
-18.6118 19.0993 5.39097
-18.5877 19.132 5.38153
-18.5635 19.1661 5.37099
-18.5402 19.1999 5.36161
-18.5174 19.2329 5.35354
-18.4951 19.2645 5.34731
-18.4729 19.2958 5.34127
-18.451 19.3263 5.33665
-18.4294 19.3565 5.33289
-18.4075 19.3868 5.32939
-18.3852 19.418 5.32478
-18.3626 19.4497 5.32004
-18.3399 19.4813 5.3158
-18.3174 19.5127 5.31213
-18.2947 19.5437 5.30849
-18.2721 19.5742 5.30558
-18.2493 19.6043 5.30302
-18.2269 19.6341 5.3012
-18.2045 19.664 5.29959
-18.1822 19.6936 5.29818
-18.16 19.7231 5.29661
-18.1379 19.7526 5.29485
-18.1158 19.7821 5.29336
-18.0936 19.8117 5.29085
-18.0704 19.8421 5.28489
-17.9902 19.8274 5.27585
-18.0232 19.9019 5.27219
-17.9998 19.9313 5.26677
-17.9762 19.9611 5.26043
-17.9525 19.9912 5.25322
-17.9287 20.0212 5.24588
-17.9041 20.0511 5.23804
-17.8787 20.081 5.23006
-17.8531 20.1111 5.22198
-17.828 20.1408 5.21398
-17.8023 20.1702 5.20617
-17.7759 20.1994 5.19849
-17.7492 20.2291 5.19111
-17.7222 20.2589 5.18375
-17.6949 20.2892 5.17678
-17.6675 20.3195 5.17016
-17.6402 20.3497 5.16369
-17.6135 20.3792 5.15671
-17.5869 20.4087 5.1501
-17.56 20.4384 5.14406
-17.5327 20.4685 5.13889
-17.5049 20.4983 5.13375
-17.4764 20.5287 5.1296
-17.4468 20.5593 5.12606
-17.4151 20.5887 5.12302
-17.3839 20.6177 5.11949
-17.352 20.6473 5.11639
-17.3193 20.6776 5.11376
-17.2856 20.7088 5.11195
-17.2518 20.7401 5.11051
-17.2172 20.7722 5.10945
-17.184 20.8049 5.10866
-17.0966 20.7835 5.10594
-17.1169 20.8713 5.10425
-17.0827 20.9053 5.10083
-17.048 20.9393 5.09808
-17.0113 20.9728 5.09562
-16.9752 21.0059 5.09436
-16.9383 21.0391 5.09447
-16.9005 21.0726 5.095
-16.8624 21.1065 5.0961
-16.8247 21.14 5.09669
-16.7868 21.1737 5.09785
-16.7484 21.2075 5.09965
-16.7096 21.2417 5.10238
-16.6707 21.276 5.10528
-16.6315 21.3105 5.10884
-16.5913 21.3442 5.11284
-16.5497 21.3764 5.11685
-16.5078 21.4077 5.12016
-16.4657 21.4388 5.12334
-16.4237 21.4698 5.12682
-16.3819 21.5008 5.13074
-16.3401 21.5317 5.13477
-16.2989 21.5629 5.13941
-16.2579 21.594 5.14444
-16.2171 21.6251 5.14994
-16.1758 21.6565 5.15531
-16.1349 21.6877 5.161
-16.094 21.7181 5.16694
-16.0532 21.7471 5.17319
-16.0125 21.7761 5.17951
-15.9725 21.8045 5.18592
-15.933 21.8325 5.19233
-15.8896 21.8544 5.19815
-15.8541 21.8886 5.20442
-15.8147 21.9166 5.20998
-15.7756 21.9439 5.2154
-15.7374 21.9704 5.2207
-15.6993 21.9968 5.22606
-15.6621 22.0225 5.23144
-15.6256 22.0479 5.23682
-15.5895 22.0728 5.24224
-15.553 22.0982 5.24768
-15.5168 22.1234 5.25323
-15.4811 22.1483 5.25886
-15.446 22.1727 5.26458
-15.411 22.1971 5.27024
-15.3764 22.2211 5.27601
-15.3419 22.2449 5.28188
-15.3056 22.2664 5.28778
-15.2688 22.2878 5.29371
-15.2316 22.3092 5.29975
-15.1946 22.3309 5.30584
-15.1576 22.3527 5.31191
-15.1206 22.3744 5.31795
-15.0839 22.396 5.32385
-15.0473 22.4175 5.32964
-15.0116 22.4401 5.33547
-14.9765 22.4634 5.34154
-14.9415 22.4867 5.3474
-14.9066 22.5099 5.35302
-14.8717 22.5332 5.35825
-14.8368 22.5565 5.36347
-14.8017 22.5799 5.36828
-14.7666 22.6034 5.37282
-14.7257 22.619 5.37626
-14.6936 22.6482 5.38075
-14.6568 22.6698 5.38518
-14.6198 22.6915 5.38924
-14.5826 22.7135 5.39284
-14.5466 22.7375 5.39639
-14.509 22.7597 5.3994
-14.4703 22.7801 5.40208
-14.4314 22.8005 5.40458
-14.3927 22.8209 5.40739
-14.3539 22.8412 5.41009
-14.3147 22.8611 5.4125
-14.2749 22.8805 5.41458
-14.235 22.9 5.41666
-14.1947 22.9189 5.41838
-14.1544 22.9379 5.41989
-14.1142 22.9568 5.42112
-14.0743 22.9756 5.42236
-14.0344 22.9939 5.42344
-13.9941 23.0118 5.42443
-13.9538 23.0298 5.42547
-13.9134 23.0479 5.42662
-13.8732 23.0673 5.42804
-13.8328 23.0867 5.42963
-13.7922 23.1062 5.43119
-13.7518 23.1257 5.43238
-13.7112 23.1452 5.43383
-13.6703 23.1648 5.43572
-13.629 23.1846 5.43825
-13.5878 23.2043 5.44067
-13.5471 23.2259 5.44423
-13.5064 23.2479 5.44845
-13.4616 23.2628 5.45293
-13.4236 23.2903 5.4578
-13.382 23.3105 5.46319
-13.3403 23.3307 5.46917
-13.2986 23.3517 5.47588
-13.2572 23.3734 5.48256
-13.215 23.3943 5.48954
-13.1725 23.4148 5.49669
-13.1299 23.4353 5.50389
-13.0873 23.4558 5.51101
-13.0447 23.4763 5.51778
-13.0021 23.4969 5.5243
-12.9594 23.5175 5.53039
-12.9166 23.5381 5.53651
-12.8739 23.5587 5.54209
-12.8313 23.5794 5.54727
-12.7894 23.6012 5.55203
-12.7505 23.6282 5.55694
-12.7111 23.6547 5.56192
-12.6715 23.6807 5.56659
-12.6318 23.7066 5.57051
-12.5922 23.7325 5.57429
-12.5526 23.7581 5.57697
-12.5131 23.7835 5.57887
-12.4735 23.8088 5.58003
-12.4339 23.8342 5.5818
-12.3944 23.8594 5.58277
-12.355 23.8843 5.58294
-12.3157 23.9089 5.58183
-12.2762 23.9332 5.5805
-12.2363 23.9564 5.57846
-12.1966 23.9795 5.57589
-12.1518 23.994 5.57549
-12.117 24.0259 5.57265
-12.0772 24.049 5.5719
-12.0376 24.072 5.57057
-11.9982 24.0946 5.56822
-11.9586 24.1168 5.56564
-11.9191 24.1385 5.56163
-11.8798 24.1599 5.55666
-11.8405 24.1807 5.55088
-11.8008 24.2013 5.54599
-11.7613 24.2217 5.54017
-11.7218 24.2418 5.53334
-11.6821 24.2609 5.52517
-11.6422 24.2796 5.51691
-11.6023 24.2979 5.5075
-11.5625 24.3161 5.49739
-11.5225 24.3343 5.48712
-11.4825 24.3528 5.47787
-11.4424 24.3713 5.46869
-11.4023 24.3897 5.45902
-11.3618 24.4074 5.44884
-11.3214 24.4249 5.43857
-11.2809 24.4422 5.42745
-11.2405 24.4593 5.41584
-11.2001 24.4763 5.40354
-11.16 24.4939 5.39117
-11.1199 24.5115 5.37845
-11.0799 24.529 5.36559
-11.0395 24.5455 5.35282
-10.9989 24.5616 5.33996
-10.9585 24.5778 5.32755
-10.9182 24.594 5.31556
-10.8752 24.6043 5.30584
-10.8376 24.6266 5.29373
-10.7973 24.6427 5.28402
-10.7571 24.6587 5.27483
-10.7163 24.6739 5.2664
-10.6756 24.6891 5.25777
-10.6344 24.7033 5.24944
-10.5923 24.7155 5.24161
-10.5501 24.7276 5.23363
-10.5082 24.7401 5.22552
-10.4663 24.7527 5.2169
-10.4241 24.7653 5.20797
-10.3816 24.778 5.19854
-10.3391 24.7907 5.18917
-10.2962 24.8034 5.17931
-10.2528 24.8154 5.16918
-10.2089 24.8268 5.15892
-10.1651 24.8381 5.14904
-10.1211 24.8494 5.13883
-10.0769 24.8608 5.12814
-10.0329 24.8731 5.11671
-9.99048 24.8894 5.10474
-9.94768 24.9057 5.09195
-9.90465 24.9221 5.07862
-9.86123 24.9385 5.06483
-9.81738 24.9538 5.05153
-9.77335 24.9692 5.03791
-9.72924 24.9844 5.02391
-9.68509 24.9997 5.00937
-9.64086 25.0149 4.99466
-9.5969 25.0301 4.97967
-9.55336 25.045 4.96462
-9.49869 25.0295 4.95197
-9.45802 25.0609 4.93534
-9.41422 25.0676 4.92231
-9.37035 25.0749 4.90914
-9.32695 25.0831 4.89554
-9.2831 25.0914 4.88193
-9.23867 25.0998 4.86782
-9.194 25.1081 4.85331
-9.14879 25.1166 4.83834
-9.10366 25.125 4.82357
-9.05803 25.1345 4.80813
-9.01208 25.1447 4.79218
-8.96529 25.1551 4.77557
-8.91833 25.1655 4.75888
-8.87092 25.176 4.7418
-8.82304 25.186 4.72454
-8.77532 25.195 4.70757
-8.7287 25.2038 4.69118
-8.68227 25.2125 4.67488
-8.63493 25.2199 4.65863
-8.58625 25.226 4.6422
-8.53723 25.2321 4.62563
-8.48672 25.2385 4.60847
-8.43518 25.2449 4.59093
-8.38298 25.2515 4.57304
-8.33205 25.2578 4.55548
-8.28016 25.2643 4.53756
-8.22688 25.2712 4.51925
-8.17178 25.2791 4.50014
-8.1171 25.2874 4.48054
-8.05973 25.2957 4.46071
-8.0013 25.3032 4.44037
-7.94941 25.363 4.41362
-7.87538 25.3232 4.4021
-7.81767 25.3365 4.38086
-7.75885 25.3502 4.35949
-7.69883 25.3642 4.33793
-7.63807 25.3778 4.31664
-7.57613 25.3904 4.29541
-7.51416 25.4044 4.27386
-7.45405 25.4237 4.25146
-7.39504 25.4442 4.2289
-7.33605 25.4647 4.20666
-7.27692 25.4858 4.18467
-7.21885 25.5099 4.16243
-7.16065 25.5342 4.14039
-7.10221 25.5586 4.11878
-7.04363 25.5828 4.09743
-6.98436 25.6059 4.07635
-6.92241 25.6236 4.05578
-6.86036 25.6405 4.03504
-6.79884 25.6574 4.01463
-6.73825 25.6741 3.99479
-6.67717 25.6892 3.97558
-6.61699 25.7026 3.95785
-6.55794 25.7159 3.94079
-6.49986 25.729 3.92451
-6.44076 25.7424 3.90779
-6.38298 25.7556 3.89192
-6.32671 25.7686 3.8768
-6.27251 25.7813 3.86287
-6.21863 25.7948 3.8489
-6.16722 25.8103 3.83497
-6.117 25.8255 3.82154
-6.07761 25.8682 3.79889
-6.01458 25.8562 3.79324
-5.96278 25.8716 3.77831
-5.91251 25.8868 3.7639
-5.86522 25.9026 3.74966
-5.81903 25.9192 3.735
-5.77547 25.935 3.72158
-5.73345 25.9505 3.7092
-5.69281 25.9657 3.69773
-5.65079 25.9812 3.68547
-5.60993 25.9966 3.67419
-5.57046 26.0117 3.66394
-5.53299 26.0264 3.65521
-5.49574 26.041 3.6467
-5.45988 26.0553 3.63939
-5.42486 26.0694 3.63281
-5.38997 26.0836 3.62639
-5.3539 26.0979 3.61891
-5.31744 26.1122 3.61143
-5.28135 26.1266 3.60452
-5.2457 26.141 3.59836
-5.21006 26.1552 3.59241
-5.17496 26.1692 3.5875
-5.14013 26.1833 3.58318
-5.10591 26.1975 3.5796
-5.07193 26.2115 3.57587
-5.03807 26.2255 3.57255
-5.00402 26.2398 3.56947
-4.96962 26.2543 3.5667
-4.93527 26.2688 3.5641
-4.90001 26.2838 3.56118
-4.864 26.2991 3.55794
-4.82003 26.2994 3.5595
-4.79016 26.3297 3.54938
-4.75218 26.3451 3.54399
-4.71328 26.3607 3.53821
-4.67316 26.3768 3.53201
-4.63322 26.3931 3.52588
-4.59248 26.4099 3.51984
-4.55112 26.4267 3.51389
-4.50956 26.4437 3.50818
-4.46822 26.4598 3.50275
-4.42662 26.475 3.49822
-4.38489 26.4905 3.49401
-4.34305 26.5063 3.49029
-4.30109 26.522 3.48653
-4.25912 26.5381 3.48322
-4.2176 26.555 3.47991
-4.17552 26.5707 3.47745
-4.13307 26.5856 3.47484
-4.09093 26.6006 3.47249
-4.04911 26.6156 3.47056
-4.00788 26.6306 3.46921
-3.96671 26.6457 3.4679
-3.92611 26.6607 3.46726
-3.88595 26.6755 3.46709
-3.84602 26.6905 3.46726
-3.80544 26.7056 3.46716
-3.76523 26.7206 3.46728
-3.72563 26.7356 3.46765
-3.68695 26.7504 3.4684
-3.64836 26.7652 3.46925
-3.61076 26.7797 3.47027
-3.57392 26.7942 3.47123
-3.53749 26.808 3.47213
-3.50076 26.8227 3.47236
-3.46382 26.8352 3.47314
-3.42746 26.8476 3.47392
-3.39187 26.8597 3.47477
-3.35636 26.8719 3.47568
-3.32116 26.8831 3.47721
-3.28604 26.8934 3.47929
-3.25108 26.9038 3.4816
-3.2158 26.9141 3.48383
-3.18042 26.9247 3.48632
-3.14513 26.9353 3.48902
-3.10984 26.946 3.49201
-3.07448 26.9567 3.49503
-3.03914 26.9676 3.49824
-3.00376 26.9785 3.50156
-2.96867 26.9893 3.50483
-2.93407 26.9998 3.50783
-2.89939 27.0103 3.51077
-2.86433 27.021 3.51382
-2.82853 27.032 3.51706
-2.79258 27.043 3.52037
-2.75557 27.0545 3.52395
-2.71765 27.0657 3.52787
-2.67894 27.0764 3.53229
-2.6411 27.0868 3.53655
-2.60241 27.0975 3.54094
-2.56267 27.1085 3.54552
-2.52131 27.12 3.55034
-2.47962 27.1309 3.55546
-2.43638 27.142 3.56095
-2.39197 27.1528 3.56707
-2.34639 27.1595 3.57529
-2.30341 27.1737 3.57996
-2.25911 27.1822 3.58722
-2.21394 27.1908 3.59449
-2.16737 27.1998 3.60183
-2.12072 27.2102 3.60866
-2.07258 27.2209 3.61546
-2.02354 27.2321 3.62206
-1.97414 27.2449 3.62799
-1.92562 27.2577 3.63398
-1.87664 27.2704 3.63976
-1.8269 27.2832 3.64538
-1.77632 27.2966 3.65051
-1.72588 27.3106 3.65526
-1.67462 27.3248 3.65979
-1.6229 27.339 3.66416
-1.57067 27.3534 3.66864
-1.51785 27.3648 3.67466
-1.46512 27.377 3.68068
-1.4126 27.39 3.68601
-1.35981 27.3998 3.6919
-1.30685 27.4075 3.69845
-1.25386 27.4121 3.70518
-1.20117 27.4163 3.71137
-1.14853 27.4204 3.71704
-1.09535 27.4246 3.72327
-1.04277 27.4287 3.72893
-0.990989 27.4324 3.73391
-0.940417 27.4356 3.73788
-0.889868 27.4387 3.7417
-0.840671 27.4397 3.74546
-0.792503 27.4405 3.74875
-0.745237 27.4207 3.76053
-0.696197 27.4424 3.75647
-0.648368 27.4435 3.76082
-0.601731 27.4445 3.76467
-0.557374 27.4418 3.76886
-0.513926 27.4362 3.77375
-0.472145 27.4283 3.77839
-0.430853 27.4203 3.78252
-0.390117 27.4123 3.78606
-0.349007 27.4044 3.79002
-0.308177 27.3963 3.79335
-0.26757 27.3883 3.79608
-0.22712 27.3816 3.79725
-0.186862 27.3748 3.79825
-0.146663 27.3677 3.79869
-0.106362 27.3605 3.79887
-0.0659038 27.3516 3.79977
-0.0254391 27.3417 3.8015
0.0160623 27.3335 3.80284
0.0579866 27.3256 3.804
0.100155 27.3183 3.80485
0.142819 27.3187 3.80249
0.186671 27.3202 3.79963
0.231213 27.3217 3.79689
0.275946 27.3231 3.79418
0.319546 27.3244 3.79131
0.363249 27.3275 3.78788
0.407791 27.3321 3.78428
0.453191 27.3368 3.7808
0.498078 27.3418 3.77695
0.543666 27.3503 3.77188
0.589467 27.3603 3.76664
0.645827 27.3399 3.77681
0.691378 27.3768 3.7546
0.739602 27.3805 3.75384
0.788739 27.3846 3.75347
0.839148 27.3877 3.75469
0.889483 27.3908 3.75572
0.94076 27.3942 3.75728
0.992723 27.3982 3.75916
1.04505 27.4024 3.76129
1.09684 27.4031 3.76501
1.14893 27.4026 3.76959
1.20145 27.4023 3.77438
1.25454 27.402 3.77947
1.30801 27.4042 3.78328
1.36178 27.4101 3.78518
1.41569 27.416 3.78704
1.46962 27.421 3.78912
1.52329 27.4256 3.79137
1.57645 27.4299 3.79334
1.62937 27.4342 3.79519
1.68182 27.4383 3.79681
1.73426 27.4425 3.79845
1.78627 27.447 3.79978
1.83788 27.4514 3.80098
1.88941 27.4574 3.80151
1.94172 27.464 3.80211
1.9937 27.4706 3.8027
2.04511 27.4762 3.80351
2.09564 27.477 3.80648
2.14602 27.4778 3.80946
2.19567 27.4785 3.81222
2.24477 27.4791 3.81481
2.2934 27.4465 3.83345
2.34386 27.4803 3.81988
2.39364 27.4809 3.82234
2.44258 27.4805 3.82515
2.4905 27.4797 3.82766
2.53801 27.4786 3.83064
2.58414 27.4775 3.8333
2.62948 27.4763 3.8356
2.67406 27.4749 3.8376
2.71927 27.4736 3.83985
2.76378 27.4709 3.84246
2.8076 27.4682 3.84467
2.85043 27.4655 3.84629
2.89306 27.4629 3.84776
2.93509 27.4602 3.84888
2.97677 27.4573 3.84977
3.01867 27.4544 3.85079
3.06135 27.4513 3.85241
3.10437 27.4482 3.8541
3.14728 27.4461 3.85496
3.18976 27.4439 3.85545
3.2317 27.4387 3.85753
3.27307 27.4335 3.85906
3.3141 27.4286 3.8601
3.35476 27.4242 3.86052
3.39565 27.4198 3.86108
3.43614 27.4154 3.86142
3.47631 27.4109 3.86158
3.51591 27.4063 3.86145
3.5553 27.4017 3.86118
3.59448 27.3971 3.86089
3.63348 27.3926 3.86062
3.66814 27.3432 3.88309
3.7152 27.3833 3.86193
3.75542 27.378 3.86344
3.79505 27.3716 3.86539
3.83454 27.3634 3.86821
3.87294 27.3553 3.87046
3.9109 27.347 3.87228
3.94912 27.3387 3.87406
3.98721 27.3294 3.87607
4.0253 27.3202 3.87819
4.06363 27.3108 3.8801
4.10211 27.3013 3.88183
4.14097 27.2915 3.88328
4.18001 27.2817 3.8847
4.21925 27.2717 3.8859
4.25854 27.2614 3.88709
4.29733 27.2508 3.8884
4.33537 27.2405 3.88991
4.37324 27.2301 3.89149
4.4114 27.2191 3.89314
4.45029 27.2078 3.89465
4.48936 27.1965 3.89617
4.52961 27.1847 3.8975
4.57072 27.1726 3.89872
4.61263 27.1602 3.89975
4.6538 27.1479 3.90078
4.69591 27.1352 3.90173
4.73882 27.1223 3.9027
4.78355 27.1084 3.90375
4.82813 27.0914 3.906
4.87406 27.0724 3.90885
4.92083 27.053 3.91178
4.94978 26.9938 3.93588
5.01295 27.0151 3.91849
5.05742 26.9964 3.92141
5.10285 26.9778 3.92489
5.14928 26.9589 3.92858
5.19605 26.9398 3.93225
5.24414 26.9202 3.93607
5.29301 26.9004 3.94002
5.34297 26.881 3.94353
5.39087 26.8586 3.94852
5.43904 26.8354 3.95385
5.48896 26.8141 3.95824
5.54048 26.7944 3.96186
5.59192 26.7749 3.96553
5.64373 26.7552 3.9693
5.6958 26.7354 3.9731
5.7469 26.7133 3.97796
5.79646 26.6887 3.984
5.84592 26.6641 3.98993
5.89533 26.6395 3.99586
5.94455 26.6151 4.00182
5.99373 26.5906 4.00782
6.04262 26.5664 4.01391
6.09063 26.5413 4.02065
6.13813 26.5156 4.0279
6.18608 26.4895 4.03515
6.23379 26.4639 4.04241
6.2813 26.439 4.04948
6.32786 26.4148 4.05661
6.37409 26.3907 4.06376
6.41914 26.3667 4.07118
6.46289 26.3422 4.07905
6.51798 26.3351 4.07689
6.55098 26.2924 4.09409
6.59517 26.2673 4.10138
6.63863 26.2428 4.10865
6.68239 26.2216 4.11482
6.72555 26.2005 4.12158
6.76733 26.1802 4.1286
6.80836 26.1603 4.13556
6.84878 26.1408 4.14252
6.88995 26.1209 4.14943
6.93068 26.1011 4.15632
6.97067 26.0816 4.16334
7.00956 26.0622 4.17053
7.0496 26.0452 4.17673
7.08901 26.0286 4.18294
7.12804 26.0122 4.18919
7.16695 25.9958 4.19555
7.20628 25.9793 4.20202
7.24575 25.9628 4.20854
7.28514 25.9464 4.21501
7.3246 25.9302 4.22132
7.36406 25.9141 4.2276
7.40341 25.8979 4.23371
7.44276 25.8817 4.23969
7.48185 25.8655 4.24549
7.52058 25.8495 4.25137
7.55937 25.8335 4.25705
7.5979 25.8159 4.26307
7.63622 25.7966 4.26924
7.67453 25.7774 4.27537
7.71642 25.7629 4.27975
7.7588 25.7486 4.28378
7.80202 25.7335 4.28761
7.84535 25.7191 4.29131
7.88905 25.7034 4.2951
7.93309 25.6868 4.2989
7.97687 25.6683 4.30315
8.01859 25.6464 4.30891
8.06067 25.6242 4.31447
8.10396 25.6036 4.31909
8.14748 25.583 4.3236
8.19087 25.5625 4.32822
8.23512 25.544 4.33195
8.28064 25.5283 4.33442
8.32694 25.5143 4.33606
8.3731 25.5004 4.33765
8.41934 25.4864 4.33919
8.46686 25.4762 4.33919
8.51472 25.4663 4.339
8.56241 25.4558 4.33937
8.61003 25.4453 4.33982
8.65755 25.4348 4.34014
8.70484 25.4243 4.34027
8.75222 25.4137 4.34029
8.79929 25.404 4.33997
8.84676 25.3997 4.33859
8.89436 25.3954 4.33698
8.94252 25.391 4.33541
8.99043 25.3858 4.33384
9.03814 25.3863 4.33127
9.08543 25.3868 4.32869
9.13268 25.3874 4.3261
9.17912 25.3879 4.32366
9.22475 25.3882 4.32115
9.26998 25.3952 4.31818
9.31452 25.3819 4.31804
9.3596 25.3776 4.31712
9.40411 25.375 4.31614
9.4478 25.3731 4.31536
9.4912 25.3712 4.3145
9.53375 25.3694 4.31374
9.57589 25.3688 4.31289
9.61783 25.3682 4.31202
9.66037 25.3676 4.31101
9.7028 25.3659 4.31007
9.74484 25.3626 4.30942
9.78626 25.3573 4.30905
9.8272 25.3498 4.30906
9.86796 25.3423 4.30909
9.9087 25.3348 4.30911
9.94929 25.3273 4.30919
9.98951 25.319 4.30949
10.0298 25.3104 4.30983
10.0704 25.3017 4.31015
10.1115 25.2929 4.31035
10.1527 25.2841 4.31043
10.1946 25.2754 4.31037
10.2371 25.2666 4.31027
10.2796 25.2565 4.31047
10.3214 25.2464 4.31082
10.3638 25.2362 4.31125
10.4073 25.2258 4.31189
10.4511 25.2153 4.31188
10.4941 25.2061 4.31107
10.5382 25.2003 4.30885
10.5829 25.1945 4.30678
10.6219 25.1222 4.31653
10.6827 25.1601 4.30235
10.7261 25.1492 4.30164
10.773 25.1379 4.3022
10.8209 25.1264 4.30306
10.8687 25.1141 4.3036
10.9172 25.1008 4.30433
10.9669 25.0889 4.30507
11.0174 25.0786 4.30539
11.0672 25.0684 4.30548
11.1167 25.0564 4.30585
11.1663 25.0433 4.30654
11.2164 25.03 4.307
11.2666 25.0167 4.30743
11.3172 25.0032 4.30763
11.368 24.9895 4.30769
11.4191 24.9756 4.30777
11.4702 24.961 4.30829
11.5213 24.9465 4.30873
11.5722 24.9318 4.30899
11.6225 24.9163 4.30929
11.6709 24.8961 4.31125
11.7191 24.8758 4.31283
11.767 24.8555 4.31414
11.8148 24.8352 4.31516
11.863 24.8147 4.31632
11.9108 24.7944 4.31725
11.9577 24.7743 4.31791
12.0044 24.7541 4.31846
12.0518 24.7323 4.31962
12.0974 24.7076 4.3219
12.1425 24.6831 4.32394
12.1473 24.5903 4.351
12.2299 24.6352 4.32896
12.2718 24.6125 4.3318
12.3125 24.5903 4.33451
12.3518 24.5688 4.33681
12.3913 24.547 4.33875
12.43 24.5262 4.34011
12.4681 24.5066 4.34144
12.5058 24.487 4.3423
12.5443 24.4669 4.34288
12.5828 24.4466 4.34276
12.6208 24.4265 4.34233
12.6583 24.4067 4.34149
12.6951 24.3858 4.34098
12.7305 24.3637 4.34074
12.7658 24.3417 4.34034
12.8011 24.3197 4.34006
12.8366 24.2979 4.34006
12.8724 24.2762 4.34016
12.9083 24.2543 4.3402
12.9443 24.2323 4.34012
12.9795 24.2089 4.34031
13.015 24.1852 4.34028
13.0508 24.1614 4.34011
13.0866 24.1375 4.33982
13.1221 24.1138 4.33966
13.1579 24.0899 4.33936
13.1943 24.0659 4.33877
13.2324 24.0432 4.33758
13.2707 24.0209 4.33638
13.3094 23.9973 4.33501
13.3483 23.9729 4.33356
13.3939 23.9582 4.32936
13.4265 23.9237 4.32984
13.4658 23.8988 4.32798
13.5056 23.8736 4.32603
13.5461 23.8479 4.32399
13.5859 23.8209 4.32219
13.6263 23.7936 4.32046
13.6689 23.7687 4.31819
13.714 23.7477 4.31561
13.7585 23.727 4.31306
13.8021 23.7041 4.31087
13.8457 23.6806 4.30911
13.8902 23.6583 4.30745
13.9372 23.6415 4.30489
13.9839 23.6224 4.30275
14.0301 23.6024 4.30057
14.0761 23.5824 4.29827
14.1219 23.5626 4.29581
14.1674 23.5428 4.29333
14.2128 23.5231 4.29093
14.258 23.5036 4.28871
14.3034 23.484 4.28656
14.3503 23.4695 4.2842
14.3955 23.45 4.28252
14.4406 23.4303 4.28105
14.4858 23.4106 4.27919
14.5309 23.391 4.2776
14.5759 23.3714 4.2764
14.6204 23.3512 4.27576
14.6645 23.3305 4.27516
14.7085 23.3099 4.27514
14.7523 23.2893 4.27554
14.7911 23.2571 4.27614
14.841 23.2461 4.27598
14.8838 23.2213 4.27648
14.9252 23.1958 4.2775
14.9665 23.1705 4.27901
15.0077 23.1452 4.28055
15.0486 23.1202 4.28253
15.0888 23.0947 4.2848
15.1286 23.0691 4.28727
15.1683 23.0429 4.28958
15.2085 23.0181 4.29183
15.249 22.9944 4.29414
15.289 22.9711 4.29659
15.3289 22.9478 4.29901
15.3686 22.9247 4.30155
15.408 22.9015 4.30414
15.4475 22.878 4.30686
15.4876 22.8541 4.3097
15.5278 22.8302 4.31248
15.5678 22.8064 4.31514
15.6074 22.7829 4.31755
15.6459 22.7581 4.31998
15.6837 22.7334 4.32208
15.7207 22.7084 4.32392
15.7566 22.6826 4.32564
15.7928 22.6566 4.32769
15.8286 22.6308 4.32944
15.864 22.6056 4.33077
15.899 22.5813 4.33148
15.934 22.557 4.33214
15.9673 22.5318 4.33221
16 22.5066 4.33191
16.0297 22.4784 4.33139
16.0673 22.4604 4.33072
16.102 22.438 4.33048
16.1364 22.4157 4.32982
16.1704 22.3939 4.32862
16.2051 22.3734 4.3272
16.2393 22.3531 4.32515
16.2733 22.333 4.32269
16.3071 22.3129 4.31985
16.3411 22.2927 4.31728
16.3751 22.2725 4.31444
16.4087 22.2521 4.31134
16.4419 22.2313 4.30787
16.4752 22.2105 4.3043
16.5083 22.1898 4.30054
16.5409 22.1683 4.2968
16.5725 22.1461 4.29336
16.6035 22.1236 4.29031
16.6346 22.1011 4.2875
16.6658 22.0784 4.28469
16.6975 22.0555 4.28183
16.7292 22.0325 4.27886
16.7616 22.009 4.27574
16.7945 21.9852 4.27254
16.8277 21.9611 4.26927
16.8603 21.9374 4.26612
16.8935 21.9133 4.26286
16.9274 21.8888 4.25945
16.9623 21.8635 4.25587
16.9974 21.8382 4.25235
17.0335 21.8122 4.24859
17.0703 21.7856 4.24466
17.0987 21.7463 4.24246
17.1438 21.7324 4.23597
17.1805 21.7058 4.23137
17.2178 21.6787 4.22676
17.2553 21.6498 4.22243
17.2927 21.6207 4.21822
17.3308 21.5906 4.21436
17.3689 21.5589 4.21091
17.4074 21.5269 4.20767
17.4455 21.4952 4.20418
17.4837 21.4633 4.20106
17.5225 21.431 4.19832
17.5619 21.3983 4.19622
17.6014 21.3655 4.19426
17.6413 21.3325 4.19283
17.682 21.2999 4.19166
17.7218 21.2665 4.19057
17.7604 21.2322 4.18887
17.7987 21.1981 4.18732
17.837 21.164 4.18632
17.8752 21.13 4.18611
17.9134 21.096 4.18592
17.9516 21.0621 4.18682
17.9899 21.0283 4.18848
18.0285 20.9942 4.19107
18.0675 20.9596 4.19338
18.1067 20.925 4.19642
18.1455 20.8907 4.19995
18.1827 20.8555 4.20442
18.2187 20.8191 4.20916
18.2546 20.784 4.21431
18.29 20.7485 4.21957
18.2859 20.674 4.22614
18.3611 20.6773 4.22778
18.3968 20.6415 4.23079
18.4321 20.6061 4.234
18.4668 20.5712 4.23766
18.5015 20.5364 4.24159
18.5356 20.5023 4.24656
18.5693 20.4688 4.25221
18.6027 20.4358 4.25863
18.6365 20.4023 4.26449
18.6698 20.3692 4.27129
18.7026 20.3362 4.279
18.7347 20.3039 4.28808
18.7657 20.2708 4.29738
18.7953 20.2372 4.30776
18.8247 20.2038 4.31882
18.8539 20.17 4.32993
18.8835 20.1356 4.3399
18.9133 20.101 4.34989
18.9428 20.0667 4.3605
18.972 20.0327 4.37209
19.0011 19.9989 4.38391
19.0297 19.9656 4.39693
19.0584 19.9332 4.41069
19.0866 19.9011 4.4251
19.1134 19.8675 4.43894
19.1399 19.8344 4.45323
19.1661 19.8015 4.46792
19.1921 19.7691 4.48379
19.2213 19.739 4.50064
19.2463 19.706 4.51782
19.2712 19.6731 4.53493
19.2687 19.6187 4.54954
19.3214 19.6071 4.56605
19.3467 19.5739 4.57978
19.3719 19.5409 4.59326
19.3969 19.5082 4.60655
19.4222 19.4757 4.62024
19.4472 19.4436 4.63443
19.472 19.4117 4.64887
19.4966 19.38 4.66375
19.5214 19.3481 4.67844
19.5461 19.3164 4.69383
19.5717 19.286 4.70987
19.597 19.2559 4.7268
19.6212 19.2249 4.74373
19.6448 19.1938 4.76132
19.6681 19.1629 4.77941
19.6915 19.132 4.79754
19.715 19.101 4.81488
19.7371 19.0689 4.83213
19.7604 19.0377 4.85008
19.784 19.0071 4.86889
19.8076 18.9764 4.8878
19.831 18.9458 4.90769
19.8544 18.9151 4.9282
19.8776 18.8843 4.94942
19.9009 18.8536 4.9703
19.9241 18.8228 4.9917
19.946 18.7906 5.01321
19.9676 18.758 5.03536
19.9895 18.7257 5.05769
20.0114 18.693 5.08048
20.0334 18.6601 5.1035
20.0302 18.6051 5.1195
20.0779 18.5941 5.14917
20.1003 18.561 5.17157
20.1228 18.5278 5.194
20.1451 18.494 5.21618
20.1656 18.4592 5.23784
20.1863 18.4242 5.25959
20.2074 18.3889 5.2815
20.2297 18.3543 5.30391
20.2519 18.3198 5.32631
20.2742 18.2851 5.34884
20.2966 18.2501 5.37142
20.318 18.2138 5.3937
20.3394 18.1774 5.41592
20.361 18.1409 5.43816
20.3827 18.1042 5.46042
20.4044 18.0676 5.48277
20.4258 18.0312 5.50526
20.4472 17.9948 5.52769
20.4685 17.9583 5.54992
20.4898 17.9216 5.57186
20.5112 17.8849 5.59379
20.5328 17.8481 5.61534
20.5546 17.8112 5.63661
20.5766 17.7742 5.6576
20.5985 17.7371 5.67879
20.6206 17.7 5.69966
20.6428 17.663 5.72024
20.6652 17.6258 5.74027
20.6905 17.5909 5.76111
20.718 17.5579 5.78254
20.743 17.5223 5.80224
20.7752 17.4945 5.82663
20.7925 17.4515 5.84386
20.8177 17.418 5.86573
20.8429 17.3846 5.88733
20.8682 17.3514 5.9084
20.8937 17.3182 5.92929
20.9195 17.285 5.94934
20.9455 17.252 5.96884
20.9716 17.2187 5.98775
20.9972 17.1849 6.00694
21.0231 17.1511 6.02558
21.0491 17.1171 6.04346
21.0751 17.0827 6.06015
21.0998 17.0469 6.0759
21.1241 17.0104 6.09042
21.1485 16.9738 6.1045
21.1731 16.9375 6.1187
21.1973 16.9013 6.13363
21.2205 16.8644 6.14809
21.2459 16.8293 6.16329
21.2722 16.7947 6.17832
21.298 16.7596 6.19313
21.3238 16.7241 6.20687
21.3527 16.6911 6.22145
21.3825 16.6584 6.23534
21.4122 16.6258 6.24908
21.4422 16.5932 6.26215
21.4706 16.5587 6.27427
21.4994 16.5239 6.28576
21.5281 16.4891 6.29707
21.5572 16.454 6.30831
21.5862 16.4171 6.32227
21.5866 16.3558 6.32185
21.6416 16.3424 6.34559
21.6686 16.3053 6.35728
21.6957 16.268 6.36915
21.7225 16.2304 6.38105
21.7493 16.1928 6.39319
21.7761 16.1552 6.40514
21.8031 16.1175 6.41667
21.8298 16.0795 6.42768
21.8565 16.0416 6.43894
21.883 16.0036 6.44954
21.9095 15.9654 6.4596
21.9363 15.9272 6.46895
21.9623 15.8885 6.47802
21.9878 15.8492 6.48625
22.0134 15.81 6.49405
22.039 15.7707 6.5017
22.0646 15.7314 6.50989
22.0901 15.6921 6.51795
22.1158 15.6529 6.52563
22.1411 15.6135 6.53264
22.1662 15.574 6.53954
22.1913 15.5346 6.54583
22.2174 15.496 6.55203
22.2442 15.4579 6.55795
22.2706 15.4194 6.56385
22.2962 15.3804 6.5692
22.3218 15.3417 6.57428
22.3473 15.3031 6.57921
22.3727 15.2645 6.5842
22.3971 15.2254 6.58916
22.4213 15.1864 6.59427
22.4172 15.1286 6.5889
22.4692 15.1088 6.60591
22.4937 15.07 6.61278
22.518 15.0314 6.6197
22.5402 14.992 6.62539
22.5622 14.9528 6.63027
22.5849 14.9147 6.63499
22.6077 14.8769 6.63991
22.6304 14.8392 6.64478
22.6533 14.8012 6.6498
22.6754 14.7627 6.6543
22.6967 14.724 6.6584
22.7193 14.6861 6.66267
22.7416 14.648 6.66677
22.7625 14.6094 6.67005
22.7827 14.5704 6.67288
22.803 14.5315 6.67566
22.8231 14.4925 6.67863
22.8433 14.4535 6.68157
22.8637 14.4146 6.68446
22.8859 14.3766 6.68784
22.908 14.3387 6.69118
22.9302 14.3006 6.69435
22.9526 14.2624 6.69743
22.975 14.2242 6.70042
22.9973 14.1861 6.70344
23.0194 14.1476 6.70636
23.0414 14.1089 6.70923
23.0632 14.0696 6.71173
23.0851 14.0302 6.71387
23.1067 13.99 6.71562
23.1283 13.9495 6.7176
23.1098 13.8861 6.70603
23.1688 13.8635 6.71765
23.1885 13.8219 6.72062
23.2076 13.7798 6.72328
23.2262 13.7371 6.72628
23.2449 13.6948 6.72863
23.2636 13.6522 6.73079
23.2817 13.609 6.73287
23.2999 13.5656 6.73495
23.3179 13.5222 6.73698
23.3353 13.4786 6.73878
23.3528 13.4347 6.74052
23.3696 13.3904 6.74193
23.3867 13.3461 6.74336
23.4021 13.3011 6.74422
23.4174 13.256 6.74498
23.4327 13.2111 6.74576
23.4478 13.1662 6.74668
23.463 13.1216 6.74758
23.4776 13.0769 6.74825
23.492 13.0321 6.74867
23.5063 12.9873 6.74908
23.5206 12.9424 6.74924
23.5349 12.8975 6.74921
23.5487 12.8523 6.74886
23.5638 12.8074 6.74909
23.5802 12.7629 6.74949
23.5969 12.7183 6.7496
23.613 12.6736 6.74919
23.6287 12.6289 6.74891
23.6444 12.5843 6.7482
23.6601 12.54 6.74761
23.7073 12.5062 6.75677
23.6992 12.4506 6.73678
23.7175 12.4076 6.73804
23.7359 12.3649 6.739
23.7541 12.3225 6.74004
23.7725 12.2801 6.74084
23.791 12.2379 6.74141
23.8094 12.1959 6.74193
23.828 12.1541 6.74236
23.848 12.1127 6.74372
23.8703 12.0724 6.74645
23.8917 12.0317 6.74842
23.9123 11.9907 6.74971
23.933 11.9497 6.75105
23.9535 11.9088 6.75232
23.974 11.868 6.75355
23.9951 11.8278 6.75513
24.018 11.7888 6.75803
24.0408 11.7499 6.76097
24.0626 11.7103 6.76321
24.084 11.6704 6.76522
24.1054 11.6305 6.76716
24.128 11.5912 6.76987
24.1511 11.5521 6.77296
24.1744 11.5129 6.77616
24.1976 11.4739 6.77931
24.2203 11.4344 6.7821
24.2424 11.3942 6.78453
24.2646 11.3538 6.78709
24.2868 11.3134 6.78958
24.3091 11.2726 6.79229
24.3306 11.2307 6.79559
24.3238 11.1719 6.77578
24.3736 11.1452 6.80225
24.3953 11.103 6.80423
24.4162 11.0603 6.80583
24.4366 11.0169 6.80701
24.4567 10.9738 6.80841
24.4763 10.9304 6.80963
24.4947 10.8863 6.80977
24.5127 10.842 6.80965
24.5308 10.7978 6.80948
24.5483 10.7536 6.80901
24.5657 10.7092 6.80851
24.583 10.6647 6.80813
24.6003 10.6202 6.80777
24.6175 10.5755 6.80753
24.6346 10.5309 6.80729
24.6506 10.486 6.80622
24.6674 10.4414 6.80566
24.6836 10.3967 6.80474
24.6993 10.352 6.80348
24.715 10.3075 6.80221
24.7307 10.263 6.80083
24.7454 10.2183 6.79883
24.7599 10.1735 6.7968
24.7744 10.1285 6.79504
24.7887 10.083 6.79356
24.803 10.0373 6.79222
24.8209 9.9934 6.79319
24.8391 9.9494 6.79452
24.858 9.90532 6.7963
24.8791 9.86223 6.79942
24.9001 9.81926 6.80251
24.9444 9.78914 6.81952
24.9416 9.73433 6.80839
24.9622 9.69258 6.81104
24.9827 9.65112 6.81357
25.003 9.60992 6.81575
25.0226 9.56802 6.81726
25.0421 9.52629 6.81863
25.0614 9.4847 6.82007
25.0842 9.44515 6.82331
25.1071 9.40541 6.82657
25.1269 9.36425 6.82854
25.1467 9.32319 6.83057
25.1663 9.28225 6.83269
25.1859 9.24129 6.83476
25.2049 9.20011 6.83661
25.2238 9.15897 6.8385
25.2427 9.11785 6.84043
25.2621 9.07693 6.84253
25.2816 9.03595 6.84462
25.301 8.99493 6.84673
25.3205 8.95383 6.84884
25.34 8.91271 6.85092
25.3595 8.87151 6.85303
25.3792 8.83034 6.85524
25.3989 8.78916 6.85754
25.4175 8.74755 6.85937
25.4363 8.70606 6.8614
25.457 8.66537 6.8643
25.4777 8.62451 6.86716
25.4984 8.58366 6.8701
25.5193 8.54258 6.87284
25.5404 8.50136 6.8756
25.5444 8.45034 6.86801
25.5847 8.41807 6.87666
25.6044 8.37585 6.87874
25.6254 8.33407 6.88094
25.6449 8.29127 6.88255
25.6645 8.24857 6.88376
25.6842 8.20573 6.88482
25.704 8.16274 6.886
25.7231 8.11935 6.88695
25.7415 8.07579 6.88762
25.7608 8.03255 6.88875
25.7804 7.98941 6.89011
25.7999 7.94619 6.89164
25.8194 7.90294 6.89316
25.8389 7.85966 6.89486
25.8584 7.81637 6.89669
25.8773 7.77291 6.89843
25.8952 7.72905 6.89963
25.9111 7.68439 6.90021
25.9267 7.63961 6.90082
25.9423 7.5948 6.90163
25.9578 7.55001 6.90248
25.9733 7.50519 6.90352
25.9876 7.4599 6.90427
25.9998 7.41393 6.90428
26.012 7.36793 6.90414
26.0243 7.32194 6.90404
26.0366 7.27599 6.90412
26.0513 7.23093 6.90529
26.0654 7.1852 6.90589
26.0755 7.13936 6.90502
26.0898 7.09449 6.90598
26.1151 7.05328 6.91256
26.1174 7.00456 6.90753
26.1309 6.95918 6.90758
26.1444 6.91396 6.90759
26.1596 6.86965 6.90849
26.1759 6.82599 6.91018
26.1921 6.78258 6.91188
26.2081 6.73918 6.91345
26.2239 6.69576 6.91485
26.241 6.65285 6.91712
26.2584 6.61002 6.91948
26.2754 6.56713 6.92168
26.2924 6.52429 6.92385
26.3098 6.48159 6.92615
26.3276 6.43911 6.92871
26.3465 6.39717 6.93202
26.3645 6.35478 6.93484
26.3821 6.31218 6.93756
26.3995 6.26943 6.94025
26.4169 6.22665 6.94292
26.4343 6.1839 6.94554
