BEGIN_Polyline
6.17383 26.8209 3.45325
6.21684 26.8041 3.46044
6.26025 26.7881 3.46729
6.30368 26.7722 3.47415
6.34709 26.7563 3.48107
6.39049 26.7404 3.48802
6.43388 26.7246 3.495
6.47726 26.7087 3.50199
6.52061 26.6929 3.50899
6.56394 26.6771 3.516
6.60726 26.6613 3.52303
6.65059 26.6455 3.53009
6.69381 26.6293 3.53731
6.73669 26.6125 3.54483
6.77959 26.5956 3.55237
6.82247 26.5788 3.55992
6.86531 26.562 3.56747
6.90814 26.5452 3.57503
6.95109 26.5284 3.58258
6.99423 26.5123 3.58996
7.03702 26.4964 3.59753
7.07894 26.478 3.60612
7.11924 26.4588 3.61657
7.17407 26.4616 3.6145
7.20177 26.4177 3.6364
7.24451 26.3965 3.64548
7.28725 26.376 3.65551
7.3301 26.3555 3.66556
7.37301 26.335 3.67561
7.41717 26.317 3.68444
7.46134 26.2981 3.69422
7.50773 26.2874 3.6988
7.55322 26.2769 3.70322
7.59798 26.2653 3.70824
7.64241 26.253 3.71332
7.68676 26.2407 3.7183
7.73076 26.2269 3.72402
7.77349 26.2101 3.73092
7.81795 26.1969 3.73663
7.86285 26.1848 3.74223
7.9078 26.1726 3.74813
7.95281 26.1605 3.7542
7.99788 26.1485 3.76038
8.04323 26.1372 3.7664
8.08867 26.1262 3.77244
8.13408 26.1151 3.77848
8.17944 26.1041 3.78449
8.22537 26.0959 3.78986
8.27175 26.0917 3.79425
8.3182 26.0874 3.79858
8.3647 26.0831 3.80286
8.41122 26.0788 3.80714
8.45774 26.0743 3.81144
8.50429 26.0698 3.81575
8.55087 26.0654 3.82005
8.59637 26.0504 3.82642
8.64452 26.0546 3.82927
8.69118 26.0486 3.83388
8.73738 26.0399 3.83906
8.78357 26.0307 3.84425
8.8295 26.0216 3.84973
8.87537 26.0126 3.85525
8.92127 26.0036 3.86071
8.96716 25.9945 3.86611
9.01302 25.9854 3.87147
9.05886 25.9764 3.87677
9.10467 25.9673 3.88201
9.15045 25.9582 3.88718
9.19523 25.9451 3.89332
9.23983 25.9311 3.89964
9.28436 25.917 3.90594
9.32877 25.9029 3.91214
9.37293 25.8888 3.91811
9.41697 25.8747 3.92394
9.46097 25.8606 3.92968
9.50496 25.8465 3.93535
9.54896 25.8324 3.941
9.59298 25.8182 3.94658
9.6371 25.8041 3.95208
9.68216 25.7929 3.95681
9.72743 25.7816 3.96126
9.77274 25.7703 3.96556
9.81741 25.7569 3.97023
9.86172 25.7425 3.97507
9.90603 25.728 3.9799
9.95032 25.7135 3.9846
9.99463 25.6989 3.98913
10.0283 25.655 4.00104
10.0825 25.6735 3.99602
10.1274 25.6606 3.99895
10.1721 25.6474 4.00199
10.2167 25.6333 4.00521
10.2617 25.6207 4.00885
10.3066 25.6082 4.01268
10.3515 25.5956 4.01632
10.3964 25.5829 4.01986
10.4413 25.5702 4.02327
10.4862 25.5575 4.02657
10.531 25.5448 4.02976
10.5758 25.5319 4.03288
10.6207 25.519 4.03589
10.6654 25.5058 4.03888
10.71 25.492 4.04192
10.7546 25.4782 4.04485
10.7992 25.4644 4.04764
10.8438 25.4505 4.05031
10.8873 25.4332 4.05402
10.9313 25.4169 4.05712
10.9754 25.4014 4.05986
11.0195 25.3857 4.0625
11.0635 25.3696 4.06517
11.1074 25.3533 4.06781
11.1512 25.337 4.07036
11.1951 25.3206 4.07281
11.2387 25.3043 4.07516
11.2829 25.2877 4.07744
11.3282 25.2694 4.08011
11.3724 25.2474 4.08404
11.4166 25.2254 4.0879
11.4287 25.1441 4.11455
11.5028 25.1823 4.09531
11.5448 25.1613 4.09885
11.5865 25.1404 4.10233
11.6282 25.1195 4.10561
11.6705 25.0981 4.10834
11.7139 25.0793 4.11028
11.7578 25.0648 4.11163
11.7995 25.0441 4.11432
11.841 25.0226 4.11684
11.8825 25.001 4.1191
11.9241 24.9797 4.12115
11.9663 24.9595 4.12283
12.0083 24.9393 4.12455
12.0503 24.9191 4.12623
12.0921 24.8983 4.12796
12.1324 24.8752 4.13033
12.1728 24.8519 4.13259
12.2132 24.8287 4.13476
12.2536 24.8054 4.13684
12.294 24.7821 4.13885
12.3344 24.7588 4.1408
12.3747 24.7354 4.14269
12.4151 24.7121 4.14451
12.4555 24.6887 4.14628
12.4958 24.6654 4.148
12.5362 24.642 4.14966
12.5762 24.618 4.15144
12.6162 24.594 4.1532
12.6563 24.57 4.15487
12.6963 24.546 4.15648
12.7363 24.522 4.15805
12.7777 24.5002 4.15899
12.8164 24.4739 4.16104
12.8565 24.4498 4.16246
12.8965 24.4257 4.16383
12.9366 24.4016 4.16517
12.9766 24.3775 4.16648
13.0166 24.3534 4.16774
13.0582 24.332 4.16828
13.0998 24.3106 4.16871
13.1414 24.2891 4.16892
13.183 24.2677 4.16906
13.2259 24.249 4.1687
13.2689 24.2304 4.1683
13.3118 24.2117 4.16787
13.3547 24.1931 4.16748
13.3977 24.1746 4.16716
13.4413 24.1577 4.16677
13.4849 24.1409 4.16679
13.5284 24.1241 4.16699
13.5719 24.1074 4.16728
13.6148 24.0892 4.16779
13.6572 24.0701 4.16819
13.6996 24.051 4.1686
13.742 24.0319 4.16904
13.7844 24.0128 4.16953
13.827 23.9936 4.17012
13.8697 23.9744 4.17071
13.9123 23.9552 4.17122
13.9546 23.9353 4.1717
13.9967 23.9149 4.17218
14.0389 23.8944 4.17262
14.0826 23.8689 4.17285
14.0884 23.7797 4.17373
14.1672 23.8182 4.17326
14.2074 23.7941 4.17344
14.2477 23.7699 4.17352
14.2886 23.7466 4.17341
14.3287 23.7213 4.17296
14.3683 23.695 4.17241
14.4075 23.668 4.17177
14.4466 23.6409 4.17138
14.4846 23.6135 4.17178
14.5221 23.5857 4.17256
14.5596 23.5579 4.17342
14.598 23.5315 4.17411
14.6364 23.505 4.17463
14.6749 23.4786 4.17511
14.7132 23.452 4.17562
14.7513 23.425 4.17621
14.7894 23.3982 4.17686
14.8275 23.3713 4.17755
14.8655 23.3444 4.17826
14.9036 23.3176 4.17898
14.9428 23.2924 4.17952
14.9826 23.2678 4.17998
15.0223 23.2432 4.18046
15.062 23.2187 4.18092
15.1016 23.1942 4.18138
15.1412 23.1697 4.18182
15.1807 23.1453 4.1822
15.2204 23.1208 4.1827
15.2595 23.0945 4.18373
15.2978 23.0669 4.18497
15.336 23.0383 4.18621
15.3566 22.987 4.18851
15.4112 22.9805 4.18752
15.4481 22.9516 4.18771
15.4841 22.9225 4.18853
15.5202 22.8934 4.18934
15.5567 22.8646 4.19012
15.5944 22.8373 4.19073
15.6324 22.8107 4.1913
15.6714 22.7854 4.19174
15.7109 22.7606 4.19211
15.7505 22.7358 4.19253
15.7902 22.711 4.19301
15.8298 22.6862 4.19351
15.8695 22.6614 4.19402
15.9091 22.6367 4.19455
15.9487 22.6119 4.19512
15.9883 22.5871 4.19572
16.0269 22.5608 4.19664
16.0651 22.534 4.19767
16.1034 22.5072 4.19874
16.1417 22.4804 4.19985
16.18 22.4535 4.20101
16.2183 22.4267 4.20221
16.2566 22.3999 4.20345
16.2949 22.3731 4.20474
16.3332 22.3463 4.20606
16.3715 22.3195 4.20744
16.4099 22.2927 4.20887
16.4482 22.2658 4.21036
16.4866 22.2391 4.21191
16.5249 22.2122 4.21352
16.5634 22.1854 4.21524
16.577 22.123 4.22349
16.641 22.1312 4.21828
16.6799 22.1036 4.21984
16.7189 22.0763 4.22203
16.758 22.0497 4.22439
16.7962 22.0222 4.22673
16.8335 21.9937 4.22927
16.8709 21.9652 4.23197
16.9082 21.9367 4.2347
16.9455 21.9082 4.23735
16.9828 21.8797 4.24001
17.0201 21.8513 4.24273
17.0573 21.8229 4.24555
17.0946 21.7945 4.24852
17.1311 21.7652 4.25175
17.167 21.7353 4.25511
17.2029 21.7054 4.25858
17.2388 21.6757 4.26213
17.2746 21.646 4.26579
17.3103 21.6163 4.26957
17.3461 21.5866 4.27351
17.3817 21.557 4.27762
17.4174 21.5275 4.28188
17.4531 21.4979 4.2863
17.4889 21.4682 4.29087
17.5251 21.4381 4.29554
17.5613 21.408 4.30038
17.5971 21.3775 4.30555
17.6306 21.3447 4.31104
17.664 21.3124 4.31615
17.6977 21.2802 4.32161
17.7321 21.249 4.3272
17.7262 21.1743 4.33994
17.8016 21.1865 4.34132
17.8366 21.1552 4.34979
17.8703 21.1227 4.35831
17.9038 21.0899 4.36749
17.9369 21.0574 4.37517
17.97 21.025 4.38263
18.0038 20.9936 4.3904
18.0376 20.9622 4.39847
18.0715 20.9308 4.40702
18.1055 20.8994 4.41591
18.1393 20.8681 4.42507
18.1731 20.8368 4.43447
18.2046 20.8033 4.44425
18.2364 20.77 4.45417
18.2677 20.7365 4.46434
18.2989 20.7029 4.47472
18.3297 20.6692 4.48528
18.3602 20.6354 4.49607
18.3906 20.6016 4.50711
18.421 20.5678 4.51842
18.4507 20.5338 4.53001
18.4804 20.4998 4.54191
18.5101 20.4658 4.55413
18.5397 20.4318 4.56678
18.5696 20.3976 4.58006
18.5994 20.3635 4.59373
18.6285 20.3289 4.6078
18.655 20.2925 4.622
18.6811 20.2567 4.63618
18.7075 20.2212 4.65084
18.7361 20.188 4.66583
18.7374 20.1314 4.68113
18.7931 20.1217 4.69777
18.8216 20.0886 4.71473
18.8504 20.0561 4.73206
18.8782 20.0228 4.74975
18.9059 19.9897 4.76753
18.9331 19.9565 4.78553
18.9602 19.9233 4.80386
18.9873 19.8901 4.82241
19.0143 19.8571 4.84107
19.0413 19.824 4.8599
19.0675 19.7904 4.87894
19.0925 19.756 4.89808
19.1184 19.7224 4.91754
19.1443 19.6889 4.9372
19.1701 19.6553 4.95705
19.1958 19.6218 4.97711
19.2215 19.5883 4.99737
19.2472 19.5549 5.01779
19.2728 19.5215 5.03836
19.2984 19.4881 5.05903
19.3228 19.4537 5.07957
19.3475 19.4196 5.1003
19.3722 19.3856 5.12115
19.3968 19.3516 5.14213
19.4213 19.3176 5.16324
19.4459 19.2836 5.18446
19.4703 19.2497 5.2057
19.4948 19.2157 5.22714
19.5191 19.1815 5.24906
19.5424 19.1465 5.27088
19.5657 19.1114 5.2927
19.5548 19.0474 5.30477
19.6128 19.0408 5.33611
19.6363 19.0053 5.3575
19.6587 18.9697 5.37819
19.681 18.9341 5.39882
19.7032 18.8984 5.41945
19.7253 18.8626 5.44
19.7474 18.8268 5.46051
19.7695 18.791 5.48099
19.7909 18.7547 5.50126
19.8121 18.7182 5.52145
19.8334 18.6818 5.5416
19.8546 18.6453 5.5617
19.8759 18.6088 5.58176
19.8972 18.5723 5.60175
19.9186 18.5358 5.62167
19.9399 18.4994 5.64151
19.9612 18.4629 5.66121
19.9824 18.4264 5.68079
20.0037 18.39 5.70028
20.025 18.3535 5.71967
20.0457 18.3164 5.73879
20.0658 18.2789 5.75758
20.0854 18.2408 5.77601
20.1047 18.2025 5.79415
20.1262 18.1654 5.8129
20.1497 18.1299 5.83236
20.1734 18.0943 5.85163
20.1972 18.0587 5.87068
20.2211 18.0231 5.88947
20.2446 17.9869 5.90771
20.2677 17.9503 5.92542
20.3007 17.9223 5.94796
20.3179 17.8789 5.96139
20.3436 17.8442 5.97907
20.3694 17.8095 5.99647
20.3954 17.7747 6.01361
20.4215 17.7399 6.03051
20.4478 17.7052 6.04717
20.4742 17.6704 6.06361
20.5007 17.6356 6.07987
20.5274 17.6006 6.09598
20.5541 17.5654 6.11182
20.5809 17.5302 6.12742
20.6071 17.4945 6.14247
20.6315 17.457 6.15624
20.656 17.4196 6.16984
20.6806 17.3822 6.18326
20.7052 17.3448 6.19651
20.7298 17.3075 6.20957
20.7543 17.2702 6.22243
20.7789 17.2329 6.2351
20.8037 17.1956 6.24763
20.8294 17.1587 6.2608
20.8591 17.1255 6.27579
20.889 17.0925 6.29063
20.9186 17.0592 6.30503
20.9475 17.0249 6.31853
20.9753 16.9895 6.33117
21.0032 16.9542 6.34355
21.0312 16.9188 6.35569
21.0592 16.8834 6.36767
21.0875 16.848 6.37939
21.1158 16.8126 6.39085
21.1253 16.7592 6.39367
21.1741 16.7407 6.41114
21.2016 16.7031 6.42079
21.2284 16.6659 6.43025
21.2552 16.6287 6.43947
21.2821 16.5915 6.44842
21.3096 16.5547 6.45731
21.3366 16.5174 6.46583
21.3637 16.4802 6.47414
21.3908 16.4429 6.48224
21.418 16.4056 6.49014
21.4453 16.3684 6.49786
21.4727 16.3311 6.50542
21.5 16.2937 6.51276
21.5258 16.2552 6.51944
21.5514 16.2166 6.52592
21.5771 16.178 6.53226
21.6028 16.1395 6.53849
21.6285 16.1009 6.54455
21.6537 16.062 6.55035
21.6794 16.0235 6.55618
21.705 15.9848 6.56184
21.7306 15.9461 6.56738
21.7564 15.9075 6.57285
21.7833 15.8697 6.57869
21.8104 15.8319 6.58451
21.8374 15.794 6.59026
21.8645 15.7562 6.5959
21.8907 15.7176 6.60109
21.9164 15.6787 6.60604
21.9421 15.6398 6.61094
21.9678 15.6008 6.61572
21.9726 15.5471 6.61203
22.0189 15.5231 6.62524
22.0448 15.4844 6.63027
22.0708 15.4457 6.63526
22.0968 15.407 6.64021
22.1228 15.3684 6.64507
22.1464 15.3279 6.64888
22.17 15.2875 6.65263
22.1937 15.2471 6.65631
22.22 15.2087 6.66101
22.2464 15.1703 6.66556
22.271 15.1306 6.66909
22.2954 15.0907 6.67236
22.3197 15.0508 6.67568
22.344 15.0109 6.67897
22.3683 14.971 6.68219
22.3925 14.931 6.6853
22.4152 14.8903 6.68784
22.4374 14.8493 6.69016
22.4616 14.8093 6.69305
22.4866 14.7699 6.69626
22.5107 14.73 6.69916
22.5347 14.6901 6.70203
22.5588 14.6502 6.70485
22.5829 14.6102 6.70757
22.6072 14.5702 6.71009
22.6315 14.5303 6.71254
22.655 14.4898 6.71475
22.6783 14.4492 6.71682
22.7015 14.4087 6.71887
22.7249 14.3681 6.72091
22.7469 14.3253 6.72257
22.7337 14.2641 6.7111
22.7913 14.2409 6.72453
22.8134 14.1981 6.72647
22.8335 14.1557 6.72769
22.8537 14.1134 6.72898
22.8738 14.0711 6.73024
22.8931 14.0284 6.73124
22.9122 13.9856 6.73217
22.9313 13.9427 6.73307
22.9519 13.9005 6.73436
22.9731 13.8587 6.73583
22.9915 13.8157 6.73659
23.0098 13.7727 6.73728
23.027 13.7292 6.7376
23.0435 13.6854 6.73772
23.0601 13.6416 6.73781
23.0765 13.5979 6.73785
23.0926 13.5541 6.73778
23.1087 13.5105 6.7377
23.1248 13.4669 6.7376
23.141 13.4232 6.7375
23.1571 13.3796 6.73743
23.1734 13.336 6.73743
23.19 13.2925 6.73751
23.2049 13.2484 6.73707
23.2198 13.2043 6.73668
23.2346 13.1603 6.73627
23.2493 13.1162 6.73594
23.2642 13.0721 6.73535
23.2818 13.0283 6.73477
23.3011 12.9848 6.73442
23.3188 12.9408 6.73296
23.3672 12.9097 6.747
23.3566 12.8533 6.73107
23.3755 12.8093 6.73028
23.3943 12.7653 6.72955
23.4142 12.7222 6.72976
23.4362 12.681 6.73216
23.458 12.6398 6.73467
23.4798 12.5985 6.73694
23.5016 12.5572 6.7392
23.5234 12.5159 6.7415
23.5452 12.4746 6.74382
23.567 12.4333 6.74614
23.5888 12.3919 6.74844
23.6106 12.3506 6.75072
23.6327 12.3095 6.75327
23.6551 12.2686 6.75596
23.6774 12.2277 6.75867
23.6996 12.1869 6.76146
23.7217 12.1461 6.76427
23.7437 12.1053 6.76696
23.7654 12.0643 6.76944
23.7899 12.0249 6.77372
23.8143 11.9854 6.77795
23.8388 11.9459 6.7822
23.8628 11.906 6.78613
23.8866 11.8659 6.79019
23.9104 11.8257 6.79431
23.9338 11.7854 6.79808
23.9558 11.7442 6.80072
23.9777 11.7028 6.80335
23.999 11.6608 6.80534
24.0207 11.6192 6.80775
24.0188 11.5639 6.79029
24.0644 11.5357 6.81246
24.0864 11.4939 6.81476
24.1083 11.4521 6.81703
24.1302 11.4103 6.8193
24.1522 11.3685 6.82157
24.1728 11.3259 6.82272
24.192 11.2828 6.82278
24.2104 11.2393 6.82209
24.2286 11.1961 6.82137
24.2473 11.1532 6.82104
24.266 11.1105 6.82081
24.2848 11.0678 6.82059
24.3035 11.0251 6.82041
24.3222 10.9823 6.82024
24.3409 10.9396 6.8201
24.3592 10.8968 6.81959
24.3778 10.854 6.81892
24.3957 10.811 6.81777
24.4111 10.7672 6.81523
24.4264 10.7234 6.8127
24.4417 10.6797 6.81022
24.4577 10.6361 6.80816
24.4737 10.5926 6.80623
24.4896 10.5489 6.80435
24.5056 10.505 6.80255
24.5237 10.4618 6.80226
24.5421 10.4186 6.80212
24.5604 10.3753 6.80203
24.5807 10.3325 6.80308
24.6014 10.2897 6.80438
24.622 10.2469 6.80565
24.6704 10.2178 6.82465
24.6637 10.1591 6.81075
24.6865 10.1185 6.81317
24.7092 10.0779 6.8156
24.7319 10.0374 6.818
24.7546 9.99681 6.82047
24.7773 9.95622 6.82295
24.7999 9.91563 6.82543
24.8226 9.87501 6.82793
24.8454 9.83428 6.83044
24.8682 9.79351 6.83298
24.8909 9.75273 6.83554
24.9126 9.71133 6.83754
24.9334 9.66961 6.83932
24.9548 9.62819 6.84133
24.9761 9.58678 6.84333
24.9975 9.54536 6.84529
25.0189 9.50393 6.84718
25.0403 9.4625 6.84903
25.0617 9.42106 6.85087
25.0832 9.37962 6.8527
25.1042 9.33794 6.85436
25.1255 9.29646 6.85619
25.1468 9.25493 6.85799
25.1681 9.2134 6.85981
25.1894 9.17188 6.86166
25.2106 9.13036 6.86354
25.2319 9.08882 6.86542
25.2532 9.04726 6.86731
25.2744 9.00569 6.8692
25.2957 8.96408 6.87109
25.3171 8.92244 6.87298
25.3212 8.87161 6.8681
25.36 8.83906 6.87705
25.3816 8.79712 6.87905
25.403 8.75514 6.8808
25.4243 8.71315 6.88255
25.4457 8.67115 6.88432
25.467 8.62914 6.8861
25.4883 8.58714 6.88791
25.5092 8.54496 6.88961
25.5288 8.50226 6.89096
25.5485 8.45959 6.89235
25.5681 8.41695 6.89377
25.5876 8.3743 6.89519
25.6071 8.33161 6.89659
25.6265 8.28895 6.89801
25.6459 8.24632 6.89947
25.6635 8.20295 6.90036
25.6806 8.15944 6.90111
25.6988 8.11646 6.90234
25.717 8.07352 6.90361
25.7344 8.03031 6.90465
25.7506 7.98659 6.90524
25.7652 7.94226 6.90524
25.7796 7.89792 6.90519
25.794 7.85356 6.90513
25.8095 7.80939 6.90543
25.8263 7.76582 6.90626
25.8386 7.72096 6.90524
25.8515 7.67626 6.9045
25.8657 7.6316 6.90413
25.8809 7.5873 6.90423
25.8971 7.5436 6.90466
25.924 7.50334 6.91016
25.9266 7.45474 6.90366
25.9415 7.41004 6.90303
25.9578 7.36586 6.90305
25.9757 7.32226 6.90384
25.9934 7.27893 6.90465
26.0111 7.23568 6.90547
26.0288 7.19239 6.90629
26.0465 7.1491 6.9071
26.0643 7.10577 6.90789
26.0818 7.0624 6.90863
26.1012 7.0199 6.91051
26.1205 6.97738 6.91241
26.1409 6.93528 6.91491
26.1608 6.89295 6.91712
26.1795 6.85005 6.9185
26.1981 6.80713 6.91992
26.2168 6.76419 6.9214
26.2354 6.72123 6.92293
26.2539 6.67826 6.92448
26.2725 6.63531 6.92606
26.2919 6.59266 6.92815
26.3125 6.55086 6.93128
26.3323 6.5085 6.93372
26.3521 6.46606 6.93618
26.372 6.42338 6.93869
26.3937 6.3816 6.94248
26.4173 6.34111 6.94765
26.4409 6.30058 6.95283
26.465 6.26038 6.95836
26.4893 6.2203 6.964
26.5136 6.18025 6.96964
26.5411 6.14259 6.97776
26.5619 6.10062 6.98087
26.584 6.05969 6.98502
26.6054 6.01823 6.98864
26.6268 5.97679 6.99227
26.6481 5.93533 6.99584
26.6685 5.89334 6.99867
26.6885 5.85118 7.00124
26.7085 5.809 7.00381
26.7281 5.76651 7.00608
26.7472 5.72381 7.00798
26.7683 5.68227 7.0114
26.7895 5.64073 7.01482
26.8107 5.5992 7.01823
26.8318 5.55767 7.02165
26.853 5.51615 7.02507
26.8741 5.47464 7.0285
26.8958 5.43349 7.03237
26.9176 5.39238 7.03629
26.9394 5.35128 7.04021
26.9609 5.31002 7.04392
26.9814 5.26818 7.04687
27.0024 5.22662 7.05021
27.0235 5.18514 7.05364
27.0446 5.14368 7.05707
27.0657 5.10225 7.0605
27.0868 5.06084 7.06392
27.1079 5.01941 7.06732
27.129 4.97795 7.07079
27.15 4.93638 7.07451
27.1708 4.89468 7.07805
27.1918 4.85402 7.08135
27.1824 4.79386 7.06115
27.2327 4.76516 7.08389
27.2513 4.72213 7.08586
27.2701 4.67907 7.08777
27.2888 4.63603 7.08969
27.3076 4.59295 7.09157
27.3264 4.54988 7.09343
27.3452 4.50685 7.09527
27.3637 4.46376 7.09691
27.3813 4.42034 7.09777
27.3989 4.37695 7.0986
27.4164 4.33353 7.09931
27.4334 4.28993 7.0997
27.449 4.24576 7.0991
27.4645 4.20154 7.09845
27.48 4.15732 7.09779
27.4959 4.11323 7.09734
27.5122 4.0694 7.09726
27.5285 4.0256 7.09718
27.5448 3.98179 7.09705
27.561 3.93796 7.09688
27.5771 3.89414 7.09672
27.5933 3.85031 7.09656
27.6095 3.80648 7.09641
27.6256 3.76262 7.09624
27.6421 3.71877 7.09619
27.6587 3.67499 7.0963
27.6745 3.63094 7.09582
27.69 3.58673 7.09503
27.705 3.54227 7.09378
27.7201 3.49775 7.09245
27.7351 3.45321 7.09115
27.7255 3.40085 7.07364
27.7646 3.36426 7.0887
27.7796 3.31974 7.08806
27.7946 3.27522 7.08746
27.8096 3.23071 7.08689
27.8246 3.18623 7.08628
27.8383 3.14134 7.0848
27.8519 3.09638 7.08327
27.8652 3.05144 7.08157
27.8781 3.00656 7.07936
27.8911 2.96177 7.07709
27.9041 2.91699 7.07483
27.917 2.87221 7.07257
27.9299 2.8274 7.07037
27.9427 2.78253 7.06808
27.9554 2.73763 7.06577
27.9681 2.69273 7.06348
27.9807 2.6478 7.06123
27.9933 2.60285 7.059
28.0059 2.5579 7.0568
28.0185 2.51293 7.05463
28.0311 2.46796 7.05248
28.0437 2.42297 7.05035
28.0565 2.37805 7.04846
28.0684 2.3329 7.04594
28.0803 2.28774 7.04339
28.0922 2.24258 7.04095
28.1043 2.19746 7.03869
28.1163 2.15233 7.03645
28.1284 2.10723 7.03422
28.141 2.06225 7.03249
28.1545 2.01752 7.03148
28.1646 1.97184 7.02762
28.1815 1.92809 7.02932
28.195 1.88332 7.02807
28.2091 1.83871 7.02751
28.2232 1.79409 7.02699
28.2373 1.74946 7.02649
28.2514 1.70484 7.02605
28.2639 1.65974 7.02448
28.2763 1.6146 7.02284
28.2885 1.5695 7.02136
28.3007 1.5244 7.01996
28.3129 1.47931 7.01858
28.3251 1.43421 7.01723
28.3372 1.38911 7.0159
28.3501 1.3442 7.01508
28.363 1.2993 7.01427
28.3754 1.25427 7.01313
28.3871 1.20904 7.01145
28.3974 1.16351 7.00905
28.4078 1.11799 7.00663
28.4182 1.07243 7.00421
28.4286 1.0268 7.00182
28.4366 0.980724 6.9983
28.4442 0.934624 6.99457
28.4524 0.88867 6.99115
28.4638 0.843354 6.98915
28.4749 0.79794 6.98707
28.4855 0.752463 6.98487
28.4962 0.706889 6.98253
28.5069 0.660961 6.97962
28.5152 0.614523 6.97574
28.5235 0.568057 6.97188
28.5083 0.517993 6.96069
28.5423 0.475506 6.96468
28.5499 0.429131 6.96145
28.5575 0.382913 6.95819
28.5651 0.336628 6.95503
28.5722 0.289928 6.95185
28.5799 0.243397 6.94884
28.5933 0.198154 6.94713
28.5992 0.152195 6.94376
28.6052 0.105878 6.94049
28.6113 0.0594846 6.93728
28.6172 0.0131505 6.9341
28.6232 -0.0331658 6.93094
28.6277 -0.0796218 6.92745
28.6322 -0.126072 6.92397
28.6378 -0.172403 6.92075
28.6424 -0.218779 6.91735
28.6455 -0.265186 6.91361
28.6491 -0.311525 6.91002
28.6528 -0.357843 6.90644
28.6564 -0.404152 6.90288
28.66 -0.450477 6.89937
28.6636 -0.496795 6.89585
28.6673 -0.543088 6.8923
28.6709 -0.589371 6.88863
28.6747 -0.635671 6.88469
28.6779 -0.681967 6.88052
28.6791 -0.728223 6.87583
28.6821 -0.774396 6.87179
28.6851 -0.820588 6.86762
28.6882 -0.866839 6.8633
28.6913 -0.91303 6.859
28.7275 -0.958579 6.86604
28.7031 -1.00965 6.84637
28.7112 -1.05543 6.84393
28.7193 -1.1013 6.84135
28.7272 -1.14717 6.83871
28.7353 -1.19315 6.83599
28.7433 -1.23916 6.83325
28.7513 -1.28523 6.83053
28.7576 -1.33151 6.82693
28.7633 -1.37793 6.82289
28.7718 -1.42417 6.82041
28.7812 -1.47013 6.81883
28.7907 -1.51611 6.81722
28.8002 -1.5621 6.81553
28.8099 -1.60804 6.81397
28.82 -1.65391 6.8127
28.83 -1.69974 6.81147
28.84 -1.7455 6.81033
28.8499 -1.79122 6.80924
28.8598 -1.83692 6.80817
28.8697 -1.8826 6.80712
28.8798 -1.92826 6.8062
28.8904 -1.97379 6.80571
28.9028 -2.01891 6.80664
28.915 -2.06412 6.80736
28.9254 -2.10971 6.80657
28.9362 -2.15526 6.80612
28.9474 -2.20069 6.80597
28.9586 -2.24615 6.8058
28.9705 -2.29153 6.80615
28.9829 -2.33685 6.80682
28.9952 -2.38216 6.80749
29.0199 -2.42394 6.81969
29.02 -2.47294 6.80902
29.0327 -2.51788 6.81034
29.0455 -2.56282 6.81164
29.058 -2.60786 6.81261
29.0709 -2.65286 6.81389
29.0852 -2.69737 6.81645
29.0995 -2.74189 6.81903
29.1138 -2.78636 6.8216
29.1279 -2.83075 6.82398
29.1418 -2.87512 6.82618
29.1557 -2.91947 6.82838
29.1695 -2.96383 6.83048
29.1829 -3.00832 6.83229
29.1964 -3.05281 6.83407
29.2097 -3.09739 6.83561
29.2228 -3.14207 6.83696
29.2361 -3.18682 6.83821
29.2486 -3.23188 6.83871
29.2607 -3.27706 6.83887
29.2728 -3.32224 6.83899
29.285 -3.36732 6.8391
29.2969 -3.41251 6.83893
29.3085 -3.45783 6.83859
29.3201 -3.50326 6.83829
29.3312 -3.54911 6.83781
29.3401 -3.59545 6.83563
29.3494 -3.64185 6.83383
29.3587 -3.68831 6.83201
29.3681 -3.73479 6.83001
29.3771 -3.78135 6.82774
29.386 -3.82811 6.82546
29.3449 -3.88276 6.7832
29.4035 -3.92246 6.82169
29.4126 -3.97074 6.82048
29.4207 -4.0189 6.81863
29.4266 -4.0668 6.81462
29.4307 -4.11247 6.8087
29.4349 -4.15755 6.80269
29.439 -4.20301 6.79668
29.4446 -4.24876 6.79177
29.4501 -4.29515 6.78674
29.4528 -4.34158 6.77915
29.4556 -4.38817 6.77167
29.4584 -4.43489 6.76417
29.4612 -4.48167 6.75669
29.464 -4.52846 6.74922
29.4668 -4.57521 6.74176
29.4696 -4.62181 6.73432
29.4731 -4.66813 6.72756
29.4767 -4.71428 6.72093
29.4813 -4.76039 6.71515
29.4858 -4.80645 6.70933
29.4903 -4.85248 6.70351
29.4944 -4.8985 6.69731
29.4983 -4.9445 6.69109
29.5023 -4.99054 6.68485
29.5063 -5.03667 6.67858
29.5104 -5.08283 6.67229
29.5144 -5.12899 6.66599
29.5183 -5.17514 6.65958
29.5213 -5.22127 6.65255
29.5244 -5.26742 6.64551
29.5275 -5.31399 6.63819
29.5193 -5.35922 6.62301
29.5286 -5.40632 6.62023
29.5292 -5.45225 6.61138
29.5297 -5.49821 6.60252
29.5302 -5.54416 6.59367
29.5321 -5.59031 6.58576
29.534 -5.63647 6.57784
29.5358 -5.68261 6.56995
29.5382 -5.7288 6.56249
29.5413 -5.77503 6.55557
29.5429 -5.82118 6.5476
29.5445 -5.86728 6.53962
29.5461 -5.91337 6.53168
29.548 -5.95964 6.52412
29.5526 -6.00595 6.51857
29.5571 -6.05227 6.51307
29.5615 -6.0986 6.50766
29.5659 -6.14493 6.50234
29.5702 -6.19126 6.4971
29.5745 -6.23758 6.49192
29.5779 -6.28392 6.48624
29.5808 -6.33027 6.48026
29.5859 -6.37665 6.47594
29.5914 -6.42291 6.47196
29.5969 -6.46914 6.46809
29.6023 -6.51529 6.46436
29.6076 -6.56142 6.46072
29.6128 -6.60766 6.45715
29.618 -6.65386 6.45356
29.6219 -6.69994 6.44907
29.6252 -6.74606 6.44425
29.6285 -6.7922 6.43948
29.6621 -6.83857 6.45459
29.6361 -6.88717 6.43259
29.641 -6.93376 6.42925
29.6458 -6.98041 6.426
29.6511 -7.02698 6.42312
29.6566 -7.07337 6.42055
29.6621 -7.11972 6.41806
29.6675 -7.16612 6.41566
29.6729 -7.21256 6.41331
29.6783 -7.25911 6.41093
29.6837 -7.3057 6.40864
29.689 -7.35229 6.40648
29.6947 -7.39876 6.40491
29.7038 -7.44462 6.40628
29.713 -7.49053 6.40771
29.722 -7.53647 6.40925
29.7292 -7.58274 6.40947
29.7343 -7.62926 6.40811
29.7391 -7.67585 6.40683
29.7444 -7.72239 6.40622
29.751 -7.76875 6.40711
29.7582 -7.81491 6.40882
29.7652 -7.86106 6.41067
29.7721 -7.90724 6.41264
29.779 -7.95342 6.4147
29.7857 -7.99957 6.41681
29.7907 -8.04608 6.41735
29.7968 -8.09241 6.41941
29.8035 -8.13861 6.42242
29.8103 -8.18475 6.42576
29.8171 -8.23089 6.42939
29.8231 -8.27719 6.43272
29.8287 -8.32362 6.43602
29.8346 -8.37009 6.44012
29.8399 -8.41669 6.44421
29.8451 -8.46331 6.44847
29.85 -8.50996 6.45288
29.8547 -8.55661 6.45744
29.8593 -8.60323 6.46217
29.8637 -8.64977 6.4671
29.869 -8.69591 6.47343
29.8756 -8.74131 6.48187
29.8818 -8.78673 6.49008
29.8876 -8.83222 6.498
29.8937 -8.87747 6.50668
29.8985 -8.92311 6.51396
29.9031 -8.96885 6.52107
29.9075 -9.01467 6.52828
29.91 -9.06128 6.53274
29.9117 -9.10846 6.53607
29.9127 -9.15602 6.53863
29.9135 -9.20371 6.54132
29.9133 -9.25159 6.54268
29.9126 -9.29948 6.54379
29.9112 -9.34735 6.54419
29.9088 -9.3952 6.54345
29.9058 -9.44288 6.54228
29.9002 -9.48995 6.53795
29.8944 -9.537 6.53354
29.888 -9.58405 6.52875
29.8826 -9.63132 6.52552
29.8771 -9.67847 6.52237
29.8715 -9.72557 6.51934
29.8658 -9.77247 6.51643
29.8433 -9.81645 6.49309
29.8605 -9.87052 6.51817
29.8497 -9.91744 6.51212
29.84 -9.96241 6.5056
29.8302 -10.0073 6.4992
29.8202 -10.0524 6.49283
29.811 -10.0976 6.48779
29.8038 -10.1431 6.48592
29.7964 -10.1886 6.48419
29.7895 -10.2347 6.48339
29.7841 -10.2812 6.48505
29.7791 -10.3278 6.48739
29.774 -10.3744 6.48991
29.7686 -10.4208 6.49257
29.7632 -10.4672 6.49537
29.7576 -10.5135 6.49831
29.7519 -10.5598 6.50129
29.7463 -10.606 6.50419
29.7389 -10.652 6.50526
29.7283 -10.6975 6.50359
29.7171 -10.743 6.50164
29.7071 -10.789 6.50147
29.7003 -10.8352 6.50554
29.6932 -10.8814 6.50981
29.6859 -10.9275 6.51424
29.6785 -10.9733 6.51881
29.6706 -11.019 6.52331
29.6618 -11.0646 6.52719
29.6528 -11.1101 6.53126
29.6436 -11.1555 6.53556
29.634 -11.2009 6.54009
29.6241 -11.2461 6.54487
29.6146 -11.2914 6.55073
29.6033 -11.3364 6.55533
29.5923 -11.3814 6.56102
29.5816 -11.4264 6.56768
29.5698 -11.4712 6.57361
29.5577 -11.5159 6.57975
29.5454 -11.5605 6.58612
29.5328 -11.6051 6.59274
29.5202 -11.6496 6.59976
29.5074 -11.694 6.60704
29.4942 -11.7382 6.61434
29.4806 -11.7824 6.62173
29.4669 -11.8265 6.62935
29.453 -11.8704 6.63718
29.4388 -11.9143 6.64522
29.4244 -11.958 6.65332
29.4096 -12.0015 6.66143
29.3957 -12.0451 6.67078
29.3834 -12.0886 6.68203
29.3695 -12.1319 6.69201
29.3553 -12.1752 6.70199
29.341 -12.2184 6.71245
29.3282 -12.2616 6.72443
29.3153 -12.3047 6.73673
29.3012 -12.3477 6.7484
29.287 -12.3906 6.76033
29.2726 -12.4333 6.77247
29.258 -12.476 6.78481
29.2427 -12.5185 6.79694
29.2266 -12.5609 6.80873
29.2103 -12.6032 6.82078
29.1939 -12.6452 6.83324
29.1552 -12.685 6.82513
29.1607 -12.7293 6.85969
29.1437 -12.7715 6.87339
29.1264 -12.8136 6.88731
29.11 -12.8558 6.90246
29.0933 -12.8979 6.91795
29.0753 -12.9398 6.93246
29.0569 -12.9815 6.94671
29.0374 -13.0228 6.95966
29.0164 -13.0634 6.97056
28.9936 -13.1035 6.97919
28.9709 -13.1434 6.98842
28.948 -13.1833 6.99781
28.9249 -13.223 7.00744
28.9015 -13.2625 7.01726
28.8815 -13.3029 7.03185
28.8576 -13.342 7.04214
28.8337 -13.3809 7.05244
28.8097 -13.4198 7.06289
28.7855 -13.4583 7.07355
28.7612 -13.4968 7.08436
28.7367 -13.5357 7.09517
28.7166 -13.5756 7.11181
28.689 -13.612 7.12081
28.6628 -13.6487 7.13124
28.6368 -13.6852 7.14156
28.6124 -13.7223 7.15352
28.5892 -13.7595 7.16662
28.5658 -13.7968 7.17997
28.5413 -13.8339 7.19317
28.5164 -13.8712 7.20641
28.4912 -13.9086 7.21982
28.4192 -13.9296 7.19244
28.4409 -13.9854 7.24585
28.4156 -14.0246 7.25865
28.3897 -14.0637 7.27283
28.366 -14.1035 7.2882
28.337 -14.1418 7.30392
28.3022 -14.1767 7.31525
28.2645 -14.2101 7.32462
28.2268 -14.2425 7.33344
28.1916 -14.2731 7.34151
28.1576 -14.3031 7.34978
28.1238 -14.3327 7.35839
28.09 -14.3621 7.36723
28.0556 -14.3914 7.37655
28.0211 -14.4206 7.38614
27.9836 -14.4475 7.39268
27.9455 -14.4738 7.39846
27.91 -14.5024 7.40808
27.8765 -14.5327 7.41978
27.8429 -14.5629 7.43179
27.8092 -14.5928 7.44425
27.7756 -14.6226 7.45719
27.7421 -14.6523 7.47074
27.7085 -14.6817 7.48456
27.6748 -14.7108 7.49868
27.6409 -14.7396 7.51313
27.607 -14.7679 7.52789
27.5742 -14.7968 7.54436
27.5418 -14.8256 7.56164
27.5094 -14.854 7.57919
27.4769 -14.882 7.59712
27.4443 -14.9097 7.61546
27.4143 -14.9386 7.63673
27.3785 -14.965 7.65384
27.3486 -14.9927 7.6768
27.3168 -15.0196 7.69867
27.281 -15.0436 7.71684
27.2427 -15.0645 7.73215
27.2043 -15.085 7.74781
27.1671 -15.1067 7.76545
27.1328 -15.1298 7.78656
27.0989 -15.1531 7.80725
27.0696 -15.1784 7.83368
27.038 -15.204 7.85975
26.9999 -15.2235 7.87929
26.9629 -15.2434 7.8995
26.9276 -15.2638 7.92153
26.8916 -15.2836 7.94331
26.8554 -15.3034 7.96481
26.8228 -15.3263 7.9896
26.7902 -15.3492 8.01466
26.7554 -15.3723 8.03921
26.7147 -15.3872 8.05815
26.676 -15.4045 8.07883
26.6397 -15.4226 8.10178
26.6013 -15.4392 8.12251
26.5631 -15.456 8.14328
26.5249 -15.4732 8.16373
26.4875 -15.4913 8.18479
26.4512 -15.5104 8.20645
26.4154 -15.5303 8.2289
26.3761 -15.5459 8.24991
26.337 -15.5625 8.27167
26.2982 -15.5791 8.29387
26.2457 -15.5792 8.30409
26.2211 -15.6121 8.33792
26.1827 -15.6286 8.35971
26.1445 -15.6451 8.38156
26.1062 -15.6614 8.40351
26.0683 -15.678 8.42604
26.0311 -15.6952 8.44922
25.9937 -15.7122 8.47232
25.9563 -15.7291 8.49553
25.9185 -15.7461 8.51893
25.8821 -15.7647 8.54351
25.8454 -15.7833 8.56827
25.8048 -15.7956 8.58925
25.7632 -15.8061 8.60928
25.7206 -15.8147 8.62823
25.6779 -15.8233 8.64728
25.6355 -15.8316 8.66647
25.5945 -15.8416 8.68696
25.5548 -15.8529 8.70874
25.5146 -15.8634 8.72995
25.4739 -15.8731 8.75055
25.4334 -15.8827 8.77142
25.393 -15.8921 8.79242
25.3525 -15.9014 8.81353
25.312 -15.9106 8.8348
25.272 -15.9206 8.85718
25.2328 -15.9315 8.88076
25.193 -15.9424 8.9043
25.1504 -15.9483 8.92292
25.1079 -15.9541 8.94158
25.0655 -15.9599 8.96027
25.0231 -15.9656 8.97899
24.9804 -15.971 8.99725
24.9398 -15.98 9.01885
24.899 -15.9885 9.04021
24.8592 -15.9984 9.06318
24.8194 -16.0084 9.08613
24.7796 -16.0181 9.10913
24.7399 -16.0278 9.13215
24.6996 -16.0372 9.15445
24.6588 -16.046 9.17589
24.6181 -16.0548 9.19776
24.5778 -16.0636 9.22006
24.5375 -16.0723 9.24254
24.4956 -16.0796 9.26244
24.4532 -16.0864 9.28128
24.4122 -16.0938 9.30308
24.3718 -16.1018 9.32519
24.331 -16.1091 9.34682
24.2888 -16.1144 9.36575
24.2465 -16.1195 9.3848
24.2044 -16.1245 9.40425
24.1637 -16.1309 9.42602
24.1232 -16.1374 9.44792
24.0827 -16.1436 9.46992
24.0421 -16.1492 9.49195
24.0004 -16.1537 9.51195
23.959 -16.1575 9.53245
23.9177 -16.1611 9.55312
23.8775 -16.1664 9.57593
23.8381 -16.1721 9.60042
23.7987 -16.1769 9.62522
23.7592 -16.1813 9.64993
23.7178 -16.1845 9.67316
23.6697 -16.1841 9.68326
23.6321 -16.1889 9.71402
23.5904 -16.1915 9.7366
23.5489 -16.194 9.76039
23.5072 -16.1961 9.78398
23.4654 -16.1978 9.80762
23.4237 -16.1993 9.83133
23.382 -16.2005 9.8551
23.3403 -16.2014 9.87891
23.2988 -16.202 9.90272
23.2575 -16.2023 9.92655
23.2162 -16.2023 9.95039
23.1751 -16.202 9.97424
23.134 -16.2013 9.99791
23.0926 -16.2 10.0207
23.0512 -16.1984 10.0432
23.0099 -16.1963 10.0653
22.9688 -16.194 10.0872
22.928 -16.1914 10.1091
22.8872 -16.1882 10.1308
22.8447 -16.1839 10.1483
22.8024 -16.1789 10.1658
22.7602 -16.1734 10.1834
22.719 -16.168 10.2027
22.6781 -16.1626 10.2221
22.638 -16.1575 10.2418
22.5982 -16.1526 10.2613
22.5579 -16.1481 10.2806
22.5182 -16.1438 10.3002
22.4795 -16.1391 10.3196
22.4412 -16.1339 10.34
22.4038 -16.1293 10.3598
22.3166 -16.0799 10.2871
22.281 -16.0739 10.4032
22.2295 -16.0521 10.4049
22.1891 -16.0429 10.4035
22.1485 -16.033 10.4048
22.1055 -16.0198 10.4149
22.0621 -16.0063 10.4276
22.0184 -15.9909 10.43
21.9754 -15.976 10.4361
21.9334 -15.9571 10.4346
21.8922 -15.9365 10.4293
21.8507 -15.915 10.4241
21.8091 -15.8929 10.4197
21.7665 -15.8709 10.4194
21.7237 -15.8484 10.4197
21.681 -15.8256 10.42
21.6382 -15.8029 10.4203
21.5943 -15.7813 10.4223
21.5513 -15.759 10.4196
21.5118 -15.7345 10.4095
21.4718 -15.7102 10.4001
21.4314 -15.6857 10.3908
21.391 -15.6611 10.3814
21.3507 -15.6363 10.3721
21.3108 -15.6114 10.3628
21.2721 -15.5863 10.3541
21.2334 -15.5612 10.3462
21.1948 -15.536 10.3383
21.1546 -15.5109 10.3315
21.1134 -15.4855 10.3167
21.0726 -15.4576 10.2978
21.0284 -15.429 10.282
21.0126 -15.3923 10.2203
20.951 -15.3728 10.2462
20.9163 -15.3465 10.2304
20.8818 -15.32 10.2149
20.8442 -15.2944 10.2043
20.8045 -15.2678 10.1942
20.7694 -15.2408 10.175
20.7345 -15.2135 10.156
20.7001 -15.1865 10.1369
20.6673 -15.1604 10.1168
20.6347 -15.1346 10.0973
20.6024 -15.1086 10.078
20.5694 -15.0823 10.0605
20.5385 -15.0568 10.0395
20.5059 -15.0294 10.0219
20.4739 -15.0022 10.0022
20.4459 -14.9754 9.97724
20.4125 -14.9468 9.96396
20.3817 -14.9195 9.93887
20.351 -14.8921 9.91699
20.3196 -14.8642 9.89684
20.2886 -14.8358 9.87685
20.2563 -14.8066 9.85993
20.2274 -14.7782 9.83516
20.1959 -14.7492 9.81548
20.165 -14.7197 9.79615
20.134 -14.6898 9.77764
20.1007 -14.6577 9.76129
20.0756 -14.63 9.73325
20.0475 -14.5999 9.71069
20.0221 -14.5699 9.68433
19.994 -14.5386 9.6639
19.969 -14.5086 9.63574
19.9405 -14.4767 9.61587
19.9137 -14.4453 9.59339
19.8883 -14.4136 9.56819
19.8669 -14.3839 9.53796
19.8407 -14.3511 9.51589
19.8144 -14.3181 9.49382
19.7885 -14.2848 9.47176
19.7628 -14.2513 9.44979
19.7376 -14.2178 9.42797
19.7115 -14.1829 9.40944
19.6865 -14.1484 9.38885
19.6616 -14.1137 9.36854
19.6369 -14.0788 9.34855
19.6124 -14.0438 9.32864
19.5881 -14.0087 9.30882
19.5629 -13.9729 9.29191
19.537 -13.937 9.27679
19.5123 -13.9013 9.26016
19.4869 -13.8652 9.24555
19.4622 -13.8291 9.22983
19.4377 -13.7928 9.21429
19.4131 -13.7562 9.19986
19.3886 -13.7195 9.18552
19.3645 -13.6826 9.17128
19.3418 -13.6457 9.15467
19.3196 -13.6088 9.13734
19.2974 -13.5716 9.12077
19.2755 -13.5342 9.10429
19.2537 -13.4965 9.08783
19.2316 -13.4584 9.0725
19.2093 -13.42 9.05841
19.1834 -13.3804 9.05323
19.1681 -13.3429 9.02759
19.1479 -13.3038 9.0115
19.1274 -13.2644 8.99646
19.1059 -13.2246 8.9842
19.0845 -13.1849 8.97244
19.0635 -13.1451 8.96082
19.0426 -13.105 8.9493
19.023 -13.0649 8.9358
19.004 -13.0246 8.92171
18.9853 -12.9842 8.90762
18.9671 -12.9436 8.89307
18.9484 -12.9028 8.87992
18.9292 -12.8619 8.86826
18.9102 -12.8207 8.85671
18.8914 -12.7795 8.84528
18.8729 -12.7381 8.83397
18.8554 -12.6965 8.8212
18.8384 -12.6549 8.80831
18.8205 -12.6131 8.79717
18.8029 -12.5712 8.78615
18.7854 -12.5291 8.77526
18.7682 -12.487 8.76448
18.7511 -12.4447 8.75383
18.7343 -12.4023 8.7433
18.7178 -12.3598 8.73269
18.7015 -12.3171 8.72211
18.6854 -12.2744 8.71164
18.6695 -12.2316 8.70129
18.6539 -12.1889 8.69079
18.6394 -12.1461 8.67902
18.6253 -12.1033 8.66687
18.6036 -12.0595 8.66728
18.5974 -12.0174 8.64274
18.5836 -11.9742 8.63079
18.5699 -11.9309 8.61915
18.5563 -11.8876 8.60761
18.5422 -11.8441 8.5973
18.5273 -11.8004 8.58895
18.5125 -11.7567 8.58065
18.4979 -11.7128 8.57247
18.4837 -11.6691 8.56441
18.4699 -11.6253 8.55627
18.4562 -11.5814 8.54822
18.4428 -11.5375 8.54025
18.4294 -11.4935 8.53236
18.4163 -11.4494 8.52454
18.4033 -11.4052 8.51668
18.3907 -11.3609 8.50859
18.3782 -11.3166 8.50054
18.3659 -11.2721 8.49246
18.3537 -11.2276 8.48445
18.3418 -11.183 8.47653
18.3299 -11.1383 8.46869
18.3178 -11.0936 8.46196
18.3056 -11.0488 8.45562
18.2936 -11.0039 8.44935
18.2817 -10.959 8.44316
18.27 -10.9141 8.43704
18.2584 -10.8691 8.43099
18.2471 -10.824 8.42504
18.2358 -10.7787 8.4197
18.2245 -10.7333 8.41498
18.2125 -10.6874 8.40997
18.1871 -10.6431 8.43433
18.1882 -10.5964 8.40332
18.1767 -10.5512 8.40031
18.1654 -10.506 8.39735
18.1542 -10.4609 8.39447
18.1432 -10.4157 8.39165
18.1322 -10.3704 8.3889
18.1215 -10.3251 8.38621
18.1108 -10.2798 8.38359
18.1005 -10.2344 8.38051
18.0902 -10.189 8.37796
18.0801 -10.1435 8.37494
18.0702 -10.098 8.37197
18.0604 -10.0525 8.36907
18.0508 -10.0069 8.36621
18.0412 -9.96135 8.36342
18.0317 -9.91571 8.36067
18.0224 -9.87002 8.35797
18.0128 -9.82432 8.35596
18.0033 -9.77859 8.35407
17.9939 -9.73283 8.35215
17.9847 -9.68704 8.35027
17.9755 -9.64123 8.3484
17.9664 -9.59538 8.34641
17.9575 -9.54952 8.34445
17.9486 -9.50363 8.34254
17.9399 -9.45773 8.34066
17.9312 -9.41183 8.33882
17.9225 -9.36588 8.337
17.9137 -9.31979 8.33511
17.9058 -9.27364 8.33154
17.898 -9.22747 8.32799
17.8967 -9.18118 8.31222
17.8825 -9.13529 8.32101
17.8749 -9.08928 8.31759
17.8674 -9.04328 8.31419
17.8599 -8.99729 8.31082
17.8524 -8.95128 8.30746
17.845 -8.90526 8.30414
17.8376 -8.85923 8.30083
17.8303 -8.8132 8.29755
17.8228 -8.76715 8.29466
17.8151 -8.72112 8.29231
17.8078 -8.67504 8.28927
17.8006 -8.62895 8.28611
17.7935 -8.58286 8.28297
17.7865 -8.53676 8.27986
17.7795 -8.49065 8.27678
17.7727 -8.44452 8.27352
17.766 -8.39837 8.2702
17.7595 -8.3522 8.26693
17.753 -8.30602 8.26369
17.7465 -8.25984 8.26047
17.7401 -8.21364 8.2572
17.7334 -8.16745 8.25448
17.7265 -8.12127 8.25199
17.7196 -8.07508 8.24952
17.7128 -8.02889 8.24707
17.7061 -7.98269 8.2446
17.6995 -7.93649 8.24183
17.693 -7.89028 8.23905
17.6865 -7.84407 8.23629
17.68 -7.79785 8.23353
17.6734 -7.75164 8.23077
17.668 -7.7054 8.22628
17.66 -7.6593 8.22563
17.6529 -7.61313 8.22349
17.6458 -7.56696 8.22135
17.639 -7.52077 8.21879
17.6325 -7.47457 8.21592
17.626 -7.42837 8.21307
17.6195 -7.38218 8.21021
17.6124 -7.33601 8.20814
17.6053 -7.28986 8.20615
17.5982 -7.2437 8.20417
17.5911 -7.19753 8.20219
17.584 -7.15137 8.20021
17.5772 -7.10519 8.19786
17.5704 -7.059 8.19548
17.5636 -7.01281 8.1931
17.5568 -6.96662 8.19074
17.5501 -6.92044 8.18839
17.5434 -6.87427 8.18604
17.5367 -6.82809 8.18372
17.5299 -6.78192 8.18141
17.5232 -6.73573 8.1791
17.5165 -6.68954 8.1768
17.5097 -6.64336 8.17459
17.5027 -6.5972 8.17284
17.4956 -6.55106 8.1711
17.4886 -6.50493 8.16935
17.4816 -6.45879 8.16763
17.4745 -6.41264 8.16587
17.4675 -6.36646 8.16358
17.4605 -6.32023 8.16107
17.4536 -6.27398 8.15856
17.4594 -6.22672 8.13847
17.44 -6.18118 8.15378
17.4334 -6.13466 8.15152
17.4268 -6.08815 8.14927
17.4211 -6.04166 8.14566
17.4156 -5.99542 8.14162
17.41 -5.94924 8.13756
17.4045 -5.90304 8.1335
17.3989 -5.85683 8.12949
17.3933 -5.81061 8.12552
17.3876 -5.76439 8.12155
17.382 -5.71817 8.11758
17.3764 -5.67194 8.11361
17.3707 -5.62572 8.10964
17.3651 -5.5795 8.10567
17.3595 -5.53329 8.1017
17.3538 -5.48707 8.09773
17.3478 -5.44085 8.0944
17.3417 -5.39463 8.09107
17.3357 -5.34842 8.08774
17.3296 -5.30219 8.08441
17.3234 -5.25596 8.0812
17.3168 -5.20976 8.0787
17.3102 -5.16356 8.07621
17.3045 -5.11734 8.07238
17.2992 -5.07114 8.06779
17.2939 -5.02495 8.0632
17.2886 -4.97875 8.05868
17.2831 -4.93254 8.05454
17.2775 -4.88633 8.05039
17.272 -4.84012 8.04624
17.2664 -4.79389 8.0421
17.2569 -4.74758 8.04415
17.2554 -4.7014 8.03387
17.2499 -4.65512 8.02978
17.2443 -4.60885 8.02593
17.2384 -4.56255 8.02252
17.2328 -4.51628 8.0185
17.2272 -4.47001 8.01446
17.2215 -4.42375 8.01044
17.2159 -4.3775 8.0064
17.2092 -4.33128 8.00381
17.2026 -4.28506 8.00118
17.196 -4.23884 7.99855
17.1893 -4.1926 7.99592
17.1827 -4.14636 7.99326
17.1762 -4.10011 7.99046
17.1698 -4.05386 7.98767
17.1633 -4.00761 7.9849
17.1569 -3.96137 7.98214
17.1505 -3.91512 7.97939
17.144 -3.86888 7.97665
17.1376 -3.82264 7.97391
17.1308 -3.77645 7.97176
17.1242 -3.73023 7.96927
17.1177 -3.68401 7.96666
17.1109 -3.63781 7.96458
17.1037 -3.59159 7.96296
17.0963 -3.54537 7.96167
17.0889 -3.49914 7.96039
17.0815 -3.45291 7.95912
17.0741 -3.40668 7.95784
17.0667 -3.36045 7.95655
17.0593 -3.31424 7.95523
17.0369 -3.26981 7.9723
17.0435 -3.22081 7.95476
17.0347 -3.17492 7.95467
17.0258 -3.12902 7.95456
17.017 -3.08314 7.95445
17.0085 -3.03712 7.95392
17.0009 -2.99099 7.9525
16.9932 -2.94491 7.95109
16.9854 -2.89886 7.94997
16.9769 -2.85287 7.94972
16.9685 -2.80686 7.94952
16.9602 -2.76084 7.94936
16.9518 -2.71481 7.94923
16.9434 -2.66882 7.94933
16.9349 -2.62285 7.94964
16.9264 -2.57687 7.95004
16.9177 -2.53094 7.95075
16.9092 -2.48501 7.95153
16.9007 -2.43907 7.95238
16.8923 -2.39313 7.95328
16.8839 -2.34719 7.95439
16.8762 -2.30111 7.9548
16.8687 -2.25497 7.95507
16.8612 -2.20884 7.95537
16.8538 -2.16271 7.95569
16.8465 -2.11657 7.95569
16.8395 -2.0704 7.95537
16.8332 -2.02419 7.95395
16.8259 -1.97802 7.95474
16.8189 -1.93186 7.95506
16.812 -1.88568 7.95546
16.8052 -1.83947 7.9559
16.7924 -1.79424 7.96732
16.7932 -1.74682 7.95731
16.7868 -1.70045 7.95777
16.7804 -1.6541 7.95863
16.7738 -1.60776 7.96
16.7678 -1.56139 7.96085
16.762 -1.51501 7.96167
16.7563 -1.46862 7.96252
16.7507 -1.42221 7.96344
16.7451 -1.3758 7.96508
16.7395 -1.32942 7.96734
16.7341 -1.28299 7.96926
16.7289 -1.23655 7.97125
16.7238 -1.19011 7.9733
16.7189 -1.14368 7.97541
16.714 -1.09723 7.97759
16.7093 -1.05078 7.97982
16.7047 -1.00428 7.98211
16.7002 -0.957776 7.98446
16.6945 -0.911509 7.98929
16.6883 -0.865484 7.99559
16.6819 -0.819654 8.00241
16.6757 -0.773829 8.00931
16.6696 -0.727965 8.01629
16.6636 -0.682082 8.02333
16.6577 -0.636183 8.03041
16.6519 -0.590273 8.03756
16.6463 -0.544349 8.04479
16.6413 -0.498307 8.05161
16.6364 -0.452271 8.05854
16.6316 -0.406236 8.06562
16.627 -0.360217 8.07289
16.6298 -0.311725 8.06933
16.6189 -0.267841 8.0875
16.6154 -0.221698 8.09475
16.6121 -0.175565 8.10212
16.6091 -0.129431 8.10953
16.6062 -0.0832835 8.11694
16.6041 -0.0369453 8.12337
16.6028 0.00952823 8.12899
16.6017 0.0559748 8.13472
16.6007 0.102331 8.14055
16.5999 0.148648 8.14647
16.5992 0.194951 8.15249
16.5987 0.241245 8.15859
16.5979 0.287526 8.1653
16.5966 0.333563 8.17306
16.5963 0.379828 8.17966
16.5962 0.426123 8.18614
16.5963 0.472454 8.19247
16.5965 0.518788 8.19885
16.5967 0.565121 8.2053
16.598 0.611594 8.2107
16.5995 0.65806 8.21604
16.601 0.704517 8.22152
16.6025 0.750964 8.22714
16.604 0.797407 8.23281
16.6056 0.843849 8.23852
16.6071 0.890272 8.24438
16.6081 0.936603 8.25092
16.6092 0.982945 8.25751
16.6121 1.02956 8.26219
16.6154 1.07625 8.26643
16.6189 1.12293 8.27072
16.6253 1.16964 8.27216
16.6247 1.21598 8.28134
16.6276 1.26256 8.28671
16.6316 1.30901 8.291
16.6357 1.35544 8.29533
16.6395 1.40187 8.29991
16.6434 1.44829 8.30452
16.6472 1.4947 8.30913
16.6511 1.5411 8.31374
16.6537 1.58748 8.31975
16.6557 1.63384 8.32627
16.657 1.68013 8.33357
16.6583 1.72642 8.34084
16.6595 1.77269 8.34821
16.6606 1.81895 8.35558
16.6617 1.8652 8.36292
16.6628 1.91143 8.37023
16.6632 1.95753 8.37823
16.6633 2.00354 8.38661
16.6631 2.04951 8.39519
16.663 2.0955 8.40356
16.6628 2.14154 8.41166
16.6627 2.18758 8.41968
16.6624 2.23363 8.42764
16.6621 2.27967 8.43553
16.6623 2.3258 8.44278
16.6624 2.37194 8.4499
16.6624 2.4181 8.4569
16.6622 2.46426 8.46375
16.6619 2.51044 8.47045
16.6614 2.55664 8.47695
16.6613 2.60247 8.48357
16.6499 2.64771 8.4985
16.658 2.6958 8.4953
16.6553 2.74175 8.50078
16.6531 2.78805 8.50611
16.6507 2.83438 8.51122
16.648 2.88071 8.51615
16.6452 2.92706 8.52092
16.6423 2.97342 8.52554
16.6392 3.01979 8.53005
16.6353 3.06599 8.5355
16.6317 3.11229 8.54034
16.6288 3.15875 8.54413
16.626 3.20526 8.54745
16.623 3.25174 8.55057
16.6198 3.29823 8.55355
16.6164 3.34473 8.55644
16.613 3.39126 8.55924
16.6088 3.43775 8.56285
16.6037 3.48414 8.5673
16.5986 3.53054 8.57165
16.5932 3.57695 8.57589
16.5877 3.62335 8.58
16.5815 3.66959 8.58477
16.5749 3.71576 8.58974
16.5681 3.76191 8.59459
16.5612 3.80806 8.59932
16.5541 3.8542 8.60392
16.5468 3.90035 8.60836
16.5394 3.94643 8.61275
16.5322 3.99233 8.61707
16.5256 4.03831 8.62064
16.5155 4.08531 8.62596
16.4856 4.12427 8.65875
16.4964 4.17751 8.63654
16.4877 4.22348 8.64258
16.4774 4.26865 8.64813
16.4669 4.31374 8.65351
16.4562 4.35884 8.65877
16.4454 4.4039 8.6639
16.4344 4.44891 8.66892
16.4231 4.49383 8.67399
16.4116 4.53878 8.67893
16.4 4.5837 8.68372
16.3891 4.62892 8.68724
16.3781 4.67412 8.69063
16.367 4.71926 8.69388
16.3557 4.76439 8.697
16.3442 4.8095 8.69997
16.3329 4.85473 8.70234
16.3223 4.90023 8.70348
16.3105 4.94546 8.70577
16.2985 4.99064 8.70794
16.2864 5.0358 8.70999
16.274 5.0809 8.71203
16.2613 5.1259 8.71423
16.2484 5.17086 8.7163
16.2354 5.21577 8.71824
16.2216 5.26045 8.72092
16.2068 5.30474 8.72472
16.1919 5.34905 8.72819
16.1769 5.39331 8.73153
16.1617 5.43752 8.73476
16.1463 5.48167 8.73785
16.1305 5.52566 8.74115
16.1147 5.56959 8.74413
16.0995 5.61379 8.74557
16.0845 5.65802 8.74646
16.0691 5.70211 8.7475
16.0535 5.74614 8.74842
16.0378 5.79011 8.74922
16.0219 5.83401 8.7499
16.0058 5.87785 8.75047
15.9896 5.92163 8.75092
15.9732 5.96534 8.75132
15.9566 6.00899 8.75161
15.9398 6.05259 8.75179
15.9229 6.09613 8.75187
15.9058 6.1396 8.75183
15.8886 6.18302 8.75169
15.8712 6.22639 8.75145
15.8537 6.26971 8.75111
15.8361 6.31299 8.75069
15.8183 6.35623 8.75017
15.8003 6.3994 8.74955
15.7823 6.44252 8.74882
15.7643 6.48568 8.74759
15.7454 6.52849 8.74744
15.7263 6.57117 8.74748
15.7075 6.614 8.74647
15.6886 6.65678 8.74537
15.6696 6.69948 8.74423
15.6503 6.74207 8.74305
15.6309 6.78462 8.74178
15.6114 6.82721 8.74043
15.5929 6.87018 8.73691
15.5746 6.91313 8.73264
15.558 6.95643 8.72506
15.5376 6.99867 8.7237
15.5188 7.04125 8.71906
15.4999 7.08373 8.71431
15.4809 7.12613 8.70948
15.4617 7.16847 8.70457
15.4424 7.21073 8.69956
15.423 7.25289 8.69446
15.403 7.29485 8.68996
15.3824 7.33663 8.68618
15.3599 7.37771 8.6854
15.3372 7.41867 8.68458
15.3149 7.45981 8.68294
15.2928 7.501 8.68088
15.2705 7.54213 8.67874
15.2481 7.58316 8.6767
15.2254 7.62403 8.67487
15.2024 7.66486 8.67289
15.1796 7.70572 8.67048
15.158 7.74703 8.66635
15.1377 7.78879 8.66042
15.1173 7.83039 8.65441
15.0969 7.87192 8.64833
15.0764 7.91343 8.64221
15.0549 7.95462 8.63727
15.0329 7.99561 8.63289
15.0109 8.03659 8.62847
14.9888 8.07756 8.624
14.9667 8.11852 8.61953
14.9449 8.15945 8.61521
14.9231 8.20048 8.61049
14.9016 8.24161 8.60552
14.8612 8.27593 8.6252
14.8583 8.32402 8.59531
14.8364 8.36531 8.59008
14.8145 8.40664 8.58476
14.7926 8.44801 8.57925
14.7708 8.48942 8.57374
14.7489 8.53081 8.56822
14.7266 8.57201 8.56331
14.7032 8.61267 8.55991
14.6799 8.65318 8.55652
14.6566 8.69362 8.55312
14.6333 8.73402 8.54972
14.6101 8.77441 8.5463
14.5867 8.81481 8.54286
14.5631 8.85507 8.53986
14.5393 8.89525 8.53697
14.5155 8.93543 8.53407
14.4913 8.97545 8.53159
14.467 9.01543 8.52923
14.4427 9.0554 8.52685
14.4183 9.0953 8.52469
14.3932 9.13485 8.52345
14.3682 9.17441 8.52222
14.3431 9.21398 8.52097
14.318 9.25356 8.5197
14.2927 9.29313 8.51832
14.2674 9.33272 8.51694
14.2422 9.37231 8.51563
14.2168 9.41185 8.51464
14.1909 9.4515 8.51393
14.1651 9.49105 8.51341
14.1384 9.53005 8.51443
14.1002 9.5606 8.53601
14.0853 9.60796 8.51739
14.059 9.64663 8.51891
14.0328 9.6853 8.52049
14.0067 9.72398 8.52211
13.9806 9.76269 8.52378
13.9546 9.80144 8.52549
13.9286 9.8402 8.52723
13.9035 9.87966 8.52749
13.8786 9.91929 8.52761
13.8532 9.9587 8.52825
13.8279 9.99814 8.52891
13.8027 10.0376 8.52962
13.7775 10.077 8.53048
13.7523 10.1164 8.53149
13.7287 10.1569 8.5303
13.7064 10.1981 8.52763
13.6842 10.2391 8.52496
13.662 10.2801 8.52231
13.6395 10.321 8.52004
13.6165 10.3616 8.51857
13.5938 10.4024 8.51693
13.5711 10.4432 8.51536
13.5485 10.484 8.51382
13.526 10.5249 8.51234
13.5035 10.5658 8.51091
13.481 10.6067 8.50952
13.4587 10.6476 8.50818
13.4363 10.6886 8.5069
13.4141 10.7296 8.5056
13.392 10.7707 8.50424
13.3701 10.8119 8.50276
13.3489 10.8534 8.5005
13.3264 10.8944 8.49997
13.3044 10.9355 8.499
13.2821 10.9765 8.49857
13.2602 11.0178 8.49772
13.2395 11.0596 8.49546
13.2177 11.1008 8.49482
13.1959 11.1421 8.49424
13.1742 11.1834 8.49371
13.1526 11.2248 8.49324
13.131 11.2662 8.49282
13.1106 11.3082 8.49065
13.0894 11.3498 8.48994
13.0685 11.3915 8.48894
13.0475 11.4332 8.48794
13.0266 11.475 8.48697
13.0056 11.5167 8.48598
12.9846 11.5584 8.48494
12.9636 11.6001 8.48388
12.9425 11.6418 8.48283
12.9216 11.6835 8.48183
12.8998 11.7249 8.4822
12.8763 11.765 8.48655
12.854 11.8062 8.4876
12.8322 11.8478 8.48746
12.8102 11.8892 8.48716
12.7882 11.9306 8.48684
12.7663 11.972 8.48662
12.7437 12.0132 8.48775
12.7211 12.0542 8.48891
12.6984 12.0954 8.49009
12.6761 12.1368 8.49122
12.6314 12.1651 8.5425
12.6314 12.2211 8.49384
12.6091 12.2639 8.49532
12.5865 12.3066 8.49733
12.5634 12.3489 8.50078
12.5405 12.3905 8.50406
12.5173 12.4317 8.508
12.4937 12.4726 8.51275
12.4693 12.5126 8.51952
12.4448 12.5519 8.52653
12.4205 12.5909 8.53349
12.3961 12.6299 8.54043
12.3718 12.6689 8.54737
12.3475 12.708 8.55435
12.3232 12.7471 8.56134
12.2989 12.7863 8.56834
12.2743 12.8251 8.57606
12.2502 12.8645 8.58263
12.2264 12.9041 8.58861
12.2026 12.9438 8.59458
12.1788 12.9834 8.60057
12.155 13.0231 8.60655
12.1312 13.0628 8.61254
12.1074 13.1025 8.61852
12.0837 13.1421 8.6245
12.0601 13.1819 8.62992
12.0373 13.2223 8.63346
12.0149 13.2629 8.63619
11.9925 13.3036 8.6389
11.9701 13.3442 8.64161
11.9477 13.3848 8.64431
11.9252 13.4254 8.64701
11.8937 13.4599 8.66994
11.8775 13.5072 8.6583
11.8534 13.5467 8.66443
11.8293 13.5862 8.67056
11.8052 13.6257 8.67669
11.7811 13.6653 8.68262
11.7572 13.7051 8.68818
11.7327 13.7443 8.69508
11.7084 13.7836 8.70169
11.684 13.8229 8.70822
11.66 13.8625 8.71414
