BEGIN_Polyline
-14.9343 8.09054 10.0035
-14.9589 8.05053 10.0077
-14.9845 8.01101 10.0104
-15.0106 7.9718 10.0125
-15.0367 7.93263 10.0145
-15.0628 7.8935 10.0165
-15.0889 7.85441 10.0184
-15.115 7.81537 10.0202
-15.1412 7.77632 10.022
-15.1674 7.73733 10.0235
-15.1938 7.69847 10.0247
-15.2201 7.6595 10.0261
-15.2462 7.62041 10.0275
-15.2722 7.58124 10.0289
-15.298 7.54187 10.0307
-15.3235 7.50239 10.0326
-15.349 7.46289 10.0344
-15.3742 7.42326 10.0366
-15.399 7.38344 10.0391
-15.4238 7.3436 10.0417
-15.4485 7.30373 10.0442
-15.4731 7.26385 10.0469
-15.4977 7.22397 10.0494
-15.5222 7.18402 10.052
-15.5466 7.14402 10.0546
-15.5708 7.10402 10.0572
-15.5951 7.06397 10.0597
-15.6191 7.02348 10.0625
-15.6215 6.97244 10.0971
-15.6672 6.94145 10.0685
-15.6909 6.90091 10.0729
-15.7135 6.8601 10.0768
-15.736 6.81929 10.0805
-15.7581 6.7783 10.0846
-15.7801 6.73726 10.0887
-15.8018 6.6961 10.093
-15.8233 6.65491 10.0973
-15.8445 6.61368 10.1018
-15.8654 6.57239 10.1064
-15.8859 6.53095 10.1113
-15.9063 6.48946 10.1161
-15.9266 6.44789 10.1208
-15.9469 6.40628 10.1253
-15.967 6.36462 10.1297
-15.987 6.32291 10.1339
-16.0068 6.28116 10.1379
-16.0267 6.23943 10.1415
-16.0465 6.19767 10.1448
-16.0662 6.15585 10.1479
-16.0857 6.11392 10.151
-16.1052 6.07195 10.1538
-16.1249 6.0301 10.1558
-16.1445 5.98817 10.1576
-16.164 5.94618 10.1593
-16.1832 5.90409 10.1609
-16.2026 5.86198 10.1621
-16.2219 5.81984 10.1628
-16.241 5.77759 10.1633
-16.26 5.7352 10.1636
-16.2788 5.69268 10.1637
-16.2975 5.64996 10.1635
-16.3161 5.60703 10.1629
-16.3343 5.56382 10.1622
-16.3523 5.52046 10.1614
-16.3702 5.47701 10.1602
-16.3879 5.43347 10.1588
-16.4054 5.3898 10.1572
-16.4228 5.34605 10.1553
-16.4399 5.30223 10.1532
-16.4572 5.2585 10.1505
-16.4745 5.2148 10.1473
-16.4913 5.17093 10.1442
-16.5079 5.12697 10.141
-16.5241 5.08287 10.1377
-16.54 5.03867 10.1343
-16.5558 4.99446 10.1306
-16.5715 4.95025 10.1266
-16.5871 4.90603 10.1224
-16.6026 4.86188 10.1177
-16.6175 4.81749 10.1133
-16.6316 4.77282 10.1093
-16.6455 4.72813 10.1052
-16.6592 4.68346 10.1007
-16.6717 4.63833 10.0971
-16.6839 4.59314 10.0932
-16.6959 4.54794 10.0891
-16.7073 4.50261 10.0849
-16.7184 4.45721 10.0806
-16.7292 4.4116 10.0759
-16.7393 4.36536 10.0715
-16.7484 4.31867 10.0675
-16.7573 4.27178 10.0632
-16.7332 4.21496 10.0996
-16.7757 4.17856 10.0549
-16.7843 4.13179 10.0497
-16.7921 4.08441 10.0442
-16.7994 4.03682 10.0387
-16.806 3.98959 10.0328
-16.8123 3.94254 10.0262
-16.8175 3.89524 10.0205
-16.8216 3.84786 10.0152
-16.8246 3.80047 10.0106
-16.8268 3.75308 10.0061
-16.8287 3.70571 10.0015
-16.8292 3.6582 9.99786
-16.8285 3.61049 9.99506
-16.8267 3.56273 9.99299
-16.8246 3.51501 9.99073
-16.8223 3.46743 9.98845
-16.8196 3.42017 9.98625
-16.8166 3.37307 9.98396
-16.8135 3.32605 9.9815
-16.8102 3.27911 9.97888
-16.8068 3.23219 9.97598
-16.8033 3.18531 9.97291
-16.7996 3.13846 9.96968
-16.7958 3.0916 9.96629
-16.7916 3.04464 9.96295
-16.7862 2.99773 9.96054
-16.7806 2.95088 9.95796
-16.7748 2.90406 9.95523
-16.7691 2.85726 9.95227
-16.7628 2.81061 9.94958
-16.7558 2.76412 9.94714
-16.7454 2.71816 9.94731
-16.7414 2.67182 9.94159
-16.734 2.62599 9.93842
-16.7268 2.58026 9.93486
-16.7194 2.53465 9.93114
-16.7122 2.48908 9.92707
-16.705 2.44357 9.92279
-16.6978 2.3981 9.91831
-16.6917 2.35265 9.91267
-16.6854 2.30722 9.90705
-16.679 2.26181 9.90132
-16.6728 2.21643 9.89524
-16.6666 2.17107 9.88907
-16.6614 2.12573 9.88193
-16.6561 2.0804 9.87471
-16.6508 2.03506 9.86745
-16.6453 1.98972 9.86033
-16.6394 1.94437 9.85357
-16.6341 1.899 9.84621
-16.629 1.85365 9.83863
-16.6238 1.80828 9.83114
-16.6181 1.7629 9.82401
-16.6123 1.7175 9.81685
-16.607 1.67206 9.80928
-16.6021 1.62659 9.80136
-16.5969 1.581 9.79375
-16.5917 1.53534 9.78615
-16.5865 1.48967 9.77854
-16.5815 1.44396 9.77068
-16.5774 1.39826 9.76171
-16.5733 1.35246 9.7527
-16.5692 1.30658 9.74368
-16.5818 1.26224 9.7181
-16.5617 1.21333 9.72645
-16.5586 1.16723 9.71653
-16.5556 1.12098 9.70664
-16.5522 1.07462 9.69732
-16.5487 1.02813 9.68797
-16.5459 0.981658 9.67784
-16.5436 0.935182 9.66738
-16.541 0.888605 9.65743
-16.5384 0.842073 9.64752
-16.5361 0.795568 9.63752
-16.5339 0.74907 9.62744
-16.5321 0.702595 9.61717
-16.5304 0.656077 9.60699
-16.5291 0.60962 9.59647
-16.5282 0.563203 9.58582
-16.527 0.516697 9.57568
-16.5257 0.470153 9.56589
-16.5246 0.423643 9.55607
-16.5236 0.377142 9.54637
-16.5227 0.330625 9.53696
-16.5217 0.284074 9.52799
-16.5208 0.237508 9.51935
-16.5203 0.191002 9.51063
-16.5199 0.144514 9.50206
-16.5197 0.0980144 9.49377
-16.5197 0.051542 9.48566
-16.52 0.00511128 9.47776
-16.5207 -0.0412353 9.46986
-16.5215 -0.0875778 9.46242
-16.5226 -0.133852 9.45524
-16.5241 -0.18005 9.44835
-16.5189 -0.227774 9.45123
-16.5283 -0.271895 9.43482
-16.5314 -0.317691 9.42886
-16.5349 -0.363405 9.42317
-16.5387 -0.409032 9.41769
-16.5429 -0.454594 9.41244
-16.5473 -0.500111 9.40748
-16.5519 -0.545633 9.40302
-16.5568 -0.591081 9.39863
-16.562 -0.636469 9.39444
-16.5674 -0.681836 9.39061
-16.5731 -0.727153 9.3869
-16.5791 -0.772412 9.38325
-16.5854 -0.817626 9.37975
-16.5919 -0.862802 9.37637
-16.5982 -0.908041 9.3738
-16.6048 -0.953235 9.37114
-16.6116 -0.998415 9.3686
-16.6186 -1.04358 9.36621
-16.6257 -1.08872 9.36393
-16.633 -1.13384 9.36189
-16.6405 -1.17894 9.36006
-16.6481 -1.22401 9.35832
-16.656 -1.26906 9.3567
-16.6641 -1.31408 9.35518
-16.6723 -1.3591 9.35385
-16.6807 -1.40411 9.35276
-16.6891 -1.44914 9.35204
-16.6977 -1.49414 9.35142
-16.7066 -1.53904 9.35077
-16.7157 -1.58388 9.35004
-16.7247 -1.62908 9.34941
-16.7216 -1.67661 9.37423
-16.7428 -1.71926 9.34986
-16.7524 -1.76409 9.35028
-16.7622 -1.80893 9.35078
-16.7722 -1.85373 9.35138
-16.7822 -1.89852 9.35227
-16.7923 -1.9433 9.35342
-16.8025 -1.98807 9.35477
-16.8128 -2.03283 9.35625
-16.8232 -2.07757 9.35779
-16.8334 -2.12234 9.36009
-16.8432 -2.16712 9.36332
-16.8536 -2.21186 9.36598
-16.8641 -2.25659 9.36861
-16.8748 -2.30129 9.37131
-16.885 -2.34605 9.37517
-16.8948 -2.39081 9.37984
-16.9048 -2.43548 9.38455
-16.915 -2.48011 9.38901
-16.925 -2.52476 9.39402
-16.9349 -2.5694 9.39944
-16.945 -2.61406 9.40492
-16.9551 -2.65872 9.41045
-16.9656 -2.7034 9.41549
-16.9764 -2.74807 9.42017
-16.9873 -2.79273 9.42491
-16.9983 -2.83742 9.4297
-17.0093 -2.88215 9.43479
-17.0201 -2.92696 9.44007
-17.0312 -2.97188 9.44502
-17.0427 -3.01685 9.44921
-17.0539 -3.06183 9.45396
-17.0703 -3.10663 9.45055
-17.0757 -3.15245 9.46422
-17.0867 -3.19808 9.46936
-17.0982 -3.24373 9.47353
-17.1102 -3.28942 9.4771
-17.1222 -3.33502 9.48069
-17.1343 -3.38063 9.48429
-17.1462 -3.42631 9.48816
-17.1582 -3.47197 9.49197
-17.1713 -3.51743 9.49439
-17.1844 -3.56289 9.49685
-17.1974 -3.60842 9.49969
-17.2102 -3.65398 9.50272
-17.223 -3.69955 9.50576
-17.2365 -3.74501 9.50799
-17.25 -3.79048 9.51034
-17.2632 -3.83602 9.51319
-17.2768 -3.88145 9.51566
-17.2909 -3.92678 9.51765
-17.3051 -3.97208 9.5196
-17.3187 -4.01751 9.52227
-17.3323 -4.06294 9.52505
-17.3462 -4.10829 9.52746
-17.3602 -4.15359 9.52977
-17.374 -4.19892 9.5323
-17.3877 -4.24426 9.53497
-17.4014 -4.28959 9.53765
-17.4152 -4.33488 9.54027
-17.4291 -4.38009 9.54265
-17.4429 -4.4253 9.54518
-17.4566 -4.47045 9.5477
-17.4706 -4.51541 9.54991
-17.4776 -4.5621 9.56005
-17.4984 -4.60524 9.55404
-17.512 -4.65007 9.55621
-17.5255 -4.69484 9.55834
-17.539 -4.73955 9.56046
-17.5519 -4.78436 9.56325
-17.5648 -4.82913 9.56605
-17.5777 -4.87388 9.56883
-17.5905 -4.91859 9.57161
-17.6033 -4.9633 9.5746
-17.6156 -5.00804 9.57809
-17.628 -5.05276 9.58158
-17.6403 -5.09746 9.58507
-17.6528 -5.14214 9.58842
-17.6652 -5.18683 9.59188
-17.6771 -5.23157 9.59596
-17.689 -5.2763 9.60007
-17.7009 -5.32101 9.60425
-17.7128 -5.36572 9.60844
-17.7247 -5.41043 9.61271
-17.7366 -5.45513 9.61696
-17.7486 -5.49983 9.62121
-17.7605 -5.54454 9.62546
-17.7725 -5.58925 9.62966
-17.7846 -5.63397 9.63386
-17.7966 -5.67869 9.63805
-17.8087 -5.72342 9.64216
-17.8207 -5.76817 9.64634
-17.8327 -5.81296 9.6507
-17.8446 -5.85777 9.65512
-17.8565 -5.90261 9.65961
-17.8685 -5.94749 9.66411
-17.8805 -5.99242 9.66863
-17.8926 -6.03742 9.67314
-17.9054 -6.08237 9.67674
-17.9182 -6.12736 9.68031
-17.9311 -6.17237 9.68389
-17.9442 -6.21739 9.68722
-17.9575 -6.2624 9.69026
-17.9707 -6.30744 9.69338
-17.984 -6.35249 9.69651
-17.9974 -6.39754 9.69945
-18.0109 -6.44257 9.70219
-18.0245 -6.48762 9.70494
-18.038 -6.53268 9.7077
-18.0513 -6.57781 9.71097
-18.0648 -6.62293 9.71399
-18.0784 -6.66806 9.71682
-18.0919 -6.7132 9.71966
-18.1052 -6.75841 9.72299
-18.1183 -6.80367 9.72666
-18.1314 -6.84894 9.73032
-18.1445 -6.89422 9.73389
-18.1572 -6.93956 9.73812
-18.1698 -6.98494 9.74275
-18.1823 -7.03033 9.74737
-18.1949 -7.07574 9.75199
-18.2074 -7.12114 9.75658
-18.2199 -7.16656 9.76121
-18.2325 -7.21199 9.76572
-18.245 -7.25745 9.77021
-18.2575 -7.30295 9.77469
-18.2699 -7.34848 9.77925
-18.2822 -7.39405 9.78385
-18.284 -7.44053 9.80819
-18.3072 -7.48526 9.79268
-18.3193 -7.53119 9.79731
-18.3312 -7.57696 9.80212
-18.3429 -7.62275 9.8069
-18.3548 -7.66852 9.81153
-18.3661 -7.71434 9.81706
-18.3773 -7.76018 9.82272
-18.3885 -7.80601 9.82838
-18.3997 -7.85179 9.83403
-18.4104 -7.89756 9.84056
-18.4211 -7.94332 9.84716
-18.4318 -7.98908 9.85366
-18.4425 -8.03485 9.86012
-18.453 -8.08061 9.86703
-18.4635 -8.12635 9.87395
-18.474 -8.17206 9.88087
-18.4845 -8.21773 9.88774
-18.495 -8.26336 9.89475
-18.5054 -8.30896 9.90174
-18.5159 -8.35455 9.90873
-18.5264 -8.40012 9.91574
-18.5369 -8.44566 9.9228
-18.5474 -8.4912 9.92986
-18.5579 -8.53672 9.93697
-18.5687 -8.58226 9.94381
-18.5797 -8.6278 9.95012
-18.5908 -8.67331 9.95645
-18.6019 -8.71885 9.96279
-18.6132 -8.76451 9.96872
-18.6251 -8.81018 9.97376
-18.637 -8.8558 9.97883
-18.6599 -8.90081 9.96473
-18.6615 -8.94764 9.98899
-18.6746 -8.99336 9.99244
-18.6879 -9.03848 9.99553
-18.7012 -9.08353 9.99888
-18.7145 -9.12864 10.002
-18.7281 -9.17367 10.0046
-18.7418 -9.21866 10.0072
-18.7556 -9.2636 10.0098
-18.769 -9.30854 10.0132
-18.7824 -9.35343 10.0167
-18.7958 -9.39828 10.0203
-18.8093 -9.44308 10.0239
-18.8224 -9.48789 10.0282
-18.8353 -9.53267 10.0329
-18.8483 -9.57741 10.0375
-18.8613 -9.62213 10.0423
-18.8739 -9.66688 10.0476
-18.8865 -9.71161 10.0531
-18.8992 -9.75628 10.0586
-18.9114 -9.80092 10.0649
-18.9237 -9.84548 10.0711
-18.9359 -9.88996 10.0775
-18.9481 -9.93434 10.084
-18.9604 -9.97864 10.0904
-18.9728 -10.0228 10.0968
-18.9852 -10.0669 10.1032
-18.9976 -10.1109 10.1096
-19.01 -10.1547 10.1162
-19.0224 -10.1984 10.1227
-19.035 -10.2419 10.1292
-19.0476 -10.2852 10.1357
-19.0678 -10.3278 10.1305
-19.0732 -10.371 10.1482
-19.0861 -10.4134 10.1542
-19.099 -10.4555 10.1601
-19.112 -10.4974 10.166
-19.1254 -10.5392 10.1715
-19.1388 -10.5809 10.1769
-19.1523 -10.6224 10.1822
-19.1659 -10.6639 10.1876
-19.1797 -10.7053 10.1925
-19.1939 -10.7465 10.197
-19.2081 -10.7878 10.2015
-19.2223 -10.829 10.2061
-19.2365 -10.8702 10.2109
-19.2505 -10.9113 10.216
-19.2646 -10.9525 10.2212
-19.2788 -10.9936 10.2264
-19.2934 -11.0346 10.2311
-19.3077 -11.0757 10.2365
-19.3223 -11.1167 10.2415
-19.3376 -11.1577 10.2456
-19.3529 -11.1987 10.2497
-19.3678 -11.2399 10.255
-19.383 -11.2811 10.2597
-19.3984 -11.3224 10.2642
-19.4139 -11.3639 10.2688
-19.4295 -11.4054 10.2733
-19.4461 -11.4468 10.2759
-19.462 -11.4887 10.2803
-19.4774 -11.5307 10.286
-19.493 -11.573 10.2917
-19.5085 -11.6158 10.2976
-19.5219 -11.659 10.3086
-19.5401 -11.7026 10.3097
-19.5564 -11.7469 10.3152
-19.5722 -11.7915 10.3219
-19.5882 -11.8363 10.3287
-19.6043 -11.8813 10.3355
-19.6207 -11.9265 10.342
-19.6373 -11.9718 10.3481
-19.6541 -12.0173 10.3541
-19.6711 -12.0627 10.3601
-19.6882 -12.1082 10.3661
-19.7054 -12.1538 10.372
-19.7229 -12.1994 10.3779
-19.7403 -12.2451 10.3841
-19.7578 -12.2908 10.3906
-19.7749 -12.3364 10.3982
-19.7922 -12.382 10.4058
-19.8099 -12.4274 10.4127
-19.8278 -12.4728 10.4196
-19.846 -12.5181 10.4263
-19.8642 -12.5633 10.433
-19.8826 -12.6084 10.4397
-19.9012 -12.6535 10.4463
-19.9204 -12.6985 10.4516
-19.9401 -12.7434 10.4554
-19.9598 -12.7882 10.4592
-19.9794 -12.8329 10.4636
-19.9992 -12.8775 10.468
-20.019 -12.922 10.4725
-20.0386 -12.9663 10.4774
-20.0585 -13.0106 10.4816
-20.0783 -13.0548 10.4853
-20.0967 -13.0984 10.5021
-20.1184 -13.1432 10.494
-20.1382 -13.1866 10.4998
-20.1581 -13.2299 10.5056
-20.1782 -13.273 10.5113
-20.1983 -13.3158 10.5187
-20.2186 -13.3584 10.525
-20.2391 -13.4009 10.5311
-20.2597 -13.4432 10.5371
-20.2807 -13.4852 10.5433
-20.3019 -13.5267 10.5509
-20.3233 -13.568 10.5584
-20.3449 -13.609 10.566
-20.3667 -13.6498 10.5734
-20.3888 -13.6904 10.5807
-20.4112 -13.7307 10.5877
-20.4339 -13.771 10.5932
-20.4569 -13.8109 10.5986
-20.4801 -13.8505 10.604
-20.5037 -13.8898 10.6094
-20.5276 -13.9286 10.6154
-20.5519 -13.9672 10.6213
-20.5764 -14.0055 10.6271
-20.6012 -14.0437 10.6309
-20.6264 -14.0816 10.6347
-20.6519 -14.119 10.6395
-20.6778 -14.156 10.6441
-20.7041 -14.1927 10.6485
-20.7309 -14.2289 10.6533
-20.7584 -14.2652 10.6566
-20.7864 -14.3014 10.6589
-20.8149 -14.3372 10.6609
-20.8395 -14.3775 10.6379
-20.8727 -14.4076 10.6639
-20.903 -14.4419 10.6661
-20.9339 -14.4757 10.6681
-20.9653 -14.5092 10.67
-20.9973 -14.5421 10.672
-21.0297 -14.5747 10.6741
-21.0626 -14.6065 10.6767
-21.0959 -14.638 10.6791
-21.1296 -14.6689 10.6815
-21.1636 -14.6993 10.6836
-21.198 -14.7293 10.6856
-21.2328 -14.7589 10.6872
-21.2679 -14.7881 10.6888
-21.3034 -14.8168 10.6901
-21.3392 -14.8452 10.6914
-21.3755 -14.8734 10.6921
-21.412 -14.9016 10.6912
-21.4488 -14.9297 10.6897
-21.4861 -14.9573 10.688
-21.5234 -14.9846 10.6863
-21.5607 -15.0115 10.6855
-21.5981 -15.038 10.6845
-21.6353 -15.0642 10.6786
-21.6737 -15.0897 10.6724
-21.7146 -15.1143 10.666
-21.7559 -15.1385 10.6562
-21.7969 -15.1623 10.6454
-21.8381 -15.1856 10.6337
-21.8787 -15.2083 10.6182
-21.9195 -15.2307 10.6026
-21.9581 -15.2545 10.588
-21.9626 -15.2848 10.486
-22.0315 -15.3157 10.5608
-22.0685 -15.3413 10.5463
-22.1088 -15.3619 10.5319
-22.1491 -15.3817 10.5175
-22.1898 -15.4007 10.5055
-22.2293 -15.4168 10.4823
-22.2691 -15.433 10.461
-22.309 -15.4485 10.4398
-22.3506 -15.4644 10.4253
-22.392 -15.4793 10.4098
-22.4316 -15.4912 10.3876
-22.4724 -15.5044 10.3684
-22.5136 -15.5174 10.3492
-22.5546 -15.5293 10.3287
-22.5944 -15.5389 10.3046
-22.6357 -15.5501 10.2839
-22.6775 -15.5606 10.2629
-22.7197 -15.5709 10.2423
-22.7627 -15.5817 10.2233
-22.8058 -15.592 10.2041
-22.849 -15.6023 10.1855
-22.8927 -15.6131 10.1684
-22.9359 -15.6215 10.1465
-22.977 -15.6253 10.1205
-23.02 -15.632 10.0987
-23.0643 -15.6428 10.0839
-23.1088 -15.653 10.0692
-23.1512 -15.6604 10.0502
-23.1917 -15.6695 10.0304
-23.2333 -15.6786 10.0112
-23.2763 -15.6895 9.99089
-23.3048 -15.6422 9.90827
-23.3718 -15.7013 9.95635
-23.4188 -15.7152 9.93178
-23.4622 -15.7207 9.90871
-23.506 -15.7272 9.88653
-23.5506 -15.7325 9.86508
-23.5952 -15.7369 9.84324
-23.6397 -15.7407 9.82083
-23.6842 -15.7442 9.79863
-23.7284 -15.7476 9.77691
-23.7718 -15.7494 9.75396
-23.8156 -15.7517 9.73177
-23.8591 -15.753 9.70896
-23.9027 -15.7542 9.68611
-23.9464 -15.7554 9.6634
-23.9894 -15.7549 9.63942
-24.0323 -15.7535 9.61495
-24.0757 -15.7528 9.59151
-24.1192 -15.7521 9.56824
-24.162 -15.7498 9.54388
-24.2055 -15.7487 9.52086
-24.2484 -15.7467 9.49724
-24.2912 -15.7445 9.47377
-24.3341 -15.7419 9.45042
-24.3758 -15.7367 9.42533
-24.4175 -15.7306 9.39998
-24.4594 -15.7243 9.37504
-24.5027 -15.7192 9.35245
-24.5436 -15.7119 9.32773
-24.5852 -15.7056 9.3045
-24.627 -15.6999 9.28204
-24.6685 -15.694 9.25994
-24.6811 -15.6459 9.19443
-24.7515 -15.6812 9.2012
-24.7874 -15.6714 9.1777
-24.8275 -15.666 9.15736
-24.8675 -15.6615 9.13811
-24.9072 -15.6531 9.1149
-24.9479 -15.6449 9.09191
-24.9886 -15.6364 9.06951
-25.0291 -15.6281 9.04719
-25.0679 -15.6191 9.02345
-25.1073 -15.6115 9.00102
-25.1465 -15.6039 8.97864
-25.1857 -15.5961 8.95634
-25.2249 -15.588 8.9342
-25.2643 -15.58 8.91254
-25.3043 -15.5727 8.89178
-25.3442 -15.5652 8.87111
-25.3848 -15.5587 8.85162
-25.4255 -15.5522 8.83238
-25.4658 -15.5449 8.81263
-25.506 -15.5375 8.79286
-25.5459 -15.5296 8.77283
-25.5845 -15.5197 8.75102
-25.6227 -15.5094 8.72876
-25.6625 -15.5006 8.70891
-25.7033 -15.4925 8.69031
-25.7419 -15.4817 8.66898
-25.7811 -15.4713 8.64837
-25.8202 -15.4608 8.6279
-25.8595 -15.4498 8.60768
-25.8983 -15.4383 8.58681
-25.9374 -15.4269 8.56651
-25.9626 -15.4012 8.52685
-26.0165 -15.4037 8.52592
-26.056 -15.3919 8.50517
-26.0943 -15.38 8.48353
-26.1326 -15.368 8.46196
-26.1707 -15.3557 8.44027
-26.2084 -15.343 8.41819
-26.2461 -15.33 8.39622
-26.2836 -15.3167 8.3742
-26.3204 -15.3023 8.35169
-26.3575 -15.2881 8.32974
-26.3945 -15.2737 8.30797
-26.4324 -15.26 8.28736
-26.4707 -15.2468 8.2675
-26.51 -15.2345 8.24904
-26.5491 -15.2221 8.23075
-26.586 -15.2073 8.21001
-26.6202 -15.19 8.18699
-26.6545 -15.1726 8.16401
-26.6888 -15.1551 8.14111
-26.7243 -15.1384 8.11935
-26.7586 -15.1207 8.09682
-26.7926 -15.1026 8.07414
-26.8272 -15.0849 8.05198
-26.8619 -15.0672 8.02964
-26.8969 -15.0495 8.00668
-26.9322 -15.0319 7.98372
-26.9673 -15.014 7.96107
-27.0013 -14.9946 7.93738
-27.0334 -14.9723 7.91143
-27.0655 -14.9491 7.88518
-27.0948 -14.9296 7.85912
-27.0903 -14.8761 7.80696
-27.1656 -14.8828 7.81644
-27.2014 -14.8615 7.79142
-27.228 -14.8358 7.76102
-27.2605 -14.8099 7.73184
-27.2933 -14.786 7.70662
-27.3271 -14.7627 7.68284
-27.3588 -14.7378 7.65747
-27.3886 -14.712 7.63096
-27.4182 -14.6864 7.60435
-27.4477 -14.6608 7.5777
-27.4745 -14.6337 7.54971
-27.502 -14.6069 7.52206
-27.5313 -14.5808 7.49531
-27.5606 -14.5546 7.46858
-27.5887 -14.5277 7.44134
-27.617 -14.5006 7.41433
-27.6436 -14.4723 7.38678
-27.6703 -14.4439 7.35938
-27.6974 -14.4154 7.33221
-27.7252 -14.3873 7.3055
-27.7536 -14.3594 7.27917
-27.7806 -14.3308 7.25224
-27.8078 -14.3021 7.22539
-27.8349 -14.2735 7.19856
-27.8629 -14.2451 7.17207
-27.89 -14.2163 7.14518
-27.9171 -14.1876 7.11834
-27.9444 -14.1587 7.09155
-27.9704 -14.1286 7.064
-27.9957 -14.0979 7.03612
-28.0209 -14.0673 7.00835
-28.0101 -14.0213 6.96463
-28.0711 -14.0057 6.94967
-28.0932 -13.975 6.92168
-28.1153 -13.9444 6.89374
-28.1376 -13.9139 6.86583
-28.1612 -13.884 6.83795
-28.1848 -13.854 6.81003
-28.2085 -13.824 6.78239
-28.2311 -13.7936 6.75454
-28.2536 -13.7629 6.72689
-28.2756 -13.732 6.6993
-28.2974 -13.7009 6.67181
-28.3193 -13.6697 6.64453
-28.3413 -13.6385 6.61743
-28.3646 -13.6077 6.59097
-28.3887 -13.5771 6.56498
-28.4114 -13.5458 6.53869
-28.4298 -13.5129 6.51103
-28.449 -13.4799 6.48375
-28.4709 -13.4478 6.45763
-28.4932 -13.4157 6.43189
-28.5153 -13.3835 6.40641
-28.5372 -13.3511 6.38115
-28.5595 -13.3186 6.35632
-28.5807 -13.2855 6.33131
-28.6017 -13.2521 6.30649
-28.6223 -13.2184 6.28186
-28.6412 -13.1838 6.25692
-28.6598 -13.1489 6.23224
-28.6783 -13.1139 6.20789
-28.6967 -13.0785 6.18393
-28.7153 -13.0429 6.16043
-28.721 -13.0029 6.13306
-28.7534 -12.97 6.11557
-28.7717 -12.9323 6.09338
-28.7874 -12.8945 6.07094
-28.8033 -12.8565 6.04905
-28.8194 -12.8182 6.02754
-28.8363 -12.7799 6.00677
-28.8519 -12.7411 5.98596
-28.8664 -12.7018 5.96523
-28.8805 -12.6623 5.94484
-28.8929 -12.6222 5.92434
-28.9051 -12.5819 5.9042
-28.9173 -12.5414 5.88442
-28.9299 -12.5008 5.86511
-28.9428 -12.46 5.84626
-28.9557 -12.4191 5.82775
-28.9701 -12.3784 5.81
-28.9837 -12.3374 5.7924
-28.9962 -12.2962 5.77473
-29.0086 -12.2549 5.75739
-29.0203 -12.2134 5.74016
-29.0334 -12.1719 5.72388
-29.0465 -12.1304 5.70798
-29.0595 -12.0886 5.69244
-29.0723 -12.0466 5.67717
-29.0843 -12.004 5.66192
-29.0964 -11.9612 5.64704
-29.1082 -11.9184 5.63265
-29.1214 -11.8757 5.61902
-29.1366 -11.8327 5.60598
-29.1536 -11.7902 5.59425
-29.171 -11.7489 5.58305
-29.2112 -11.713 5.58293
-29.2007 -11.6645 5.5611
-29.2152 -11.6217 5.55139
-29.23 -11.579 5.54262
-29.2447 -11.5362 5.53424
-29.259 -11.4934 5.52644
-29.2748 -11.4508 5.51994
-29.2895 -11.4079 5.51342
-29.3041 -11.3649 5.50722
-29.3186 -11.3218 5.5011
-29.3311 -11.2782 5.49446
-29.3435 -11.2345 5.48815
-29.3561 -11.1908 5.48225
-29.369 -11.1471 5.47695
-29.3804 -11.103 5.47133
-29.3925 -11.059 5.46639
-29.4045 -11.0149 5.46176
-29.4176 -10.9711 5.45795
-29.4309 -10.9272 5.45455
-29.4448 -10.8834 5.45173
-29.459 -10.8397 5.4494
-29.4707 -10.7954 5.44633
-29.482 -10.7508 5.44341
-29.494 -10.7064 5.44098
-29.5065 -10.662 5.43912
-29.5193 -10.6176 5.43777
-29.5321 -10.5732 5.43668
-29.5432 -10.5283 5.43516
-29.5539 -10.4834 5.43371
-29.5645 -10.4384 5.43247
-29.5751 -10.3934 5.43142
-29.5848 -10.3474 5.42976
-29.573 -10.2984 5.41966
-29.6005 -10.257 5.42642
-29.609 -10.2128 5.42581
-29.6204 -10.1684 5.42591
-29.6318 -10.1239 5.42616
-29.6433 -10.0795 5.42669
-29.6547 -10.0351 5.42739
-29.6634 -9.99012 5.42723
-29.6725 -9.94523 5.42745
-29.6815 -9.90036 5.42798
-29.6914 -9.8557 5.42921
-29.7016 -9.81114 5.4308
-29.7116 -9.76657 5.43262
-29.7198 -9.72153 5.43389
-29.7269 -9.67624 5.43489
-29.7338 -9.63092 5.43613
-29.7406 -9.58558 5.43761
-29.7478 -9.54031 5.43956
-29.7548 -9.49503 5.44175
-29.7605 -9.44951 5.44352
-29.7661 -9.40394 5.44554
-29.7718 -9.35829 5.44787
-29.7784 -9.31276 5.45103
-29.7843 -9.26704 5.45413
-29.7893 -9.22111 5.45696
-29.794 -9.17509 5.45994
-29.7983 -9.12893 5.46303
-29.8024 -9.08265 5.46628
-29.8064 -9.03623 5.46976
-29.81 -8.98959 5.47332
-29.8134 -8.94279 5.47708
-29.8164 -8.89579 5.48092
-29.8038 -8.84685 5.47602
-29.8223 -8.80123 5.48948
-29.8252 -8.75357 5.49416
-29.828 -8.70576 5.49906
-29.8306 -8.65782 5.50418
-29.8335 -8.60982 5.50969
-29.8363 -8.56174 5.51546
-29.8386 -8.51354 5.52127
-29.8408 -8.46526 5.5273
-29.8426 -8.41689 5.53332
-29.8444 -8.36849 5.53965
-29.8463 -8.3201 5.54635
-29.8482 -8.27171 5.55332
-29.8515 -8.22357 5.56138
-29.8547 -8.17541 5.56963
-29.8578 -8.12725 5.57807
-29.8621 -8.07931 5.58745
-29.8649 -8.03113 5.5962
-29.8676 -7.98297 5.60511
-29.8703 -7.93484 5.61422
-29.8728 -7.88677 5.62351
-29.8758 -7.83884 5.63321
-29.8787 -7.79099 5.64316
-29.8815 -7.74323 5.65332
-29.8834 -7.69545 5.66338
-29.8847 -7.6477 5.6735
-29.8846 -7.59989 5.68325
-29.8842 -7.55215 5.69314
-29.8842 -7.5046 5.70351
-29.8844 -7.45727 5.7143
-29.8845 -7.4101 5.72525
-29.8845 -7.36274 5.73568
-29.8609 -7.31308 5.73396
-29.8833 -7.26895 5.75645
-29.8826 -7.22266 5.76781
-29.8818 -7.17657 5.77929
-29.8809 -7.13069 5.79097
-29.8797 -7.0849 5.80268
-29.8762 -7.03923 5.81358
-29.8729 -6.99362 5.82457
-29.8691 -6.94816 5.83555
-29.8653 -6.90294 5.84671
-29.8597 -6.85784 5.8572
-29.8532 -6.81289 5.86738
-29.8466 -6.76803 5.87772
-29.8402 -6.72321 5.88833
-29.8341 -6.67845 5.89929
-29.8276 -6.63375 5.91024
-29.8198 -6.58923 5.92076
-29.8136 -6.54477 5.93223
-29.8079 -6.50039 5.94413
-29.8021 -6.4561 5.95616
-29.7952 -6.41188 5.9678
-29.7881 -6.36772 5.97939
-29.7809 -6.32362 5.99109
-29.7736 -6.27958 6.0029
-29.7668 -6.2356 6.01512
-29.7603 -6.19172 6.0276
-29.7526 -6.14787 6.03958
-29.7447 -6.10401 6.05161
-29.7391 -6.06022 6.06491
-29.7334 -6.01647 6.07842
-29.7274 -5.97274 6.09177
-29.7213 -5.92868 6.10478
-29.7053 -5.88503 6.11293
-29.706 -5.84097 6.12914
-29.6988 -5.79727 6.14159
-29.693 -5.75338 6.1549
-29.6873 -5.70949 6.16827
-29.6808 -5.66563 6.18138
-29.6739 -5.6218 6.19436
-29.667 -5.57797 6.20747
-29.6602 -5.53416 6.22068
-29.6533 -5.49039 6.23403
-29.6442 -5.44671 6.24655
-29.6349 -5.40309 6.25903
-29.6256 -5.35948 6.2716
-29.6153 -5.31595 6.28383
-29.6045 -5.27249 6.29582
-29.5939 -5.22899 6.30798
-29.5847 -5.18543 6.32091
-29.5756 -5.1419 6.33379
-29.5661 -5.0984 6.34651
-29.5564 -5.05494 6.35909
-29.547 -5.01149 6.3719
-29.5389 -4.96794 6.38563
-29.5321 -4.92444 6.40031
-29.5254 -4.88097 6.41517
-29.5188 -4.8376 6.43022
-29.5121 -4.79443 6.44541
-29.5052 -4.75134 6.4607
-29.4992 -4.70835 6.47675
-29.4932 -4.66539 6.49301
-29.4871 -4.62247 6.50938
-29.4809 -4.5796 6.52593
-29.4742 -4.53656 6.54265
-29.4518 -4.49203 6.54877
-29.4594 -4.45128 6.57687
-29.4524 -4.40849 6.59468
-29.4453 -4.36573 6.61267
-29.4375 -4.32294 6.63036
-29.4296 -4.28023 6.64798
-29.4215 -4.23757 6.66568
-29.4134 -4.19493 6.68343
-29.4046 -4.15226 6.70076
-29.3952 -4.10958 6.71761
-29.3859 -4.06692 6.73449
-29.3761 -4.02424 6.75116
-29.3654 -3.9815 6.76703
-29.3543 -3.93872 6.78278
-29.3433 -3.89595 6.79855
-29.3318 -3.85315 6.81394
-29.3201 -3.81037 6.8292
-29.3085 -3.76765 6.84444
-29.2967 -3.72493 6.8595
-29.2846 -3.68219 6.87434
-29.2726 -3.63941 6.88915
-29.2606 -3.59656 6.90394
-29.2487 -3.55367 6.91876
-29.2369 -3.51072 6.93359
-29.225 -3.46773 6.94842
-29.2131 -3.42472 6.96329
-29.201 -3.38162 6.97789
-29.1889 -3.33839 6.99245
-29.1769 -3.29507 7.00692
-29.1652 -3.2518 7.02147
-29.154 -3.20837 7.0361
-29.143 -3.16378 7.05027
-29.0926 -3.11843 7.02863
-29.1201 -3.07407 7.07715
-29.1086 -3.02892 7.09074
-29.0973 -2.98355 7.10401
-29.0857 -2.93809 7.11682
-29.0741 -2.89269 7.12927
-29.0624 -2.84728 7.14137
-29.0507 -2.80174 7.15325
-29.0378 -2.75625 7.16402
-29.025 -2.71094 7.17473
-29.0121 -2.66567 7.18531
-28.999 -2.62039 7.19561
-28.9854 -2.57513 7.2052
-28.9715 -2.5298 7.21442
-28.9577 -2.48441 7.22354
-28.9433 -2.43911 7.23186
-28.9289 -2.39383 7.24001
-28.9147 -2.34862 7.24797
-28.9002 -2.30352 7.25534
-28.8855 -2.25847 7.2624
-28.8708 -2.21345 7.26941
-28.8562 -2.16846 7.27638
-28.8412 -2.12356 7.28285
-28.8263 -2.07866 7.28932
-28.8115 -2.03369 7.29593
-28.7967 -1.98856 7.30252
-28.7815 -1.94353 7.30865
-28.7664 -1.89858 7.31491
-28.7525 -1.85362 7.32222
-28.7379 -1.80911 7.328
-28.7232 -1.76492 7.33377
-28.7088 -1.72083 7.34014
-28.7423 -1.66782 7.39711
-28.6784 -1.62817 7.3597
-28.664 -1.58413 7.37007
-28.6502 -1.54066 7.38083
-28.6372 -1.49735 7.3919
-28.6251 -1.45415 7.40234
-28.6143 -1.4109 7.41341
-28.6036 -1.36758 7.42465
-28.5926 -1.32423 7.43559
-28.5819 -1.28084 7.44641
-28.5725 -1.23738 7.4579
-28.5632 -1.19388 7.46923
-28.5539 -1.15033 7.48034
-28.5455 -1.10661 7.49201
-28.5384 -1.06286 7.50426
-28.5336 -1.01911 7.51758
-28.5291 -0.975433 7.53067
-28.5257 -0.932043 7.54327
-28.5226 -0.888667 7.55558
-28.5198 -0.845128 7.56776
-28.5174 -0.80139 7.58001
-28.5173 -0.75745 7.5931
-28.5172 -0.713131 7.60621
-28.5154 -0.66825 7.61867
-28.514 -0.622998 7.63138
-28.5132 -0.577528 7.64452
-28.5125 -0.531556 7.65781
-28.5123 -0.484936 7.67136
-28.511 -0.437537 7.68471
-28.5096 -0.389462 7.69811
-28.5082 -0.3404 7.71163
-28.5062 -0.290203 7.72509
-28.5084 -0.238561 7.7399
-28.5017 -0.184311 7.75255
-28.498 -0.128562 7.76621
-28.4946 -0.0716762 7.78014
-28.492 -0.0138766 7.79439
-28.489 0.0445189 7.80859
-28.4861 0.103485 7.82281
-28.4831 0.162975 7.83705
-28.4798 0.222745 7.85112
-28.4766 0.282475 7.86505
-28.4733 0.342316 7.8789
-28.4712 0.40231 7.89306
-28.4692 0.462438 7.90719
-28.4669 0.522705 7.92125
-28.4631 0.583073 7.93477
-28.4588 0.643453 7.94812
-28.4545 0.703858 7.96156
-28.4496 0.764343 7.97503
-28.4447 0.824722 7.98852
-28.4397 0.884881 8.00198
-28.4324 0.944663 8.01447
-28.4239 1.00382 8.02618
-28.4155 1.06252 8.03781
-28.4082 1.12084 8.04985
-28.4005 1.1787 8.06138
-28.3908 1.23615 8.07146
-28.3787 1.2929 8.08002
-28.3678 1.34898 8.0888
-28.3583 1.40459 8.09845
-28.3477 1.46004 8.1088
-28.334 1.5137 8.11732
-28.3206 1.56576 8.12554
-28.2419 1.60335 8.09574
-28.3035 1.65521 8.13574
-28.2963 1.69847 8.14224
-28.2881 1.73939 8.14755
-28.2801 1.7789 8.15238
-28.2725 1.81639 8.15729
-28.2655 1.85253 8.16212
-28.2587 1.88767 8.16666
-28.2517 1.92199 8.17085
-28.2445 1.95588 8.17482
-28.2371 1.9892 8.17855
-28.2298 2.02196 8.18214
-28.2226 2.05422 8.18558
-28.2149 2.08585 8.18856
-28.2073 2.11714 8.19145
-28.1996 2.14814 8.19419
-28.192 2.17899 8.19687
-28.1847 2.20987 8.19957
-28.1774 2.24071 8.20218
-28.1699 2.2715 8.20467
-28.1624 2.30231 8.20711
-28.155 2.33324 8.20957
-28.1476 2.36425 8.21198
-28.1397 2.39534 8.2142
-28.1319 2.42652 8.2164
-28.124 2.45768 8.21855
-28.1161 2.48909 8.22073
-28.108 2.52092 8.22293
-28.0997 2.5534 8.22527
-28.0904 2.58661 8.22751
-28.0807 2.62079 8.22994
-28.0706 2.6559 8.23251
-27.9923 2.67588 8.1996
-28.0461 2.73296 8.24018
-28.0335 2.77201 8.24272
-28.0204 2.81206 8.24538
-28.0074 2.85312 8.24824
-27.9946 2.89526 8.25141
-27.9816 2.93812 8.25461
-27.9673 2.98128 8.2573
-27.953 3.02482 8.25999
-27.9392 3.06859 8.26292
-27.9251 3.11251 8.26563
-27.9106 3.15664 8.26815
-27.8962 3.20111 8.27078
-27.8812 3.24579 8.27308
-27.8647 3.29023 8.2745
-27.8483 3.33492 8.27604
-27.832 3.37967 8.27757
-27.8142 3.4238 8.27809
-27.7963 3.46793 8.27852
-27.7786 3.51224 8.2791
-27.7603 3.5564 8.27923
-27.7417 3.60054 8.27909
-27.723 3.64479 8.27892
-27.7043 3.68915 8.27881
-27.6852 3.73351 8.27849
-27.6661 3.77802 8.27821
-27.6468 3.82262 8.27794
-27.6274 3.86717 8.27751
-27.608 3.91174 8.27708
-27.589 3.95644 8.27688
-27.5701 4.00104 8.27665
-27.5515 4.04527 8.27682
-27.503 4.07703 8.2523
-27.5155 4.13344 8.27705
-27.4979 4.1774 8.27686
-27.4804 4.22121 8.27655
-27.4628 4.26489 8.27614
-27.4453 4.30845 8.27564
-27.4278 4.35187 8.27501
-27.4102 4.39516 8.27421
-27.3923 4.43825 8.27315
-27.3743 4.4812 8.27197
-27.3562 4.52406 8.27071
-27.3378 4.56673 8.26914
-27.3194 4.60938 8.26755
-27.301 4.65203 8.26594
-27.2824 4.69458 8.26413
-27.2638 4.73715 8.26231
-27.2451 4.77979 8.2605
-27.2263 4.82252 8.25861
-27.2072 4.8652 8.25653
-27.1878 4.90776 8.25421
-27.1684 4.95033 8.25191
-27.1491 4.99289 8.24969
-27.1297 5.03544 8.24749
-27.11 5.07777 8.24491
-27.0901 5.1201 8.24226
-27.0702 5.16252 8.23956
-27.0504 5.20495 8.23686
-27.03 5.24702 8.23377
-27.0091 5.28876 8.23028
-26.9879 5.33034 8.22668
-26.9667 5.37189 8.22313
-26.9443 5.41364 8.21899
-26.8933 5.43698 8.19021
-26.8968 5.49614 8.20897
-26.8735 5.53554 8.20362
-26.8502 5.57487 8.19833
-26.8269 5.61404 8.19305
-26.8034 5.653 8.18762
-26.7798 5.69177 8.18208
-26.756 5.73037 8.1764
-26.7322 5.76891 8.17073
-26.7085 5.80741 8.16505
-26.6852 5.84618 8.15971
-26.662 5.88505 8.15456
-26.6391 5.92404 8.1496
-26.6162 5.96302 8.14468
-26.5937 6.00231 8.14016
-26.5714 6.04179 8.13587
-26.5491 6.08136 8.13159
-26.5271 6.12141 8.12773
-26.505 6.1615 8.12381
-26.4829 6.20171 8.11998
-26.4613 6.24221 8.11651
-26.4405 6.28322 8.11375
-26.4195 6.32417 8.11086
-26.3984 6.36508 8.10786
-26.3784 6.40656 8.10575
-26.3583 6.44806 8.10365
-26.338 6.4894 8.10132
-26.3182 6.531 8.09939
-26.2983 6.57263 8.09751
-26.2785 6.61447 8.09604
-26.2593 6.65687 8.09514
-26.2396 6.69905 8.09391
-26.2544 6.75819 8.11835
-26.2001 6.78472 8.09172
-26.1814 6.8273 8.09079
-26.1626 6.86988 8.08964
-26.1436 6.91227 8.08829
-26.1252 6.955 8.08714
-26.1069 6.99774 8.08591
-26.0886 7.0405 8.08467
-26.071 7.08355 8.08387
-26.0533 7.12656 8.08303
-26.0356 7.16958 8.08219
-26.018 7.21265 8.08141
-26.0006 7.25577 8.08069
-25.9829 7.29886 8.07985
-25.9653 7.34197 8.07902
-25.9477 7.38509 8.0782
-25.93 7.42822 8.07739
-25.9123 7.47137 8.07661
-25.8951 7.51474 8.07618
-25.8777 7.55806 8.07567
-25.8603 7.60139 8.07515
-25.8429 7.64474 8.07464
-25.8254 7.68806 8.07405
-25.8076 7.73124 8.0732
-25.7897 7.7744 8.07232
-25.7717 7.81748 8.07135
-25.7547 7.861 8.07112
-25.7371 7.9043 8.07052
-25.7196 7.94764 8.06995
-25.7025 7.99113 8.0697
-25.6853 8.03461 8.0694
-25.6683 8.07814 8.06919
-25.6426 8.11825 8.06182
-25.6343 8.1652 8.06856
-25.6177 8.20886 8.06847
-25.6014 8.25277 8.06869
-25.5847 8.29657 8.06865
-25.568 8.34034 8.06861
-25.5512 8.38407 8.06852
-25.5344 8.4278 8.06844
-25.5176 8.4715 8.06835
-25.5004 8.51502 8.06797
-25.4833 8.55856 8.06769
-25.4662 8.60211 8.06747
-25.4491 8.64566 8.06727
-25.4319 8.68919 8.06706
-25.4147 8.7327 8.06683
-25.3973 8.7762 8.06665
-25.3796 8.81954 8.0662
-25.3617 8.86287 8.06584
-25.3429 8.90586 8.06491
-25.3241 8.94886 8.06402
-25.3051 8.99183 8.06309
-25.286 9.03469 8.06198
-25.2666 9.0775 8.06078
-25.2471 9.12022 8.05943
-25.2275 9.16295 8.05812
-25.2078 9.20562 8.05684
-25.1882 9.24834 8.05561
-25.1686 9.29108 8.05432
-25.1489 9.33394 8.05303
-25.1289 9.37691 8.0517
-25.1085 9.41993 8.04997
-25.0886 9.46402 8.04739
-25.0016 9.47316 7.9917
-25.0495 9.55435 8.03472
-25.0278 9.59734 8.03231
-25.0056 9.64027 8.02969
-24.9836 9.68282 8.02671
-24.9615 9.72492 8.02309
-24.9396 9.76691 8.0194
-24.9157 9.80777 8.01454
-24.893 9.84944 8.01071
-24.8706 9.8912 8.00727
-24.847 9.93218 8.00313
-24.8231 9.973 7.99892
-24.7992 10.0138 7.99473
-24.7764 10.0556 7.99128
-24.7532 10.0971 7.98756
-24.7275 10.1367 7.9821
-24.7028 10.177 7.97741
-24.6789 10.2178 7.9732
-24.6547 10.2583 7.96888
-24.6308 10.299 7.96471
-24.6065 10.3394 7.96032
-24.5821 10.3799 7.95586
-24.5579 10.4203 7.9515
-24.5336 10.4608 7.94713
-24.5092 10.5011 7.94262
-24.4851 10.5413 7.93832
-24.461 10.5816 7.93402
-24.4368 10.6218 7.9297
-24.4127 10.6622 7.92542
-24.3886 10.703 7.92095
-24.3639 10.7436 7.91607
-24.3378 10.7841 7.91153
-24.2709 10.7945 7.87587
-24.287 10.8639 7.90191
-24.2628 10.9036 7.89686
-24.2379 10.9435 7.89166
-24.2129 10.9834 7.8863
-24.1877 11.0227 7.88082
-24.1629 11.0622 7.8756
-24.1381 11.1017 7.87037
-24.1134 11.1412 7.86513
-24.0885 11.1805 7.85955
-24.0634 11.2197 7.85376
-24.0384 11.259 7.84799
-24.0133 11.2981 7.84215
-23.9883 11.3373 7.83633
-23.9631 11.3764 7.8304
-23.9379 11.4155 7.8245
-23.9129 11.4547 7.81873
-23.8881 11.494 7.81303
-23.8634 11.5335 7.80747
-23.8388 11.5729 7.80197
-23.8142 11.6124 7.79649
-23.7887 11.6512 7.79037
-23.7632 11.69 7.78423
-23.7388 11.7296 7.77892
-23.7136 11.7686 7.773
-23.6879 11.8073 7.76671
-23.6618 11.8457 7.7601
-23.6353 11.8838 7.75326
-23.6086 11.9217 7.74625
-23.5808 11.9588 7.73848
-23.5528 11.9957 7.73069
-23.5247 12.0326 7.72287
-23.4948 12.0679 7.71378
-23.4679 12.1062 7.70746
-23.4393 12.143 7.69994
-23.4106 12.1798 7.69245
-23.3819 12.2165 7.685
-23.3532 12.2533 7.67762
-23.3245 12.2901 7.67023
-23.2959 12.327 7.66292
-23.268 12.3645 7.6562
-23.2403 12.4019 7.64941
-23.2122 12.439 7.64235
-23.1846 12.4765 7.63562
-23.1572 12.5142 7.62905
-23.1304 12.5522 7.62282
-23.1036 12.5904 7.61666
-23.0767 12.6284 7.61037
-23.0503 12.6668 7.60448
-23.0243 12.7057 7.5989
-22.9982 12.7446 7.59333
-22.9724 12.7838 7.58797
-22.9469 12.823 7.58268
-22.9222 12.8626 7.57767
-22.8976 12.9022 7.57271
-22.8727 12.9416 7.56758
-22.8478 12.9813 7.56265
-22.8228 13.0217 7.55827
-22.7986 13.0628 7.55439
-22.7749 13.104 7.55059
-22.7526 13.1459 7.54737
-22.7314 13.1879 7.54444
-22.71 13.2298 7.54141
-22.6884 13.2713 7.53808
-22.7256 13.3458 7.56324
-22.6467 13.3573 7.53121
-22.6266 13.399 7.52751
-22.6075 13.441 7.52451
-22.5898 13.4837 7.52215
-22.5719 13.5249 7.51971
-22.554 13.5656 7.51724
-22.5355 13.6058 7.51423
-22.517 13.646 7.51118
-22.4997 13.6871 7.50875
-22.4823 13.7283 7.5063
-22.4649 13.7695 7.50381
-22.4476 13.8107 7.50128
-22.4292 13.8513 7.49809
-22.4126 13.8928 7.4959
-22.3957 13.9341 7.49349
-22.3782 13.975 7.49072
-22.3587 14.0153 7.48699
-22.3393 14.0555 7.48323
-22.3196 14.0957 7.47928
-22.3008 14.1363 7.47577
-22.282 14.1769 7.47213
-22.2633 14.2175 7.46842
-22.2447 14.258 7.46465
-22.224 14.2975 7.45971
-22.2026 14.3363 7.45449
-22.1813 14.3751 7.44921
-22.16 14.414 7.44379
-22.1413 14.4545 7.43945
-22.1209 14.4942 7.43331
-22.0979 14.5322 7.42515
-22.076 14.571 7.41746
-22.0381 14.5985 7.40007
-22.036 14.6473 7.4036
-22.0202 14.6889 7.39898
-22.0023 14.7311 7.39385
-21.9824 14.7723 7.38716
-21.9619 14.8118 7.37839
-21.9413 14.8509 7.36892
-21.9224 14.8915 7.36088
-21.9039 14.9324 7.35316
-21.8849 14.9728 7.34528
-21.8658 15.0131 7.33745
-21.8466 15.0535 7.32955
-21.8292 15.0948 7.32274
-21.8093 15.1348 7.31418
-21.7889 15.1744 7.30518
-21.7672 15.2132 7.2955
-21.7455 15.252 7.28578
-21.7238 15.2908 7.27613
-21.7007 15.3286 7.26582
-21.6793 15.3676 7.25616
-21.6582 15.4068 7.24652
-21.6371 15.446 7.23681
-21.6137 15.4837 7.22621
-21.5896 15.521 7.21527
-21.5655 15.5586 7.20414
-21.5403 15.5958 7.19224
-21.5148 15.6332 7.18021
-21.49 15.6711 7.16847
-21.4639 15.7084 7.15633
-21.4369 15.7453 7.14391
-21.4097 15.7826 7.13157
-21.3822 15.8201 7.11941
-21.3067 15.8187 7.09312
-21.3256 15.8969 7.09656
-21.2964 15.9361 7.08584
-21.2665 15.975 7.07501
-21.2362 16.0141 7.06435
-21.206 16.0528 7.05324
-21.1752 16.091 7.04187
-21.1435 16.1287 7.03039
-21.1112 16.1657 7.01875
-21.08 16.2032 7.00749
-21.0487 16.2407 6.99624
-21.017 16.2775 6.9848
-20.9852 16.3143 6.97334
-20.9517 16.3493 6.96124
-20.9186 16.3848 6.94922
-20.8861 16.4207 6.93726
-20.8539 16.4568 6.92523
-20.8212 16.4925 6.91279
-20.7895 16.5289 6.9005
-20.7579 16.5651 6.88811
-20.726 16.6006 6.87541
-20.6949 16.6362 6.8628
-20.6644 16.672 6.85029
-20.6343 16.7075 6.83772
-20.6045 16.7427 6.82511
-20.5749 16.7777 6.81253
-20.5466 16.8133 6.80035
-20.5183 16.8477 6.78781
-20.4904 16.8814 6.77515
-20.4632 16.9147 6.76252
-20.4371 16.9472 6.74988
-20.4123 16.9793 6.73745
-20.3831 17.0043 6.72178
-20.3672 17.0387 6.71225
-20.3469 17.066 6.6995
-20.3275 17.0924 6.68667
-20.309 17.1181 6.6738
-20.2913 17.1436 6.661
-20.274 17.1686 6.64806
-20.2573 17.1931 6.635
-20.2408 17.2174 6.6218
-20.2245 17.2416 6.60841
-20.2083 17.2658 6.59489
-20.1924 17.2898 6.58123
-20.1763 17.3133 6.5672
-20.1594 17.3356 6.55255
-20.1427 17.358 6.53778
-20.1268 17.3812 6.52333
-20.1112 17.4047 6.50894
-20.0953 17.4278 6.49435
-20.0792 17.4509 6.4796
-20.0629 17.4741 6.46464
-20.0456 17.4967 6.4491
-20.028 17.5197 6.43326
-20.0102 17.5431 6.41714
-19.992 17.5668 6.4007
-19.9731 17.5904 6.38379
-19.9544 17.6147 6.36674
-19.9356 17.6397 6.34941
-19.9161 17.6655 6.33162
-19.8957 17.6918 6.31327
-19.8743 17.7186 6.29436
-19.8517 17.7466 6.27476
-19.828 17.7759 6.2544
-19.7884 17.7917 6.22723
-19.7755 17.8419 6.20889
-19.7455 17.877 6.18447
-19.7142 17.9135 6.15932
-19.6818 17.951 6.1336
-19.6483 17.9888 6.10739
-19.6139 18.0272 6.08083
-19.5792 18.0666 6.05399
-19.5433 18.1059 6.02679
-19.5074 18.1455 5.99966
-19.4714 18.1857 5.97253
-19.4352 18.2263 5.94532
-19.3998 18.2686 5.91841
-19.3642 18.3111 5.89143
-19.3283 18.3538 5.86444
-19.2931 18.3976 5.83773
-19.2579 18.4415 5.8111
-19.223 18.4857 5.7846
-19.188 18.5297 5.75824
-19.1533 18.574 5.73217
-19.1189 18.6186 5.70649
-19.0848 18.663 5.68122
-19.0512 18.7076 5.65644
-19.0177 18.752 5.63209
-18.9842 18.7962 5.60811
-18.9522 18.8415 5.58472
-18.9203 18.8865 5.56187
-18.889 18.9311 5.53979
-18.8581 18.9752 5.5185
-18.8275 19.0187 5.49798
-18.7975 19.0613 5.47855
-18.7682 19.1027 5.46032
-18.7435 19.1456 5.44439
-18.7123 19.1801 5.42958
-18.6865 19.2163 5.41698
-18.6614 19.2514 5.4056
-18.6369 19.2855 5.39532
-18.6128 19.319 5.38586
-18.5891 19.3518 5.37722
-18.5658 19.3839 5.36937
-18.5434 19.416 5.36219
-18.5212 19.4478 5.35542
-18.4992 19.4793 5.34912
-18.4775 19.5104 5.34333
-18.4556 19.541 5.33801
-18.4339 19.5712 5.33317
-18.4124 19.6011 5.32875
-18.3909 19.6308 5.32466
-18.3694 19.6604 5.32083
-18.3477 19.6902 5.31717
-18.3261 19.72 5.31369
-18.3041 19.7495 5.31039
-18.2821 19.7788 5.30724
-18.26 19.8081 5.30422
-18.238 19.8372 5.30133
-18.216 19.8662 5.29855
-18.1939 19.8951 5.29594
-18.172 19.9238 5.29362
-18.1501 19.9524 5.29138
-18.1281 19.981 5.28911
-18.1064 20.01 5.28665
-18.084 20.0388 5.28367
-18.0615 20.0678 5.28025
-18.0387 20.0969 5.2764
-17.9645 20.0859 5.26928
-17.992 20.1562 5.26701
-17.9684 20.1861 5.26092
-17.9445 20.2157 5.25444
-17.9202 20.2454 5.24766
-17.8959 20.2748 5.24079
-17.8716 20.3043 5.2338
-17.8474 20.3341 5.22669
-17.823 20.3639 5.21957
-17.7983 20.3938 5.21257
-17.7732 20.4235 5.20562
-17.7473 20.4528 5.1987
-17.7214 20.4822 5.19184
-17.6953 20.5118 5.18504
-17.6696 20.5421 5.17839
-17.6439 20.5724 5.1719
-17.6174 20.6021 5.16558
-17.5907 20.6314 5.15953
-17.5639 20.6608 5.15371
-17.5369 20.6902 5.14812
-17.5094 20.7194 5.14277
-17.4817 20.749 5.13773
-17.4531 20.7781 5.13295
-17.4242 20.8074 5.12842
-17.395 20.8371 5.12409
-17.3654 20.8671 5.11987
-17.3354 20.8975 5.11588
-17.305 20.9282 5.11221
-17.2736 20.9587 5.1089
-17.2417 20.9896 5.10595
-17.2091 21.021 5.10344
-17.1762 21.053 5.1014
-17.0878 21.03 5.10077
-17.1063 21.1208 5.09877
-17.0696 21.1556 5.09916
-17.0324 21.1904 5.09971
-16.9948 21.2258 5.10072
-16.9569 21.2617 5.10208
-16.9186 21.298 5.1038
-16.8792 21.3338 5.1059
-16.8393 21.3693 5.10833
-16.7994 21.4048 5.11105
-16.7596 21.4405 5.11404
-16.7197 21.4764 5.11727
-16.6791 21.5119 5.12075
-16.6371 21.5462 5.12451
-16.5949 21.5805 5.12844
-16.5526 21.6149 5.13254
-16.5102 21.6491 5.13677
-16.4676 21.683 5.14108
-16.4241 21.7156 5.14554
-16.3806 21.7483 5.15012
-16.3372 21.7809 5.1548
-16.2939 21.8135 5.1596
-16.2508 21.846 5.16451
-16.2074 21.878 5.16953
-16.164 21.9097 5.17469
-16.1206 21.9414 5.17999
-16.0777 21.9734 5.18539
-16.0351 22.0051 5.19084
-15.9924 22.036 5.19635
-15.9497 22.0661 5.2019
-15.9075 22.0958 5.20747
-15.8658 22.1249 5.21303
-15.8209 22.1475 5.21853
-15.7857 22.1807 5.22414
-15.7475 22.208 5.22951
-15.7099 22.2347 5.23484
-15.6727 22.2608 5.24015
-15.6358 22.2864 5.24542
-15.5993 22.3118 5.25069
-15.5633 22.337 5.25595
-15.5274 22.3617 5.2612
-15.4915 22.3861 5.26643
-15.4554 22.4098 5.27163
-15.4195 22.4332 5.27683
-15.3837 22.4565 5.28203
-15.3481 22.4796 5.28722
-15.3128 22.5027 5.29242
-15.2771 22.5251 5.2976
-15.2411 22.5468 5.30278
-15.2049 22.5685 5.30805
-15.1688 22.5901 5.31336
-15.1326 22.6115 5.31864
-15.0963 22.6328 5.3239
-15.0601 22.654 5.3291
-15.0239 22.6753 5.33424
-14.9877 22.6966 5.33932
-14.9516 22.7178 5.34433
-14.9157 22.7392 5.3493
-14.8803 22.7613 5.35422
-14.8447 22.7834 5.359
-14.809 22.8053 5.36363
-14.7733 22.8272 5.36812
-14.7374 22.8493 5.3724
-14.7013 22.8714 5.37644
-14.6637 22.8916 5.38004
-14.6284 22.9164 5.38332
-14.5913 22.9389 5.38614
-14.554 22.9614 5.38874
-14.5158 22.9828 5.3911
-14.4774 23.004 5.3933
-14.439 23.0252 5.39535
-14.4 23.0458 5.39725
-14.3607 23.066 5.39905
-14.3214 23.0862 5.40082
-14.282 23.1064 5.40253
-14.2418 23.1252 5.40411
-14.2016 23.1441 5.40562
-14.1611 23.1626 5.40706
-14.1208 23.1815 5.40844
-14.0804 23.2005 5.40977
-14.04 23.2194 5.41103
-13.9997 23.2383 5.4122
-13.9594 23.2572 5.41332
-13.9188 23.2756 5.41441
-13.8782 23.294 5.41552
-13.8376 23.3128 5.41672
-13.7971 23.3318 5.418
-13.7564 23.3506 5.41934
-13.7158 23.3698 5.42073
-13.6752 23.3892 5.42212
-13.6346 23.4086 5.42362
-13.5938 23.4281 5.42532
-13.5529 23.4476 5.42722
-13.5119 23.4671 5.42932
-13.4708 23.4867 5.43175
-13.4296 23.5066 5.43458
-13.3861 23.5221 5.43791
-13.3468 23.5471 5.44236
-13.3046 23.5669 5.44728
-13.2623 23.5866 5.45259
-13.2199 23.6063 5.45821
-13.1775 23.6262 5.46399
-13.1351 23.6463 5.46992
-13.0926 23.6663 5.47598
-13.05 23.6864 5.48207
-13.0073 23.7065 5.4881
-12.9647 23.7265 5.49409
-12.9217 23.7461 5.50008
-12.88 23.7682 5.50593
-12.8384 23.7904 5.5117
-12.7968 23.8126 5.51737
-12.7544 23.8333 5.52299
-12.7127 23.8554 5.52837
-12.6714 23.8783 5.53356
-12.6303 23.9017 5.53854
-12.59 23.9263 5.54318
-12.5503 23.9518 5.54748
-12.5101 23.9764 5.5516
-12.4696 24.0005 5.5555
-12.4303 24.0262 5.5588
-12.3909 24.0519 5.56181
-12.3512 24.0769 5.56466
-12.3114 24.1018 5.56714
-12.2715 24.1261 5.56921
-12.2313 24.1497 5.57089
-12.191 24.1727 5.57212
-12.1508 24.1956 5.57265
-12.1108 24.2183 5.57239
-12.0676 24.2347 5.57229
-12.0312 24.2621 5.56833
-11.9919 24.2837 5.56454
-11.9527 24.3049 5.55996
-11.9136 24.3259 5.5547
-11.8743 24.3462 5.54897
-11.8348 24.366 5.54279
-11.7954 24.3855 5.53609
-11.7559 24.4047 5.52901
-11.7165 24.4238 5.52167
-11.6775 24.4437 5.51382
-11.6386 24.4636 5.50557
-11.5992 24.4823 5.49722
-11.5598 24.5009 5.48854
-11.5203 24.5193 5.47959
-11.4807 24.5372 5.47048
-11.441 24.5551 5.46118
-11.4013 24.5728 5.45179
-11.3615 24.5904 5.44228
-11.3217 24.608 5.43259
-11.2818 24.6255 5.42275
-11.2419 24.643 5.41275
-11.202 24.6604 5.40262
-11.162 24.6778 5.39235
-11.122 24.6951 5.38194
-11.0818 24.7122 5.37138
-11.0413 24.7286 5.36083
-11.0008 24.7451 5.35024
-10.9602 24.7617 5.33962
-10.9194 24.7781 5.329
-10.8785 24.7944 5.3185
-10.8373 24.8108 5.3081
-10.7946 24.8242 5.29863
-10.754 24.8434 5.28835
-10.7118 24.8595 5.27904
-10.6696 24.8759 5.26978
-10.6269 24.8916 5.26081
-10.584 24.9068 5.25197
-10.5409 24.922 5.24314
-10.4972 24.936 5.23461
-10.453 24.9486 5.22633
-10.4089 24.9614 5.21788
-10.3647 24.9741 5.20934
-10.3203 24.9862 5.20088
-10.2757 24.9983 5.19234
-10.2311 25.0105 5.18375
-10.1865 25.0228 5.17503
-10.1418 25.0352 5.16618
-10.0972 25.0481 5.15711
-10.053 25.0627 5.14757
-10.0084 25.0765 5.13801
-9.96349 25.0891 5.12846
-9.91852 25.1017 5.11877
-9.87391 25.1155 5.10873
-9.82972 25.1306 5.09838
-9.78554 25.1458 5.0879
-9.7413 25.1609 5.07728
-9.69658 25.175 5.06666
-9.65213 25.1899 5.05585
-9.60753 25.2039 5.04499
-9.56284 25.2174 5.03404
-9.51783 25.2294 5.02311
-9.47298 25.2414 5.012
-9.42837 25.2533 5.00072
-9.37854 25.2469 4.99156
-9.33874 25.275 4.97746
-9.29479 25.2842 4.96588
-9.25103 25.2932 4.95412
-9.20739 25.302 4.94222
-9.16367 25.3098 4.93027
-9.11999 25.3175 4.91813
-9.07623 25.325 4.90587
-9.03235 25.3324 4.89343
-8.9882 25.3399 4.8808
-8.94389 25.3473 4.868
-8.89942 25.3547 4.85506
-8.85482 25.362 4.84196
-8.81008 25.3694 4.82868
-8.76521 25.3767 4.81526
-8.72003 25.3832 4.80183
-8.67476 25.3896 4.7883
-8.62971 25.3967 4.77465
-8.58459 25.4041 4.76085
-8.539 25.4105 4.74703
-8.49299 25.4164 4.73309
-8.44651 25.4222 4.71894
-8.39959 25.428 4.70458
-8.35214 25.4335 4.69005
-8.30427 25.4393 4.67532
-8.25603 25.445 4.66045
-8.20714 25.4506 4.64538
-8.15768 25.4577 4.62984
-8.10739 25.4649 4.61399
-8.05638 25.4722 4.59781
-8.00415 25.4796 4.58124
-7.95026 25.4877 4.56419
-7.9048 25.5506 4.53971
-7.83513 25.5054 4.52827
-7.77412 25.5151 4.50941
-7.71224 25.5255 4.48998
-7.64993 25.539 4.46977
-7.5879 25.5524 4.44898
-7.52586 25.5674 4.42763
-7.46327 25.5835 4.40597
-7.40036 25.5997 4.38419
-7.33859 25.619 4.36193
-7.27681 25.6388 4.33955
-7.2146 25.6583 4.31716
-7.15284 25.6798 4.29444
-7.0911 25.7024 4.27155
-7.02916 25.7249 4.24867
-6.96693 25.7468 4.22589
-6.90402 25.7667 4.20344
-6.84078 25.7848 4.18133
-6.77779 25.8031 4.15927
-6.71527 25.822 4.13723
-6.65296 25.8406 4.11538
-6.59075 25.8585 4.09382
-6.52848 25.8752 4.07274
-6.46637 25.8911 4.0521
-6.40459 25.9071 4.03184
-6.34269 25.9224 4.01226
-6.28167 25.939 3.99286
-6.22097 25.954 3.97415
-6.1613 25.9694 3.95572
-6.10321 25.9868 3.9372
-6.04636 26.0041 3.91932
-5.99113 26.0212 3.90207
-5.95011 26.0701 3.8768
-5.88589 26.0534 3.8717
-5.83653 26.0698 3.85808
-5.78946 26.0863 3.84448
-5.74362 26.1026 3.83149
-5.69882 26.1185 3.81902
-5.65526 26.1348 3.80685
-5.61249 26.1508 3.7952
-5.57017 26.1662 3.78414
-5.52852 26.1818 3.77316
-5.48759 26.1976 3.76238
-5.44726 26.2133 3.75192
-5.40747 26.229 3.74183
-5.36817 26.2444 3.73221
-5.32927 26.2596 3.72295
-5.29075 26.2748 3.71398
-5.25268 26.2904 3.70507
-5.21463 26.3058 3.69636
-5.17665 26.3209 3.68797
-5.13891 26.336 3.6798
-5.10115 26.3506 3.67208
-5.06353 26.3649 3.6647
-5.02616 26.3791 3.65755
-4.98909 26.3936 3.65055
-4.95243 26.4083 3.64366
-4.9161 26.4229 3.63702
-4.87998 26.4376 3.6306
-4.84398 26.4522 3.62435
-4.80805 26.4669 3.61833
-4.77217 26.4816 3.61261
-4.73622 26.4962 3.60698
-4.7002 26.5109 3.60151
-4.65653 26.5099 3.60197
-4.62684 26.5405 3.59011
-4.58969 26.5551 3.58469
-4.55231 26.5694 3.57948
-4.51467 26.5835 3.57453
-4.47742 26.5985 3.56949
-4.44017 26.6135 3.56461
-4.40294 26.6286 3.55985
-4.36555 26.6432 3.55547
-4.32813 26.6574 3.55143
-4.29105 26.6722 3.5473
-4.25446 26.6879 3.54292
-4.21782 26.7032 3.53881
-4.1808 26.7178 3.53531
-4.14343 26.7314 3.53239
-4.10579 26.7442 3.53
-4.06814 26.7566 3.5279
-4.03095 26.7699 3.52565
-3.99421 26.7841 3.5232
-3.95755 26.7983 3.52093
-3.92095 26.8123 3.51888
-3.88447 26.8264 3.51697
-3.8481 26.8405 3.51521
-3.81196 26.8549 3.51347
-3.77579 26.8691 3.51198
-3.73951 26.8829 3.5108
-3.70331 26.8967 3.50978
-3.66728 26.9106 3.50887
-3.63147 26.9246 3.50803
-3.59577 26.9386 3.50735
-3.5601 26.9519 3.50705
-3.52464 26.9648 3.50707
-3.49089 26.9819 3.50546
-3.45402 26.9885 3.50874
-3.4196 27.001 3.50942
-3.38538 27.0135 3.51025
-3.35117 27.0255 3.5114
-3.31702 27.0376 3.51268
-3.28293 27.0498 3.51407
-3.24887 27.0619 3.51558
-3.21485 27.0744 3.51709
-3.1805 27.0865 3.51895
-3.14599 27.0985 3.52101
-3.11132 27.1102 3.52331
-3.07649 27.1217 3.52584
-3.04141 27.1327 3.52874
-3.00614 27.1434 3.53189
-2.97076 27.1542 3.53512
-2.9353 27.1649 3.53843
-2.8998 27.1755 3.54183
-2.86417 27.186 3.54529
-2.82839 27.1969 3.54872
-2.79233 27.208 3.55222
-2.75592 27.2192 3.55578
-2.71917 27.2307 3.5594
-2.68204 27.2424 3.56312
