BEGIN_Polyline
-15.4482 3.39639 7.01422
-15.4611 3.3529 7.01112
-15.4748 3.30974 7.00731
-15.4885 3.26663 7.00353
-15.502 3.2234 7.00002
-15.5154 3.1801 6.99651
-15.529 3.13687 6.99275
-15.5433 3.0939 6.98839
-15.5576 3.0509 6.98399
-15.5718 3.00754 6.98
-15.5675 2.95666 6.9918
-15.6001 2.92082 6.9722
-15.6144 2.87753 6.96804
-15.6289 2.83404 6.96322
-15.6433 2.79047 6.95835
-15.6577 2.74683 6.95346
-15.6728 2.70338 6.94806
-15.6883 2.66015 6.94227
-15.7038 2.61687 6.93645
-15.718 2.57296 6.93162
-15.7323 2.529 6.92678
-15.7466 2.485 6.92195
-15.76 2.44065 6.91776
-15.7733 2.39622 6.91365
-15.786 2.35156 6.91002
-15.7984 2.30681 6.90662
-15.8107 2.26212 6.90322
-15.8234 2.21765 6.89957
-15.8368 2.17353 6.89542
-15.85 2.1294 6.89134
-15.8633 2.08529 6.88727
-15.8767 2.04115 6.88326
-15.8874 1.9961 6.88095
-15.8981 1.95114 6.87859
-15.9088 1.9062 6.87621
-15.9205 1.86157 6.87319
-15.9321 1.81693 6.87019
-15.9421 1.77195 6.86789
-15.9521 1.72697 6.86557
-15.9623 1.68199 6.86319
-15.9735 1.63725 6.86037
-15.9846 1.59258 6.85754
-16.0084 1.5515 6.84869
-16.0071 1.50311 6.85126
-16.0192 1.4593 6.84749
-16.031 1.41526 6.84412
-16.0427 1.37126 6.84074
-16.0547 1.32737 6.83725
-16.067 1.28358 6.83364
-16.0801 1.24007 6.82968
-16.093 1.19653 6.82576
-16.1059 1.153 6.8219
-16.1188 1.10948 6.81805
-16.132 1.06609 6.81405
-16.1455 1.02278 6.80995
-16.1589 0.979456 6.80586
-16.1724 0.936124 6.80178
-16.1859 0.892786 6.79771
-16.1994 0.849451 6.79366
-16.213 0.80612 6.78967
-16.227 0.762928 6.78552
-16.2419 0.720091 6.78092
-16.257 0.677203 6.77634
-16.272 0.634307 6.77174
-16.2873 0.591427 6.76707
-16.3026 0.548484 6.76241
-16.3158 0.504614 6.75873
-16.3307 0.461321 6.75431
-16.3466 0.418378 6.74933
-16.3626 0.375318 6.74439
-16.3782 0.33203 6.73961
-16.3938 0.288679 6.7348
-16.4093 0.245176 6.73003
-16.4262 0.201755 6.72498
-16.4486 0.161087 6.71652
-16.4625 0.116498 6.7129
-16.4746 0.0708788 6.71024
-16.4881 0.0253557 6.70702
-16.506 -0.0182657 6.70068
-16.5238 -0.0616236 6.69427
-16.5412 -0.105239 6.68816
-16.5577 -0.149325 6.68256
-16.5741 -0.193584 6.67711
-16.5906 -0.237917 6.67169
-16.6069 -0.282373 6.66636
-16.623 -0.326992 6.6612
-16.6392 -0.371658 6.65603
-16.6553 -0.41636 6.65086
-16.6717 -0.461017 6.64557
-16.688 -0.505744 6.64034
-16.7035 -0.550848 6.63564
-16.719 -0.595962 6.63097
-16.7345 -0.641095 6.62632
-16.75 -0.686261 6.62169
-16.7653 -0.731516 6.61718
-16.7807 -0.776807 6.6127
-16.7959 -0.822165 6.60831
-16.8112 -0.867541 6.60393
-16.8263 -0.912975 6.59967
-16.8405 -0.958672 6.59591
-16.8547 -1.00442 6.59223
-16.8694 -1.05003 6.58823
-16.8854 -1.09521 6.58349
-16.9017 -1.14031 6.57864
-16.9173 -1.1857 6.57431
-16.9328 -1.23135 6.5704
-16.9296 -1.28428 6.57788
-16.9635 -1.32401 6.56357
-16.9769 -1.37015 6.56096
-16.9905 -1.41631 6.55841
-17.004 -1.46245 6.55588
-17.0176 -1.50861 6.55323
-17.0315 -1.55466 6.55045
-17.0459 -1.60052 6.54762
-17.0602 -1.64637 6.54473
-17.0748 -1.69224 6.5416
-17.091 -1.73742 6.53739
-17.1072 -1.78261 6.53322
-17.1233 -1.82779 6.52906
-17.139 -1.87318 6.52525
-17.1538 -1.91886 6.52191
-17.1672 -1.96503 6.51933
-17.1805 -2.01124 6.51685
-17.1951 -2.05687 6.51359
-17.2107 -2.10213 6.50992
-17.226 -2.14748 6.5064
-17.2406 -2.19302 6.50312
-17.2552 -2.2385 6.49988
-17.2693 -2.28412 6.49684
-17.2831 -2.3298 6.4939
-17.2984 -2.37495 6.49038
-17.3142 -2.41994 6.48661
-17.3301 -2.46491 6.48283
-17.3454 -2.50999 6.47923
-17.3593 -2.55545 6.47628
-17.3735 -2.60058 6.47327
-17.3882 -2.64538 6.47006
-17.4029 -2.69008 6.46677
-17.3989 -2.74131 6.47062
-17.4312 -2.77983 6.46009
-17.4448 -2.82444 6.4564
-17.4583 -2.86894 6.45261
-17.4718 -2.91335 6.44875
-17.4851 -2.95772 6.44493
-17.4984 -3.00201 6.4411
-17.5116 -3.04624 6.43724
-17.5251 -3.09031 6.43328
-17.5379 -3.13457 6.42961
-17.5508 -3.17878 6.42596
-17.5636 -3.22294 6.4223
-17.5764 -3.26706 6.41864
-17.5892 -3.31116 6.41498
-17.6016 -3.35532 6.41144
-17.614 -3.39945 6.4079
-17.6268 -3.44343 6.40421
-17.6393 -3.48747 6.40061
-17.6515 -3.53159 6.39716
-17.6637 -3.57572 6.39374
-17.6759 -3.61982 6.39034
-17.688 -3.66391 6.38697
-17.6998 -3.70809 6.38374
-17.7116 -3.75229 6.38058
-17.7233 -3.79649 6.37743
-17.7351 -3.84069 6.37424
-17.7471 -3.88483 6.37098
-17.759 -3.92898 6.36778
-17.7705 -3.97329 6.36483
-17.782 -4.01763 6.36191
-17.7935 -4.06202 6.35905
-17.8048 -4.1067 6.35638
-17.7878 -4.1593 6.36619
-17.8277 -4.19579 6.35025
-17.8398 -4.24067 6.3477
-17.851 -4.28576 6.34557
-17.8619 -4.33105 6.34373
-17.873 -4.37603 6.34178
-17.8841 -4.42095 6.33986
-17.8951 -4.46594 6.33803
-17.9059 -4.51096 6.33634
-17.9166 -4.55601 6.33481
-17.9271 -4.60108 6.33341
-17.9377 -4.64615 6.33203
-17.9484 -4.69119 6.33063
-17.9586 -4.73634 6.32945
-17.9686 -4.78153 6.32836
-17.9787 -4.82669 6.32722
-17.9891 -4.87177 6.32594
-17.999 -4.91696 6.32484
-18.0084 -4.96226 6.324
-18.0178 -5.00752 6.32311
-18.0272 -5.05276 6.32221
-18.0359 -5.09813 6.32164
-18.0441 -5.14354 6.32124
-18.0524 -5.18893 6.32082
-18.0606 -5.23429 6.3204
-18.0686 -5.27968 6.32009
-18.0766 -5.32502 6.31974
-18.0846 -5.37031 6.31937
-18.0923 -5.41558 6.31909
-18.0999 -5.4608 6.3188
-18.1075 -5.50593 6.31848
-18.115 -5.55097 6.31813
-18.1224 -5.59586 6.31774
-18.1296 -5.64055 6.31729
-18.1368 -5.68508 6.31672
-18.144 -5.72949 6.31609
-18.1514 -5.77378 6.31532
-18.1589 -5.81797 6.31446
-18.1663 -5.86211 6.31357
-18.1738 -5.90619 6.31263
-18.1817 -5.95014 6.31143
-18.1897 -5.99409 6.3102
-18.1977 -6.03802 6.30896
-18.2055 -6.08193 6.30772
-18.2144 -6.12563 6.30602
-18.2235 -6.16924 6.30417
-18.2326 -6.21284 6.30231
-18.2418 -6.25639 6.30035
-18.2519 -6.29974 6.29801
-18.2619 -6.34306 6.29568
-18.2719 -6.38641 6.29337
-18.282 -6.42975 6.29101
-18.2923 -6.47306 6.28854
-18.3028 -6.51637 6.28595
-18.3137 -6.55961 6.28317
-18.3247 -6.60288 6.28033
-18.3357 -6.64618 6.27747
-18.3464 -6.6896 6.27475
-18.3571 -6.73307 6.27198
-18.368 -6.77662 6.26918
-18.3788 -6.82026 6.26636
-18.3897 -6.86399 6.26352
-18.4004 -6.90787 6.26071
-18.4111 -6.95196 6.25797
-18.4249 -6.99541 6.25366
-18.4325 -7.04085 6.25239
-18.4431 -7.0857 6.24962
-18.4538 -7.13072 6.24685
-18.4642 -7.17592 6.24417
-18.4749 -7.22119 6.2414
-18.4856 -7.26652 6.23856
-18.4967 -7.31187 6.23556
-18.5079 -7.35722 6.23247
-18.519 -7.40264 6.22942
-18.5301 -7.44809 6.22636
-18.5407 -7.49375 6.22357
-18.5512 -7.53947 6.22082
-18.5616 -7.58526 6.21808
-18.5727 -7.63091 6.21504
-18.584 -7.67654 6.21197
-18.5954 -7.72219 6.20894
-18.6068 -7.76786 6.20601
-18.6181 -7.81357 6.20317
-18.6284 -7.85954 6.20072
-18.6387 -7.9055 6.19829
-18.6499 -7.95121 6.19553
-18.6612 -7.99692 6.19277
-18.6715 -8.04288 6.19036
-18.6805 -8.08911 6.18835
-18.6902 -8.1352 6.18613
-18.6996 -8.18132 6.18396
-18.7087 -8.22747 6.18189
-18.717 -8.27373 6.18002
-18.7254 -8.31995 6.17816
-18.7337 -8.36609 6.1763
-18.742 -8.41214 6.17441
-18.7494 -8.45822 6.17273
-18.7588 -8.50372 6.1705
-18.7675 -8.5492 6.1684
-18.7765 -8.59454 6.16622
-18.7855 -8.63979 6.16404
-18.7944 -8.68498 6.16186
-18.8035 -8.7301 6.15967
-18.8126 -8.77516 6.15749
-18.8216 -8.82017 6.15532
-18.8313 -8.86504 6.15303
-18.8412 -8.9098 6.1507
-18.8509 -8.95458 6.14842
-18.8606 -8.99934 6.14617
-18.8703 -9.04407 6.14394
-18.8813 -9.08849 6.14147
-18.8927 -9.13276 6.13889
-18.9041 -9.17703 6.13635
-18.9155 -9.22132 6.13385
-18.927 -9.2656 6.13138
-18.9385 -9.30986 6.12893
-18.9517 -9.35369 6.12611
-18.9648 -9.39749 6.12333
-18.9777 -9.44135 6.12062
-18.9907 -9.48521 6.11795
-19.003 -9.52926 6.11548
-19.0153 -9.57329 6.11303
-19.0274 -9.6174 6.11069
-19.0394 -9.66149 6.10835
-19.0517 -9.70559 6.10608
-19.064 -9.74987 6.10415
-19.0787 -9.79343 6.10159
-19.0943 -9.83659 6.09862
-19.1149 -9.87774 6.09352
-19.1249 -9.92261 6.0922
-19.1386 -9.96637 6.08968
-19.1525 -10.0099 6.08706
-19.1664 -10.0535 6.08448
-19.1803 -10.0971 6.08194
-19.1943 -10.1407 6.07945
-19.2083 -10.1843 6.077
-19.2217 -10.2282 6.07479
-19.2345 -10.2723 6.0729
-19.2465 -10.3166 6.07128
-19.2586 -10.3609 6.06973
-19.2712 -10.4052 6.06812
-19.2855 -10.4488 6.066
-19.2998 -10.4925 6.06395
-19.3141 -10.5362 6.06198
-19.3272 -10.5803 6.06052
-19.3393 -10.6248 6.05945
-19.3515 -10.6693 6.05848
-19.3636 -10.7138 6.0576
-19.3779 -10.7578 6.05623
-19.3931 -10.8014 6.05471
-19.4084 -10.8449 6.05322
-19.4248 -10.8882 6.05151
-19.44 -10.9319 6.05026
-19.4549 -10.9758 6.04916
-19.4699 -11.0198 6.04813
-19.4849 -11.0638 6.04717
-19.4999 -11.1078 6.04628
-19.5143 -11.1521 6.04565
-19.5282 -11.1967 6.04523
-19.5421 -11.2414 6.04488
-19.5627 -11.2843 6.04277
-19.5706 -11.3318 6.04417
-19.5874 -11.3762 6.04321
-19.6041 -11.4206 6.04233
-19.6222 -11.4646 6.04116
-19.6396 -11.509 6.04018
-19.6547 -11.5544 6.04005
-19.6694 -11.5998 6.0403
-19.6862 -11.6446 6.03987
-19.7031 -11.6894 6.03955
-19.7203 -11.7342 6.03927
-19.738 -11.7788 6.03903
-19.754 -11.824 6.03951
-19.769 -11.8696 6.0404
-19.7841 -11.9152 6.04147
-19.8019 -11.9598 6.04209
-19.8204 -12.0042 6.04267
-19.8411 -12.0477 6.04273
-19.8611 -12.0914 6.04321
-19.8804 -12.1355 6.0443
-19.9 -12.1795 6.04552
-19.9198 -12.2233 6.04683
-19.9397 -12.267 6.04832
-19.9567 -12.312 6.05117
-19.9736 -12.3571 6.05427
-19.9904 -12.402 6.0573
-20.0072 -12.4468 6.06051
-20.027 -12.4906 6.06324
-20.044 -12.5353 6.06709
-20.0608 -12.5804 6.07122
-20.0758 -12.626 6.07619
-20.0902 -12.6718 6.08227
-20.0943 -12.7202 6.09075
-20.1175 -12.7634 6.09514
-20.1309 -12.8089 6.10204
-20.1445 -12.8543 6.10915
-20.1582 -12.8996 6.11658
-20.1728 -12.9446 6.12418
-20.1883 -12.9894 6.13191
-20.2051 -13.0336 6.13964
-20.2222 -13.0777 6.14762
-20.2384 -13.122 6.15614
-20.2553 -13.166 6.16485
-20.2731 -13.2096 6.17361
-20.2928 -13.2524 6.18223
-20.3131 -13.2948 6.19099
-20.3335 -13.3371 6.20003
-20.3524 -13.3799 6.20976
-20.3713 -13.4227 6.2198
-20.3908 -13.4652 6.22996
-20.4103 -13.5076 6.24041
-20.4283 -13.5504 6.25157
-20.4467 -13.5929 6.26296
-20.4662 -13.635 6.27437
-20.4873 -13.6763 6.28571
-20.5101 -13.7167 6.29698
-20.5334 -13.7567 6.30835
-20.5544 -13.7976 6.32056
-20.5767 -13.8378 6.33262
-20.5996 -13.8776 6.34493
-20.6209 -13.918 6.35807
-20.6419 -13.9584 6.37181
-20.6637 -13.9983 6.38573
-20.6874 -14.0378 6.3997
-20.7327 -14.0663 6.40737
-20.7355 -14.115 6.42874
-20.7591 -14.1531 6.44459
-20.7836 -14.1903 6.45944
-20.8082 -14.2272 6.47465
-20.8306 -14.2651 6.49103
-20.8547 -14.302 6.50725
-20.8791 -14.3386 6.52365
-20.9037 -14.375 6.5403
-20.9272 -14.4118 6.55769
-20.951 -14.4482 6.57524
-20.9749 -14.4845 6.59311
-20.9987 -14.5207 6.61133
-21.0232 -14.5562 6.62953
-21.0483 -14.5914 6.64783
-21.0719 -14.6271 6.66704
-21.0937 -14.6635 6.68723
-21.1154 -14.6996 6.70764
-21.1392 -14.7347 6.72758
-21.162 -14.7701 6.74813
-21.1847 -14.8053 6.76902
-21.2074 -14.8404 6.79016
-21.2301 -14.8753 6.81157
-21.2526 -14.9101 6.83338
-21.2749 -14.9449 6.85552
-21.2965 -14.9797 6.87819
-21.3153 -15.0153 6.90231
-21.3345 -15.0508 6.92655
-21.3565 -15.085 6.94989
-21.3783 -15.1191 6.9736
-21.3987 -15.1536 6.99802
-21.4197 -15.1879 7.02257
-21.4446 -15.2208 7.04559
-21.4633 -15.2558 7.07133
-21.483 -15.2905 7.09685
-21.5023 -15.3253 7.12273
-21.5231 -15.3595 7.14822
-21.5443 -15.3933 7.17381
-21.5654 -15.427 7.19965
-21.5866 -15.4604 7.22571
-21.6077 -15.4937 7.25202
-21.6298 -15.5266 7.27827
-21.652 -15.5592 7.30468
-21.6743 -15.5915 7.33134
-21.6987 -15.6228 7.35736
-21.7242 -15.6532 7.3831
-21.7494 -15.6835 7.40921
-21.7728 -15.7141 7.43627
-21.7975 -15.7437 7.46304
-21.822 -15.7726 7.4901
-21.8468 -15.8008 7.51725
-21.8717 -15.8286 7.54458
-21.8973 -15.8558 7.57193
-21.9239 -15.8821 7.59935
-21.9497 -15.9087 7.62735
-21.973 -15.9364 7.65626
-21.9962 -15.964 7.6853
-22.0194 -15.9916 7.71431
-22.0435 -16.0186 7.7432
-22.068 -16.0452 7.77224
-22.0919 -16.072 7.80174
-22.1162 -16.0984 7.83156
-22.1406 -16.1249 7.86148
-22.1641 -16.1529 7.88897
-22.2175 -16.1613 7.91482
-22.2085 -16.2133 7.94622
-22.2307 -16.2449 7.977
-22.2545 -16.2762 8.00885
-22.2797 -16.3065 8.04105
-22.3038 -16.3358 8.07343
-22.3254 -16.3662 8.1058
-22.3499 -16.3942 8.13847
-22.3771 -16.4186 8.17128
-22.4028 -16.443 8.20409
-22.4283 -16.4668 8.23695
-22.4535 -16.4903 8.26985
-22.4785 -16.5135 8.30279
-22.5053 -16.5347 8.336
-22.534 -16.5527 8.36929
-22.5631 -16.5697 8.40272
-22.5932 -16.5846 8.43631
-22.6237 -16.598 8.4702
-22.6541 -16.6111 8.50432
-22.6848 -16.6233 8.53854
-22.7154 -16.6354 8.57284
-22.7466 -16.6464 8.60696
-22.7788 -16.6551 8.64079
-22.8126 -16.6603 8.67399
-22.8467 -16.6656 8.70784
-22.881 -16.6725 8.74321
-22.9155 -16.6793 8.77906
-22.9521 -16.6818 8.81343
-22.9886 -16.6825 8.84756
-23.0234 -16.6826 8.88213
-23.0563 -16.6839 8.91806
-23.0887 -16.6849 8.95383
-23.164 -16.6112 8.95467
-23.1548 -16.6772 9.0372
-23.1872 -16.6685 9.07732
-23.2217 -16.6653 9.10939
-23.256 -16.6621 9.14088
-23.29 -16.6587 9.17166
-23.3248 -16.6538 9.20134
-23.3593 -16.6494 9.23261
-23.3922 -16.6471 9.266
-23.4255 -16.6456 9.29905
-23.4635 -16.6401 9.32716
-23.5007 -16.6354 9.35577
-23.5377 -16.6307 9.38486
-23.5756 -16.6251 9.4133
-23.6111 -16.6205 9.44486
-23.6456 -16.616 9.47755
-23.6805 -16.611 9.50961
-23.7169 -16.605 9.53975
-23.7539 -16.5985 9.56909
-23.7906 -16.5919 9.59879
-23.8269 -16.5851 9.62899
-23.8634 -16.5781 9.65939
-23.8996 -16.5711 9.69006
-23.9366 -16.5635 9.7195
-23.9729 -16.556 9.74884
-24.0094 -16.5478 9.77533
-24.0466 -16.5392 9.80026
-24.0843 -16.5308 9.82539
-24.1208 -16.5222 9.85383
-24.1504 -16.5131 9.89538
-24.1897 -16.5019 9.92509
-24.2281 -16.4904 9.95535
-24.3016 -16.4752 9.93888
-24.3006 -16.4818 10.0127
-24.3362 -16.4737 10.049
-24.3715 -16.4661 10.0848
-24.4108 -16.4573 10.1146
-24.4497 -16.4494 10.1401
-24.4885 -16.4416 10.1643
-24.5276 -16.4336 10.1887
-24.5664 -16.4254 10.2133
-24.6038 -16.4172 10.2396
-24.6411 -16.4087 10.2659
-24.678 -16.4001 10.2928
-24.7158 -16.3909 10.3181
-24.7545 -16.3804 10.342
-24.7916 -16.3708 10.3686
-24.8282 -16.3613 10.3959
-24.8641 -16.3522 10.4243
-24.8996 -16.3429 10.4528
-24.9365 -16.3329 10.4797
-24.9731 -16.3226 10.5065
-25.0096 -16.3123 10.5332
-25.0469 -16.3013 10.5572
-25.0845 -16.2899 10.5804
-25.1221 -16.2783 10.6044
-25.1593 -16.2666 10.6306
-25.1982 -16.2532 10.6569
-25.2414 -16.2359 10.6762
-25.2846 -16.2188 10.6945
-25.3289 -16.2007 10.7145
-25.3779 -16.1778 10.7303
-25.4286 -16.1536 10.7448
-25.4794 -16.1294 10.7593
-25.5602 -16.0842 10.6307
-25.5894 -16.0989 10.7822
-25.6355 -16.0814 10.7927
-25.6808 -16.065 10.8008
-25.7262 -16.0479 10.8077
-25.7695 -16.0316 10.8167
-25.8124 -16.0161 10.8268
-25.8557 -16.0025 10.8373
-25.8991 -15.9892 10.8493
-25.9445 -15.9716 10.8555
-25.9904 -15.9519 10.8546
-26.0366 -15.9317 10.8538
-26.083 -15.9109 10.853
-26.13 -15.8899 10.8502
-26.1756 -15.8672 10.843
-26.2211 -15.8445 10.8358
-26.2657 -15.8217 10.8294
-26.3088 -15.7994 10.8253
-26.3506 -15.7768 10.8211
-26.3918 -15.7539 10.8166
-26.4328 -15.7313 10.814
-26.4735 -15.7086 10.8114
-26.5138 -15.6855 10.8077
-26.5535 -15.6618 10.8025
-26.5931 -15.6376 10.7964
-26.633 -15.6126 10.7902
-26.6731 -15.5873 10.7842
-26.7131 -15.5621 10.7784
-26.7527 -15.5366 10.7716
-26.7917 -15.5108 10.7639
-26.8303 -15.4849 10.7562
-26.8686 -15.4592 10.7486
-26.8935 -15.4285 10.688
-26.9469 -15.4056 10.7344
-26.9864 -15.3781 10.7222
-27.0207 -15.3543 10.7088
-27.0545 -15.3304 10.6955
-27.0895 -15.3054 10.6858
-27.1242 -15.28 10.6762
-27.1564 -15.2541 10.6604
-27.1883 -15.228 10.6446
-27.2216 -15.202 10.6325
-27.256 -15.1761 10.6241
-27.2903 -15.15 10.6156
-27.3244 -15.1237 10.6072
-27.3582 -15.0974 10.5982
-27.392 -15.0708 10.5894
-27.426 -15.0442 10.581
-27.4604 -15.0171 10.5743
-27.4949 -14.9896 10.5672
-27.5287 -14.9618 10.5567
-27.5623 -14.9337 10.5458
-27.5963 -14.9054 10.5361
-27.6305 -14.8767 10.5264
-27.6626 -14.8478 10.5097
-27.6932 -14.8193 10.4909
-27.7251 -14.7903 10.4746
-27.7563 -14.7611 10.457
-27.7861 -14.7325 10.437
-27.818 -14.7031 10.4213
-27.8509 -14.6734 10.4082
-27.8833 -14.6434 10.394
-27.9153 -14.6132 10.379
-27.9476 -14.5824 10.3676
-27.9765 -14.553 10.3412
-28.0131 -14.5219 10.3405
-28.047 -14.4902 10.3303
-28.0789 -14.4584 10.3143
-28.1118 -14.4263 10.2999
-28.1449 -14.3943 10.287
-28.1779 -14.3623 10.2737
-28.2109 -14.3301 10.2604
-28.2441 -14.2974 10.2481
-28.2751 -14.265 10.2298
-28.306 -14.2324 10.2113
-28.3392 -14.1992 10.1974
-28.3742 -14.1657 10.1887
-28.4073 -14.1317 10.1788
-28.4403 -14.0975 10.1701
-28.4737 -14.0631 10.1638
-28.507 -14.0285 10.1569
-28.5402 -13.9939 10.1488
-28.573 -13.9592 10.1396
-28.6059 -13.9243 10.1316
-28.6391 -13.8892 10.1251
-28.6707 -13.8539 10.1134
-28.7017 -13.8184 10.1006
-28.7331 -13.7825 10.0904
-28.7637 -13.7468 10.0777
-28.7958 -13.7105 10.0674
-28.8271 -13.6744 10.056
-28.8537 -13.6393 10.0364
-28.8807 -13.6038 10.0189
-28.9091 -13.5676 10.0062
-28.938 -13.531 9.99485
-28.9671 -13.4944 9.9843
-28.9922 -13.4584 9.95935
-29.0248 -13.4198 9.96297
-29.0515 -13.3827 9.9505
-29.0781 -13.3455 9.93869
-29.1042 -13.3081 9.92672
-29.1303 -13.2704 9.91539
-29.1561 -13.2326 9.90414
-29.1806 -13.195 9.88949
-29.2042 -13.1575 9.87339
-29.2276 -13.1201 9.85742
-29.2506 -13.0826 9.84137
-29.2743 -13.0446 9.82736
-29.2979 -13.0064 9.81385
-29.3216 -12.9679 9.80246
-29.3453 -12.9291 9.79216
-29.3688 -12.8901 9.78142
-29.3924 -12.8508 9.77223
-29.4154 -12.8115 9.76069
-29.4379 -12.7722 9.74769
-29.4601 -12.7328 9.73471
-29.4827 -12.693 9.72314
-29.5051 -12.6531 9.71222
-29.5273 -12.6132 9.70134
-29.5485 -12.5734 9.68758
-29.5686 -12.534 9.6714
-29.5886 -12.4944 9.65645
-29.6082 -12.4548 9.64091
-29.6271 -12.4155 9.62301
-29.647 -12.3753 9.60962
-29.666 -12.3356 9.59494
-29.6851 -12.2956 9.58088
-29.7047 -12.2553 9.5686
-29.7188 -12.2185 9.53491
-29.745 -12.1732 9.54056
-29.7635 -12.1335 9.52428
-29.7824 -12.0934 9.50918
-29.801 -12.0533 9.49441
-29.8184 -12.0137 9.47729
-29.8356 -11.974 9.46023
-29.853 -11.9341 9.44405
-29.8703 -11.8939 9.42826
-29.8876 -11.8537 9.41253
-29.9051 -11.8131 9.39783
-29.9228 -11.7721 9.38479
-29.94 -11.7313 9.37021
-29.9571 -11.6901 9.35686
-29.9743 -11.6487 9.34451
-29.9907 -11.6075 9.33059
-30.0067 -11.5662 9.31622
-30.0224 -11.5248 9.30192
-30.0377 -11.4833 9.28734
-30.0525 -11.4419 9.27247
-30.0674 -11.4001 9.25858
-30.0822 -11.3578 9.24622
-30.0969 -11.3154 9.23457
-30.1112 -11.2731 9.22183
-30.1251 -11.2309 9.20865
-30.1386 -11.1889 9.19373
-30.1514 -11.1475 9.17663
-30.1638 -11.106 9.15929
-30.1758 -11.0648 9.14083
-30.1877 -11.0231 9.12373
-30.1994 -10.9811 9.1072
-30.2109 -10.939 9.09069
-30.2206 -10.8995 9.0661
-30.2315 -10.8564 9.05139
-30.242 -10.8144 9.03401
-30.2521 -10.7724 9.01625
-30.262 -10.7303 8.99835
-30.2713 -10.689 8.97852
-30.2809 -10.6456 8.96339
-30.2903 -10.602 8.94967
-30.2994 -10.5583 8.93595
-30.3078 -10.5151 8.91997
-30.3164 -10.4713 8.90631
-30.3246 -10.4273 8.89269
-30.3325 -10.3833 8.87924
-30.3404 -10.3389 8.86689
-30.3479 -10.2945 8.85453
-30.3551 -10.2502 8.84219
-30.3625 -10.2049 8.83276
-30.37 -10.1591 8.82528
-30.3764 -10.1146 8.81047
-30.3814 -10.072 8.79246
-30.3865 -10.029 8.77577
-30.3917 -9.98496 8.76165
-30.3967 -9.94081 8.74755
-30.4015 -9.89653 8.73393
-30.4059 -9.85225 8.72035
-30.41 -9.8082 8.70614
-30.4137 -9.76413 8.69198
-30.4171 -9.72003 8.67787
-30.4201 -9.67612 8.663
-30.4228 -9.63136 8.6507
-30.4255 -9.5863 8.63895
-30.4272 -9.54205 8.62497
-30.4326 -9.49327 8.62557
-30.4305 -9.45563 8.59333
-30.4313 -9.41141 8.57788
-30.4319 -9.36749 8.56262
-30.432 -9.3236 8.54751
-30.4319 -9.27939 8.53386
-30.4314 -9.23523 8.52028
-30.4307 -9.19104 8.50674
-30.4297 -9.14685 8.49324
-30.4285 -9.10266 8.4798
-30.4271 -9.05824 8.46716
-30.4255 -9.01368 8.45498
-30.4237 -8.96911 8.44282
-30.4216 -8.92439 8.43109
-30.4192 -8.87992 8.41834
-30.4165 -8.83546 8.40552
-30.4135 -8.79089 8.39288
-30.4102 -8.74621 8.3801
-30.4067 -8.70125 8.36815
-30.4033 -8.65578 8.35836
-30.3994 -8.61058 8.3475
-30.3954 -8.56533 8.33667
-30.3913 -8.51994 8.32634
-30.3874 -8.47403 8.31829
-30.3832 -8.42804 8.30992
-30.3786 -8.38193 8.3007
-30.3737 -8.33572 8.2915
-30.369 -8.28927 8.28377
-30.3645 -8.24253 8.27737
-30.3598 -8.19565 8.27104
-30.3551 -8.14872 8.26497
-30.3503 -8.10179 8.25892
-30.354 -8.04916 8.29175
-30.3395 -8.00852 8.24816
-30.3337 -7.96268 8.24236
-30.3285 -7.91632 8.23573
-30.323 -7.87011 8.22865
-30.3178 -7.82363 8.22271
-30.3127 -7.77699 8.21758
-30.3071 -7.73044 8.21153
-30.3013 -7.68392 8.2053
-30.2959 -7.63742 8.19956
-30.2896 -7.59122 8.19191
-30.2831 -7.54511 8.18417
-30.2767 -7.49884 8.17717
-30.2694 -7.45284 8.16895
-30.2615 -7.40704 8.16005
-30.2535 -7.36123 8.15124
-30.2456 -7.3152 8.14331
-30.2384 -7.26884 8.13679
-30.2303 -7.22272 8.12951
-30.2215 -7.17691 8.12144
-30.2119 -7.13133 8.11281
-30.2038 -7.08503 8.10682
-30.1959 -7.03852 8.10179
-30.187 -6.99229 8.09583
-30.1776 -6.94616 8.08982
-30.1684 -6.89997 8.08443
-30.1592 -6.85378 8.07951
-30.1498 -6.80758 8.07498
-30.1406 -6.76131 8.07133
-30.1301 -6.71543 8.06691
-30.1188 -6.6698 8.06233
-30.1072 -6.62426 8.05811
-30.1005 -6.57698 8.05983
-30.0853 -6.53246 8.05406
-30.0737 -6.48698 8.05262
-30.0609 -6.44178 8.05058
-30.0479 -6.3966 8.04897
-30.0347 -6.35147 8.04766
-30.0213 -6.3064 8.0466
-30.0078 -6.26134 8.04586
-29.9938 -6.21641 8.04503
-29.9796 -6.17149 8.04436
-29.9647 -6.12676 8.04333
-29.9496 -6.08213 8.04233
-29.9343 -6.0375 8.04147
-29.9189 -5.99288 8.04083
-29.9033 -5.94833 8.04018
-29.887 -5.90398 8.03918
-29.8707 -5.85964 8.03827
-29.854 -5.81541 8.03707
-29.8384 -5.7708 8.03703
-29.8218 -5.72656 8.03612
-29.8051 -5.6823 8.03526
-29.7883 -5.63802 8.03449
-29.7716 -5.59372 8.03373
-29.7549 -5.54934 8.03317
-29.7384 -5.50488 8.03274
-29.7218 -5.46043 8.03232
-29.7051 -5.41594 8.0319
-29.6889 -5.37128 8.03177
-29.6721 -5.32677 8.03118
-29.655 -5.28235 8.03029
-29.638 -5.23785 8.02932
-29.6205 -5.19344 8.02786
-29.601 -5.14981 8.02452
-29.5853 -5.10433 8.02408
-29.5672 -5.0599 8.0214
-29.5491 -5.01545 8.01849
-29.5313 -4.97078 8.01576
-29.5132 -4.92627 8.01261
-29.4951 -4.88172 8.00937
-29.4772 -4.83713 8.00604
-29.4601 -4.79212 8.0033
-29.4431 -4.74708 8.00042
-29.4262 -4.70202 7.99744
-29.4105 -4.65642 7.99539
-29.396 -4.61039 7.99423
-29.3817 -4.56441 7.99295
-29.3677 -4.51833 7.99189
-29.3541 -4.47213 7.99105
-29.3405 -4.42595 7.9902
-29.3269 -4.37978 7.98945
-29.3132 -4.33367 7.98863
-29.2997 -4.28756 7.98784
-29.286 -4.24159 7.98669
-29.2725 -4.19572 7.98539
-29.2592 -4.14992 7.98392
-29.2456 -4.10429 7.98195
-29.2316 -4.05897 7.97901
-29.2171 -4.01391 7.97512
-29.2024 -3.96908 7.97049
-29.1865 -3.92493 7.96456
-29.1722 -3.88008 7.95936
-29.1582 -3.83445 7.95343
-29.1427 -3.78985 7.94577
-29.1259 -3.74613 7.93642
-29.0869 -3.71483 7.90914
-29.0936 -3.65855 7.916
-29.0772 -3.61551 7.90448
-29.0602 -3.57419 7.89238
-29.0431 -3.53333 7.87966
-29.026 -3.49275 7.86641
-29.0089 -3.45238 7.85279
-28.9922 -3.41195 7.83914
-28.9753 -3.37184 7.82496
-28.9586 -3.33166 7.81062
-28.9418 -3.29164 7.79594
-28.9252 -3.2517 7.78111
-28.9094 -3.21147 7.7666
-28.8953 -3.17031 7.75326
-28.8816 -3.12905 7.73999
-28.8674 -3.08814 7.72623
-28.8539 -3.04687 7.71288
-28.8411 -3.00514 7.70008
-28.8281 -2.9636 7.68695
-28.8157 -2.92171 7.67435
-28.8034 -2.87988 7.66171
-28.7911 -2.83813 7.64907
-28.7788 -2.79645 7.63644
-28.7672 -2.7545 7.62434
-28.7559 -2.71248 7.6125
-28.7447 -2.67055 7.60065
-28.7335 -2.62873 7.58886
-28.7223 -2.58703 7.57717
-28.711 -2.54549 7.5656
-28.7 -2.504 7.55434
-28.6892 -2.46255 7.54352
-28.6783 -2.42132 7.53295
-28.6591 -2.38416 7.51623
-28.656 -2.33962 7.51304
-28.6443 -2.29934 7.50347
-28.6319 -2.25978 7.49357
-28.6194 -2.22039 7.48389
-28.6069 -2.18111 7.47436
-28.5953 -2.14137 7.46582
-28.5828 -2.10215 7.45674
-28.5702 -2.06296 7.44776
-28.5576 -2.02372 7.43886
-28.5449 -1.98447 7.43004
-28.5323 -1.94516 7.4214
-28.5197 -1.90579 7.41292
-28.5071 -1.86642 7.40449
-28.4945 -1.82703 7.39611
-28.4812 -1.7879 7.38737
-28.4678 -1.7488 7.37858
-28.4544 -1.70973 7.36982
-28.4409 -1.6706 7.36106
-28.4274 -1.63141 7.35228
-28.4141 -1.59192 7.34376
-28.3997 -1.55283 7.3344
-28.3853 -1.51347 7.32518
-28.372 -1.47345 7.31664
-28.3586 -1.43327 7.30811
-28.345 -1.39301 7.29954
-28.3315 -1.35248 7.29102
-28.3179 -1.31162 7.28249
-28.3042 -1.27044 7.27386
-28.2909 -1.22876 7.26539
-28.2773 -1.18667 7.25671
-28.2632 -1.14437 7.24764
-28.263 -1.09455 7.2477
-28.2341 -1.05728 7.22816
-28.2194 -1.0123 7.2181
-28.205 -0.966785 7.20842
-28.1905 -0.92084 7.19862
-28.1757 -0.874641 7.18866
-28.1619 -0.827701 7.1793
-28.148 -0.780454 7.16991
-28.134 -0.733042 7.16045
-28.1191 -0.685925 7.15043
-28.1042 -0.638705 7.14038
-28.0893 -0.591344 7.13033
-28.0767 -0.54269 7.122
-28.0645 -0.493643 7.11393
-28.0518 -0.444735 7.10556
-28.0356 -0.397429 7.09491
-28.0192 -0.350125 7.08425
-28.0027 -0.302801 7.07359
-27.9875 -0.254797 7.06396
-27.9714 -0.207198 7.05382
-27.9551 -0.159702 7.04365
-27.939 -0.112186 7.03365
-27.9223 -0.0649285 7.02347
-27.906 -0.0175614 7.01359
-27.8895 0.0297088 7.00373
-27.8728 0.0768851 6.99379
-27.8561 0.123996 6.984
-27.8402 0.171255 6.97479
-27.8239 0.218216 6.96557
-27.8071 0.264771 6.95617
-27.7897 0.310801 6.94663
-27.7736 0.356656 6.93759
-27.7459 0.397082 6.92268
-27.7426 0.44806 6.9213
-27.726 0.492305 6.91321
-27.7097 0.536378 6.90555
-27.6943 0.580524 6.89853
-27.6784 0.624392 6.89159
-27.6619 0.667794 6.88456
-27.645 0.71081 6.87748
-27.6273 0.753241 6.8701
-27.6095 0.795418 6.86266
-27.5922 0.837704 6.85558
-27.5749 0.879848 6.84863
-27.5574 0.921793 6.84172
-27.5399 0.963638 6.83495
-27.5224 1.0054 6.82832
-27.5042 1.0468 6.82151
-27.4853 1.08778 6.81447
-27.4664 1.12875 6.80757
-27.4474 1.16969 6.80079
-27.4295 1.21126 6.79479
-27.4102 1.25202 6.78807
-27.3909 1.29276 6.78145
-27.3714 1.33341 6.77485
-27.3531 1.37474 6.76906
-27.3349 1.41622 6.76355
-27.3165 1.45758 6.75809
-27.2953 1.49748 6.75114
-27.2741 1.53721 6.74401
-27.2527 1.57701 6.73696
-27.2358 1.6202 6.73385
-27.2131 1.65944 6.72591
-27.1899 1.69826 6.71757
-27.163 1.73408 6.70566
-27.1422 1.77503 6.6986
-27.1208 1.8156 6.69065
-27.1031 1.85831 6.6858
-27.0824 1.89938 6.67851
-27.0565 1.93622 6.66635
-27.0327 1.97595 6.65706
-27.0119 2.01696 6.65054
-26.9911 2.05801 6.64407
-26.9702 2.09914 6.63758
-26.9478 2.13934 6.62965
-26.9259 2.17995 6.62232
-26.9042 2.22061 6.61511
-26.883 2.26177 6.60889
-26.862 2.3031 6.60301
-26.8411 2.34448 6.59725
-26.8203 2.38605 6.59185
-26.7996 2.42775 6.58661
-26.7776 2.46847 6.57965
-26.7561 2.50966 6.57362
-26.7346 2.55081 6.56763
-26.7133 2.59208 6.56209
-26.693 2.63401 6.55807
-26.6728 2.67607 6.55442
-26.6525 2.71822 6.5508
-26.6322 2.76061 6.54729
-26.613 2.80383 6.54562
-26.5942 2.84727 6.54462
-26.5753 2.89068 6.54371
-26.5563 2.93389 6.54273
-26.5368 2.97689 6.54145
-26.5173 3.0198 6.54028
-26.5217 3.0746 6.57196
-26.4789 3.10697 6.53793
-26.4595 3.14974 6.53795
-26.44 3.19244 6.53807
-26.4204 3.23503 6.5383
-26.4009 3.27763 6.53879
-26.3814 3.32026 6.53963
-26.3618 3.36284 6.54055
-26.3422 3.40539 6.54153
-26.3225 3.44792 6.54257
-26.3026 3.49039 6.54359
-26.2823 3.53261 6.54404
-26.2618 3.57478 6.54456
-26.2413 3.6169 6.54516
-26.2207 3.65897 6.54583
-26.1999 3.70095 6.54638
-26.1791 3.74296 6.54726
-26.1587 3.78509 6.54873
-26.1382 3.82719 6.55026
-26.1176 3.86925 6.55186
-26.0966 3.91111 6.55298
-26.0751 3.95278 6.55373
-26.0536 3.99442 6.55455
-26.032 4.03603 6.55543
-26.0107 4.07775 6.55683
-25.9904 4.11993 6.5599
-25.9694 4.16181 6.56207
-25.9483 4.20358 6.56427
-25.9271 4.24543 6.5665
-25.9057 4.28764 6.56857
-25.8834 4.32932 6.56946
-25.8604 4.3707 6.56957
-25.8248 4.40497 6.55305
-25.8146 4.45263 6.56998
-25.7923 4.49355 6.57112
-25.77 4.53473 6.57267
-25.7476 4.57587 6.57434
-25.7252 4.617 6.57604
-25.7027 4.65807 6.57781
-25.6802 4.6991 6.57972
-25.6566 4.73942 6.58039
-25.6328 4.77959 6.58122
-25.6082 4.81928 6.58128
-25.5828 4.8585 6.58073
-25.5585 4.89831 6.58118
-25.5341 4.93811 6.58167
-25.5097 4.97787 6.58212
-25.4856 5.01788 6.58302
-25.4621 5.05827 6.58461
-25.4383 5.0985 6.586
-25.4142 5.13854 6.58717
-25.3894 5.17813 6.58769
-25.3641 5.21745 6.58793
-25.338 5.25621 6.58757
-25.3117 5.29487 6.58713
-25.2854 5.33355 6.58671
-25.2593 5.37247 6.5865
-25.2332 5.4116 6.58634
-25.207 5.45068 6.58609
-25.1797 5.48904 6.58506
-25.1529 5.5277 6.58444
-25.1263 5.5661 6.58378
-25.0998 5.6046 6.58322
-25.0732 5.64368 6.58356
-25.022 5.66552 6.56309
-25.0194 5.72137 6.58279
-24.9918 5.75941 6.58129
-24.9652 5.79731 6.58069
-24.9391 5.83535 6.58039
-24.9117 5.8729 6.57946
-24.8839 5.91032 6.57838
-24.8561 5.94775 6.5773
-24.8287 5.98548 6.57656
-24.8008 6.02274 6.57538
-24.7715 6.05886 6.57295
-24.7427 6.09542 6.57101
-24.7139 6.13199 6.56907
-24.685 6.1685 6.56709
-24.6571 6.20595 6.56596
-24.6286 6.24279 6.56431
-24.5992 6.27895 6.56208
-24.5697 6.31497 6.55993
-24.5412 6.35172 6.55855
-24.5124 6.38826 6.55704
-24.4844 6.42542 6.55613
-24.4564 6.46259 6.55523
-24.4279 6.49935 6.55397
-24.3989 6.53575 6.55244
-24.3712 6.573 6.5517
-24.3432 6.61004 6.55078
-24.3153 6.64712 6.5499
-24.2873 6.68411 6.54895
-24.2592 6.72112 6.54803
-24.2309 6.75819 6.54721
-24.203 6.79558 6.54666
-24.1757 6.83348 6.54654
-24.1689 6.88637 6.55968
-24.1199 6.90886 6.54618
-24.0924 6.94699 6.54597
-24.0649 6.9851 6.54577
-24.0378 7.0234 6.54575
-24.0116 7.06205 6.54618
-23.9854 7.10056 6.54657
-23.961 7.14024 6.54801
-23.9367 7.17991 6.54954
-23.9139 7.22032 6.55201
-23.8906 7.2603 6.55406
-23.8672 7.30027 6.5561
-23.8436 7.34003 6.55791
-23.8188 7.37903 6.55883
-23.7931 7.41751 6.55921
-23.768 7.45635 6.56
-23.7432 7.49548 6.56123
-23.7182 7.53459 6.56279
-23.6928 7.57351 6.56427
-23.67 7.6142 6.56771
-23.643 7.6519 6.56764
-23.6146 7.68898 6.56659
-23.5832 7.72338 6.56311
-23.5535 7.75948 6.56099
-23.5233 7.79503 6.55861
-23.4945 7.83145 6.55771
-23.4649 7.86708 6.55632
-23.4335 7.90136 6.55334
-23.4003 7.93359 6.54905
-23.3699 7.969 6.54743
-23.3393 8.00427 6.54561
-23.3099 8.04015 6.54334
-23.3043 8.09775 6.55775
-23.2484 8.11304 6.53851
-23.2183 8.15017 6.53709
-23.1884 8.18745 6.53569
-23.1592 8.22519 6.53473
-23.1315 8.26345 6.53437
-23.1038 8.30159 6.534
-23.076 8.33972 6.53364
-23.049 8.37825 6.53373
-23.0231 8.41735 6.53458
-22.9966 8.45596 6.53506
-22.9703 8.49464 6.53567
-22.9444 8.53361 6.53659
-22.9184 8.57254 6.53745
-22.8926 8.61162 6.53847
-22.8675 8.65116 6.54001
-22.8423 8.69061 6.54152
-22.8171 8.73011 6.54313
-22.792 8.76963 6.54484
-22.7669 8.80919 6.54664
-22.7417 8.8487 6.54844
-22.7163 8.88816 6.55021
-22.6916 8.92796 6.55242
-22.6669 8.96773 6.55467
-22.6426 9.00766 6.55724
-22.6176 9.04694 6.55933
-22.5914 9.08543 6.56074
-22.5653 9.12395 6.56227
-22.5393 9.1625 6.56397
-22.5132 9.20092 6.56585
-22.487 9.23929 6.5678
-22.4606 9.2777 6.56983
-22.4706 9.34046 6.59413
-22.408 9.35854 6.57568
-22.3824 9.39856 6.57878
-22.3567 9.43861 6.58196
-22.3317 9.479 6.58561
-22.3073 9.51934 6.58953
-22.2827 9.5595 6.59342
-22.2594 9.60038 6.5981
-22.2369 9.64148 6.60314
-22.2142 9.68234 6.60806
-22.1928 9.72371 6.61364
-22.1714 9.76506 6.61929
-22.1501 9.8064 6.62501
-22.1286 9.84777 6.63077
-22.108 9.88951 6.63706
-22.0874 9.93122 6.64334
-22.0661 9.97258 6.64929
-22.0444 10.0136 6.65492
-22.0222 10.0544 6.66036
-22.0004 10.0954 6.66602
-21.9786 10.1363 6.67168
-21.9567 10.1772 6.67741
-21.9352 10.2183 6.6834
-21.9152 10.26 6.69016
-21.8951 10.3017 6.69697
-21.8734 10.343 6.70325
-21.8496 10.3833 6.70846
-21.826 10.4237 6.71385
-21.8029 10.4643 6.71963
-21.779 10.5045 6.72491
-21.755 10.5446 6.7302
-21.7339 10.5849 6.73576
-21.6928 10.6171 6.73231
-21.6894 10.668 6.75067
-21.665 10.7069 6.75477
-21.6399 10.7453 6.75834
-21.6152 10.7841 6.76234
-21.5914 10.8232 6.76706
-21.5673 10.8622 6.77174
-21.5422 10.9007 6.77583
-21.5221 10.9423 6.78332
-21.5015 10.9835 6.79101
-21.4749 11.0219 6.79494
-21.4477 11.0596 6.79849
-21.4196 11.0968 6.80155
-21.3918 11.1343 6.80502
-21.3659 11.173 6.80967
-21.34 11.2117 6.81429
-21.3141 11.2503 6.81883
-21.2883 11.2888 6.82325
-21.2626 11.3272 6.82759
-21.2369 11.3655 6.83191
-21.2105 11.4034 6.83575
-21.1837 11.4412 6.83948
-21.1577 11.4794 6.84366
-21.1328 11.5184 6.84851
-21.1061 11.5562 6.8524
-21.0783 11.5933 6.85562
-21.0502 11.6302 6.85866
-21.022 11.6673 6.86165
-20.9956 11.7057 6.86583
-20.9696 11.7443 6.87067
-20.943 11.7826 6.87527
-20.9171 11.8211 6.88025
-20.8767 11.8518 6.87566
-20.8654 11.901 6.89036
-20.8356 11.9398 6.89281
-20.8055 11.9765 6.89474
-20.7754 12.0131 6.89664
-20.7485 12.0524 6.90072
-20.7203 12.0908 6.90412
-20.6916 12.1289 6.90719
-20.6629 12.167 6.9102
-20.6338 12.205 6.91317
-20.6048 12.243 6.91616
-20.5758 12.2812 6.91921
-20.5468 12.3193 6.92219
-20.5185 12.3579 6.92543
-20.4906 12.3968 6.92887
-20.4618 12.4352 6.93193
-20.43 12.4713 6.93343
-20.3982 12.5074 6.93508
-20.3697 12.5459 6.93827
-20.3412 12.5843 6.94134
-20.3115 12.6219 6.94387
-20.2818 12.6593 6.94626
-20.2521 12.6968 6.94858
-20.2227 12.7343 6.95089
-20.1935 12.772 6.95321
-20.1646 12.8098 6.95557
-20.1357 12.8475 6.95777
-20.1067 12.8851 6.95979
-20.0779 12.9226 6.96166
-20.0491 12.9602 6.96334
-20.0207 12.9978 6.96492
-19.9923 13.0353 6.96619
-19.9964 13.0967 6.98154
-19.9363 13.1099 6.96755
-19.9088 13.1469 6.96764
-19.8813 13.1839 6.96756
-19.8534 13.2205 6.96714
-19.8257 13.2572 6.96678
-19.7984 13.2942 6.96655
-19.7709 13.3309 6.966
-19.7434 13.3675 6.96539
-19.7167 13.4045 6.9651
-19.6903 13.4416 6.9649
-19.6639 13.4786 6.96465
-19.6377 13.5157 6.96438
-19.6138 13.5542 6.96512
-19.5888 13.5921 6.96535
-19.5639 13.6299 6.96546
-19.5398 13.6681 6.966
-19.5165 13.7066 6.96692
-19.4934 13.7452 6.96793
-19.4702 13.7837 6.96886
-19.4472 13.8223 6.96988
-19.4243 13.861 6.971
-19.4012 13.8996 6.97201
-19.3781 13.9383 6.97301
-19.3551 13.977 6.97398
-19.3321 14.0157 6.97484
-19.3095 14.0547 6.97596
-19.2864 14.0935 6.97692
-19.2632 14.1325 6.97788
-19.2398 14.1719 6.97863
-19.2174 14.212 6.98013
-19.1948 14.2522 6.98172
-19.2239 14.3208 7.01354
-19.1492 14.335 6.98565
-19.1262 14.3761 6.98865
-19.1043 14.4168 6.99224
-19.0823 14.4575 6.99598
-19.0603 14.4984 6.99977
-19.0383 14.5393 7.00373
-19.0163 14.5803 7.00781
-18.9943 14.6214 7.01192
-18.972 14.6623 7.01586
-18.9509 14.7039 7.02042
-18.9294 14.7452 7.0248
-18.9078 14.7867 7.02921
-18.8863 14.8282 7.03368
-18.8642 14.8695 7.03787
-18.8419 14.9108 7.04198
-18.8191 14.9519 7.04579
-18.7965 14.9932 7.04967
-18.7737 15.0343 7.05339
-18.7509 15.0756 7.05717
-18.7289 15.1172 7.06131
-18.7067 15.1588 7.06533
-18.6845 15.2004 7.06928
-18.6626 15.2422 7.07334
-18.6407 15.2839 7.07735
-18.6178 15.3252 7.08072
-18.5946 15.3663 7.08389
-18.5725 15.408 7.08759
-18.5512 15.45 7.09161
-18.5291 15.4917 7.0951
-18.5071 15.5334 7.0985
-18.4856 15.5752 7.10195
-18.4776 15.6234 7.11263
-18.4449 15.6602 7.10945
-18.4243 15.7017 7.11255
-18.4025 15.7432 7.11489
-18.381 15.7847 7.11715
-18.3612 15.8269 7.12011
-18.3412 15.8688 7.12273
-18.3208 15.9105 7.12502
-18.3014 15.9528 7.12778
-18.2821 15.9952 7.13064
-18.2627 16.0375 7.13335
-18.2414 16.0789 7.13484
-18.2189 16.1197 7.13551
-18.1967 16.1607 7.13628
-18.1758 16.2022 7.13766
-18.155 16.2437 7.13899
-18.1345 16.2853 7.14044
-18.1144 16.3272 7.14214
-18.0951 16.3694 7.14421
-18.0762 16.4117 7.14643
-18.0558 16.4535 7.14779
-18.035 16.4951 7.14885
-18.0137 16.5364 7.14945
-17.9932 16.5781 7.15056
-17.9729 16.62 7.15175
-17.9526 16.6618 7.1528
-17.9322 16.7037 7.15375
-17.9132 16.7462 7.15554
-17.8943 16.7889 7.15741
-17.8737 16.831 7.15833
-17.8518 16.8726 7.15858
-17.83 16.9144 7.1589
-17.8084 16.9565 7.15948
-17.7865 16.9989 7.16016
-17.7647 17.0415 7.16099
-17.7427 17.0842 7.16175
-17.7203 17.1268 7.16232
-17.6976 17.1695 7.16276
-17.6753 17.2123 7.16338
-17.6557 17.2565 7.16587
-17.6333 17.2991 7.16617
-17.6101 17.3413 7.16598
-17.5866 17.3834 7.16552
-17.5651 17.4263 7.16625
-17.5431 17.469 7.16661
-17.5204 17.5112 7.16634
-17.4977 17.5534 7.16605
-17.4751 17.5956 7.1657
-17.455 17.639 7.16692
-17.4337 17.6817 7.16735
-17.4117 17.724 7.16725
-17.3884 17.7652 7.166
-17.3671 17.8075 7.166
-17.346 17.8497 7.16586
-17.323 17.8907 7.16427
-17.2996 17.9311 7.16214
-17.2763 17.9714 7.15992
-17.2557 18.0131 7.1594
-17.2347 18.0542 7.15829
-17.2103 18.0928 7.15418
-17.1861 18.1314 7.14989
-17.1659 18.1725 7.14802
-17.1414 18.2103 7.14296
-17.1171 18.2476 7.13735
-17.0909 18.2825 7.12947
-17.0711 18.321 7.12472
-17.0504 18.3579 7.11847
-17.03 18.3947 7.11192
-17.01 18.4311 7.10504
-16.9901 18.4673 7.09791
-16.9699 18.503 7.09024
-16.9497 18.5383 7.08225
-16.9296 18.5734 7.07417
-16.91 18.6089 7.06624
-16.8878 18.6421 7.05673
-16.8657 18.6752 7.04711
-16.8437 18.7083 7.03739
-16.8198 18.7397 7.02626
-16.7988 18.7732 7.01687
-16.7776 18.8066 7.00723
-16.7549 18.8385 6.99681
-16.7311 18.8694 6.98565
-16.7072 18.9002 6.97434
-16.6832 18.9309 6.96303
-16.6586 18.9613 6.95143
-16.634 18.9918 6.93993
-16.6093 19.0224 6.92843
-16.5842 19.053 6.91694
-16.5579 19.0825 6.90487
-16.5308 19.111 6.89239
-16.503 19.1394 6.8798
-16.4749 19.1681 6.86735
-16.4467 19.1976 6.85521
-16.4181 19.2274 6.84313
-16.3885 19.2572 6.83113
-16.3546 19.2857 6.81805
-16.3019 19.2895 6.79617
-16.2838 19.3439 6.79357
-16.2469 19.3733 6.78228
-16.2093 19.4036 6.77076
-16.1706 19.4337 6.75912
-16.1306 19.4624 6.74782
-16.0894 19.4898 6.73639
-16.0472 19.5167 6.72472
-16.0041 19.5424 6.71275
-15.9611 19.5675 6.70071
-15.9191 19.5947 6.6892
-15.8766 19.6212 6.6775
-15.8335 19.6468 6.66552
-15.79 19.6725 6.65346
-15.7444 19.6942 6.64019
-15.6987 19.7155 6.62677
-15.6523 19.7353 6.61277
-15.6064 19.7559 6.59879
-15.5605 19.7761 6.58451
-15.5146 19.7963 6.57009
-15.4692 19.8174 6.55574
-15.4224 19.8339 6.53991
-15.3758 19.8508 6.52406
-15.3299 19.8695 6.50869
-15.2844 19.8889 6.49342
-15.2381 19.9058 6.47728
-15.1918 19.9218 6.46072
-15.146 19.9381 6.44407
-15.1007 19.9543 6.42723
-15.0557 19.9698 6.40999
-15.0112 19.9842 6.39212
-14.9676 19.9985 6.37399
-14.9259 20.0165 6.35679
-14.8847 20.0279 6.33676
-14.8459 20.0437 6.31809
-14.8079 20.0594 6.29915
-14.7705 20.0738 6.27953
-14.7331 20.086 6.25899
-14.6963 20.0981 6.23822
-14.6601 20.111 6.21753
-14.6243 20.1245 6.1969
-14.5888 20.1386 6.17631
-14.5536 20.1527 6.1556
-14.5187 20.1675 6.13501
-14.4841 20.1821 6.11419
-14.4496 20.1962 6.09307
-14.4153 20.2103 6.07185
-14.3815 20.2262 6.05126
-14.3477 20.2422 6.03067
-14.3138 20.2582 6.01015
-14.2799 20.2742 5.98958
-14.246 20.2898 5.96879
-14.2119 20.3041 5.94736
-14.1777 20.3179 5.92567
-14.1435 20.3319 5.90394
-14.1093 20.3459 5.88211
-14.0751 20.3596 5.86004
-14.041 20.3732 5.83782
-14.0069 20.3869 5.81549
-13.9727 20.4005 5.79298
-13.9383 20.414 5.77025
-13.9037 20.4275 5.74736
-13.869 20.442 5.72461
-13.834 20.4566 5.70169
-13.7992 20.4763 5.68038
-13.7621 20.4877 5.65541
-13.7255 20.5044 5.63221
-13.6887 20.5217 5.609
-13.6517 20.5394 5.5858
-13.6146 20.5571 5.56244
-13.5773 20.5749 5.53901
-13.5398 20.593 5.5156
-13.5024 20.6113 5.49228
-13.4654 20.6314 5.46963
-13.4281 20.6506 5.44665
-13.3907 20.6695 5.42359
-13.3536 20.69 5.40112
-13.3165 20.7108 5.37882
-13.279 20.7305 5.3561
-13.2422 20.7522 5.33416
-13.2052 20.774 5.3123
-13.168 20.7953 5.29034
-13.1299 20.8143 5.26789
-13.0927 20.8356 5.2462
-13.056 20.8583 5.22511
-13.0192 20.8809 5.20417
-12.9844 20.9078 5.1847
-12.9498 20.9351 5.16566
-12.9154 20.9626 5.147
-12.8789 20.987 5.12771
-12.8438 21.0136 5.10931
-12.8086 21.04 5.09126
-12.7737 21.0668 5.07368
-12.7405 21.0961 5.05713
-12.7073 21.1253 5.04104
-12.6742 21.1546 5.02546
-12.6435 21.1867 5.01134
-12.6083 21.2124 4.99661
-12.5745 21.2397 4.98281
-12.5419 21.2686 4.96985
-12.5097 21.298 4.95751
-12.4776 21.3274 4.94558
-12.4453 21.3564 4.93401
-12.4129 21.3854 4.92285
-12.3805 21.4144 4.91205
-12.348 21.4434 4.90154
-12.3158 21.4729 4.89144
-12.2835 21.5025 4.88168
-12.2511 21.532 4.87224
-12.2189 21.5617 4.86317
-12.1873 21.5923 4.85458
-12.1554 21.6228 4.84627
-12.1236 21.6534 4.83827
-12.0919 21.6844 4.83063
-12.0601 21.7154 4.82326
-12.0281 21.7464 4.81612
-11.9963 21.7777 4.80931
-11.9642 21.8088 4.8026
-11.9315 21.8394 4.79605
-11.8987 21.8699 4.78969
-11.8657 21.9004 4.78356
-11.8326 21.9309 4.77772
-11.7994 21.9614 4.77207
-11.7666 21.9923 4.7666
-11.7337 22.0233 4.76124
-11.7005 22.054 4.75596
-11.6671 22.0846 4.75069
-11.6337 22.1151 4.74544
-11.6105 22.1572 4.74134
-11.5671 22.1771 4.73418
-11.534 22.2083 4.72814
-11.5011 22.2396 4.72211
-11.4681 22.2709 4.71611
-11.4349 22.3022 4.71021
-11.401 22.3328 4.70436
-11.367 22.3634 4.69866
-11.3328 22.3939 4.69317
-11.2985 22.4245 4.688
-11.2641 22.4552 4.6831
-11.2295 22.4859 4.67844
-11.1947 22.5164 4.67402
-11.1585 22.5453 4.66969
-11.1221 22.5742 4.66561
-11.086 22.6035 4.66183
-11.0498 22.6329 4.65827
-11.0136 22.6623 4.65486
-10.9769 22.6913 4.65167
-10.9392 22.7191 4.64874
-10.9011 22.7467 4.64618
-10.8627 22.7744 4.64408
-10.8248 22.8031 4.64256
-10.7866 22.8318 4.64153
-10.7474 22.8596 4.64093
-10.7079 22.8873 4.64078
-10.6678 22.9148 4.64121
-10.6272 22.9422 4.64234
-10.586 22.9698 4.64416
-10.5443 22.9974 4.64664
-10.5019 23.0252 4.64998
-10.4589 23.0531 4.65429
-10.3697 23.0138 4.65232
-10.3646 23.1118 4.66723
-10.3176 23.1384 4.67551
-10.2699 23.1653 4.68472
-10.2223 23.1936 4.69484
-10.1742 23.2228 4.70554
-10.1251 23.2512 4.71672
-10.0754 23.2789 4.72846
-10.0253 23.306 4.74063
-9.97493 23.3318 4.75305
-9.92452 23.3571 4.76581
-9.87412 23.3825 4.77892
-9.82362 23.4076 4.79232
-9.77295 23.4326 4.806
-9.72226 23.4574 4.81989
-9.67075 23.48 4.83376
-9.6192 23.502 4.84768
-9.5664 23.5199 4.86117
-9.51455 23.5394 4.87495
-9.46284 23.5585 4.88877
-9.41123 23.5771 4.90253
-9.35993 23.5956 4.91624
-9.30882 23.6137 4.92986
-9.25807 23.6318 4.94343
-9.20738 23.6495 4.95691
-9.15661 23.6667 4.97039
-9.10569 23.6826 4.98355
-9.05527 23.6983 4.99639
-9.00486 23.7122 5.00866
-8.9548 23.7252 5.02045
-8.90553 23.738 5.0317
-8.85706 23.7504 5.04227
-8.80844 23.7577 5.0511
-8.76355 23.7718 5.05954
-8.71899 23.7818 5.06653
-8.67534 23.7917 5.07284
-8.63213 23.8 5.07835
-8.58946 23.8079 5.08342
-8.54728 23.8154 5.08801
-8.50564 23.8229 5.09218
-8.46438 23.8302 5.09605
-8.42326 23.837 5.09968
-8.38242 23.8437 5.10309
-8.34191 23.8506 5.10628
-8.30173 23.8577 5.10928
-8.26171 23.8642 5.11194
-8.22186 23.8705 5.11442
-8.18206 23.8764 5.11672
-8.14228 23.8823 5.11896
-8.10238 23.8884 5.12129
-8.0625 23.8949 5.12362
-8.02264 23.9012 5.12587
-7.98282 23.9075 5.12803
-7.94309 23.9139 5.1301
-7.90346 23.9205 5.13209
-7.86385 23.927 5.13399
-7.82425 23.9332 5.13574
-7.78473 23.9393 5.13736
-7.74526 23.9455 5.1389
-7.70584 23.9519 5.1404
-7.66642 23.9582 5.14184
-7.62686 23.9638 5.14315
-7.58726 23.9695 5.14444
-7.54762 23.9751 5.14574
-7.50572 23.966 5.14511
-7.468 23.9867 5.14862
-7.42805 23.9921 5.15007
-7.38801 23.9976 5.15153
-7.34787 24.003 5.153
-7.30762 24.0084 5.15445
-7.26726 24.0139 5.1559
-7.22683 24.0197 5.15738
-7.18625 24.0256 5.15884
-7.14546 24.0315 5.16027
-7.10448 24.0371 5.16166
-7.06332 24.0425 5.16298
-7.02201 24.048 5.16429
-6.98054 24.0535 5.16558
-6.93897 24.0593 5.16687
-6.89728 24.065 5.16813
-6.85555 24.0708 5.16936
-6.81395 24.077 5.17057
-6.77246 24.0843 5.17187
-6.73082 24.0918 5.17319
-6.68875 24.0985 5.17437
-6.64643 24.1058 5.17561
-6.6038 24.1132 5.17686
-6.56082 24.1206 5.1781
-6.51751 24.1282 5.17934
-6.47384 24.1352 5.18054
-6.42978 24.1426 5.18175
-6.38519 24.1502 5.18297
-6.34 24.1579 5.1842
-6.2942 24.1656 5.18542
-6.24744 24.1724 5.18662
-6.19973 24.1787 5.18781
-6.14999 24.1791 5.18884
-6.10003 24.1918 5.19038
-6.04802 24.198 5.19171
-5.99516 24.203 5.19301
-5.94157 24.2082 5.19435
-5.88747 24.2133 5.19572
-5.83291 24.2191 5.19714
-5.77789 24.2249 5.1986
-5.72251 24.2308 5.20005
-5.66692 24.2369 5.20149
-5.61128 24.2445 5.20302
-5.55541 24.252 5.20456
-5.4997 24.2617 5.20632
-5.44407 24.2727 5.20825
-5.38851 24.2847 5.21029
-5.33307 24.2977 5.21244
-5.27765 24.311 5.2146
-5.22215 24.3238 5.21666
-5.1667 24.3367 5.21871
-5.11131 24.3495 5.22077
-5.05619 24.3629 5.22291
-5.00142 24.3771 5.22516
-4.94681 24.3912 5.22745
-4.8924 24.4052 5.22979
-4.83822 24.4194 5.2322
-4.78398 24.4331 5.23461
-4.73004 24.4467 5.2371
-4.67717 24.4626 5.23974
-4.62476 24.4784 5.24247
-4.57285 24.4938 5.24531
-4.52187 24.5096 5.24826
-4.4716 24.5248 5.25135
-4.42079 24.5338 5.25442
-4.3755 24.5545 5.25816
-4.32952 24.5687 5.26187
-4.28438 24.5827 5.26571
-4.24003 24.5965 5.26964
-4.19622 24.6102 5.27364
-4.1527 24.623 5.27768
-4.10968 24.6357 5.28176
-4.06715 24.6488 5.28586
-4.02477 24.6619 5.28997
-3.98248 24.6744 5.29405
-3.9399 24.6848 5.29805
-3.89737 24.6945 5.30201
-3.85514 24.7041 5.30598
-3.8131 24.7137 5.30993
-3.7712 24.7233 5.31386
-3.72936 24.7327 5.31778
-3.68752 24.7421 5.3217
-3.64551 24.7505 5.32557
-3.60341 24.7584 5.32935
-3.56128 24.7662 5.33304
-3.5191 24.7742 5.33658
-3.47687 24.7823 5.34
-3.43438 24.7894 5.34325
-3.39181 24.7965 5.34637
-3.34924 24.8036 5.3494
-3.30647 24.8104 5.35223
-3.26335 24.8168 5.35481
-3.21983 24.8226 5.35711
-3.17599 24.8285 5.35914
-3.13162 24.8344 5.3608
-3.08655 24.8401 5.36197
-3.03939 24.8366 5.36252
-2.99269 24.8498 5.36224
-2.94429 24.8545 5.36135
-2.89525 24.8592 5.36004
-2.84565 24.8635 5.35837
-2.7957 24.8676 5.35646
-2.74537 24.8712 5.35429
-2.69459 24.8726 5.35192
-2.64354 24.8738 5.34938
-2.59234 24.8744 5.34681
-2.54096 24.874 5.34414
-2.48939 24.8725 5.34138
-2.43767 24.8701 5.33852
-2.38592 24.8649 5.33562
-2.33395 24.8599 5.3326
-2.28184 24.8562 5.32952
-2.22984 24.851 5.32638
-2.17801 24.8455 5.32315
-2.12619 24.8406 5.31988
-2.07436 24.836 5.31662
-2.02262 24.8306 5.3134
-1.97089 24.8252 5.31026
-1.91911 24.8206 5.30723
-1.86735 24.8161 5.3043
-1.81553 24.8127 5.30147
-1.76366 24.8094 5.2987
-1.71183 24.8062 5.29608
-1.66007 24.8035 5.2937
-1.60842 24.8024 5.29161
-1.55693 24.8015 5.28979
-1.50569 24.8007 5.28835
-1.45477 24.8002 5.28737
-1.40426 24.7961 5.28693
-1.35435 24.8002 5.28767
-1.30489 24.7999 5.28896
-1.25575 24.7997 5.2907
-1.20689 24.7995 5.29282
-1.15823 24.7992 5.2952
-1.10978 24.7987 5.29782
-1.06151 24.7976 5.30067
-1.01351 24.7943 5.30363
-0.965592 24.7912 5.30663
-0.917769 24.7886 5.30973
-0.869992 24.7859 5.31293
-0.822647 24.7802 5.31613
-0.775394 24.7745 5.31943
-0.728185 24.769 5.32278
-0.68102 24.7636 5.32616
-0.634016 24.7571 5.3295
-0.587053 24.7502 5.3328
-0.540109 24.7434 5.33606
-0.493232 24.7362 5.33924
-0.446281 24.7297 5.34237
-0.399282 24.7238 5.3454
-0.352307 24.7179 5.34832
-0.305413 24.7115 5.35109
-0.258525 24.7054 5.35376
-0.211496 24.7013 5.35639
-0.164471 24.6971 5.35885
-0.117414 24.6929 5.36106
-0.0704814 24.6874 5.36303
-0.0233338 24.6839 5.36471
0.023886 24.6805 5.36601
0.0710319 24.6753 5.36695
0.118448 24.6712 5.3672
0.166152 24.6682 5.36652
0.213964 24.6648 5.36525
0.261818 24.6608 5.36356
0.309749 24.6569 5.36148
0.357706 24.6528 5.35914
0.405694 24.6486 5.35652
0.453718 24.6444 5.35365
0.501757 24.6402 5.35059
0.549759 24.6357 5.34743
0.597726 24.6309 5.34416
0.645703 24.626 5.34074
0.693688 24.6211 5.33718
0.74166 24.616 5.3335
0.789555 24.6102 5.32975
0.837452 24.6043 5.32594
0.885356 24.5985 5.32211
0.933263 24.5926 5.31832
0.981107 24.5863 5.31456
1.02894 24.58 5.31078
1.07673 24.5736 5.30698
1.12449 24.5673 5.30316
1.17222 24.561 5.29932
1.21991 24.5547 5.29548
1.26754 24.5483 5.29163
1.31516 24.5418 5.28775
1.36278 24.5357 5.28386
1.41032 24.5296 5.27999
1.45769 24.523 5.2762
1.50498 24.5164 5.27245
1.55213 24.5099 5.26877
1.5991 24.5033 5.26517
1.64639 24.501 5.26143
1.69219 24.4904 5.25839
1.73835 24.4844 5.25519
1.78423 24.4776 5.25214
1.82993 24.4705 5.24924
1.87552 24.4629 5.24643
1.92106 24.4553 5.2437
1.96654 24.4477 5.24109
2.01203 24.4402 5.23858
2.05757 24.4327 5.23622
2.10312 24.4253 5.23396
2.14865 24.4175 5.23181
2.19429 24.4102 5.22973
2.23997 24.403 5.22774
2.2857 24.3958 5.22582
2.33148 24.3884 5.22395
2.3773 24.3808 5.22207
2.42329 24.3736 5.22005
2.46939 24.3663 5.21801
2.5156 24.3591 5.21606
2.56199 24.3522 5.21422
2.60861 24.346 5.21259
2.65537 24.3397 5.21111
2.70228 24.3333 5.20981
2.74945 24.3279 5.20871
2.79685 24.3235 5.20785
2.84444 24.3191 5.20719
2.89227 24.3146 5.20679
2.9404 24.3104 5.20668
2.98879 24.3062 5.2068
3.03753 24.3021 5.20732
3.08688 24.299 5.20826
3.13737 24.3071 5.21113
3.1871 24.2927 5.21217
3.23793 24.2893 5.21531
3.28916 24.2866 5.21894
3.34074 24.2837 5.2229
3.39254 24.2807 5.22702
3.4446 24.2776 5.23136
3.49693 24.2747 5.23593
3.54946 24.2715 5.24061
