BEGIN_Polyline
-17.5149 -3.16048 6.43819
-17.5277 -3.20606 6.43535
-17.5405 -3.25157 6.43249
-17.5532 -3.29696 6.4296
-17.5662 -3.34226 6.42659
-17.5799 -3.38724 6.42328
-17.5935 -3.43215 6.41996
-17.6072 -3.47707 6.41666
-17.621 -3.52213 6.41341
-17.6347 -3.56717 6.41017
-17.6484 -3.61212 6.40692
-17.6617 -3.65705 6.40379
-17.6734 -3.70245 6.40134
-17.685 -3.74769 6.3988
-17.6965 -3.79281 6.3962
-17.708 -3.83779 6.39353
-17.7196 -3.88277 6.39088
-17.7317 -3.92749 6.38792
-17.7436 -3.9721 6.38485
-17.7556 -4.01666 6.38169
-17.7672 -4.06135 6.37875
-17.7783 -4.10625 6.37593
-17.7888 -4.14998 6.37238
-17.7732 -4.20366 6.382
-17.8154 -4.23976 6.36365
-17.8278 -4.2856 6.36019
-17.8381 -4.33083 6.35765
-17.8485 -4.37596 6.3551
-17.8588 -4.42108 6.35249
-17.869 -4.46604 6.34984
-17.8791 -4.5109 6.34722
-17.889 -4.5557 6.34472
-17.8989 -4.6006 6.34224
-17.9087 -4.64536 6.33975
-17.9185 -4.68997 6.33724
-17.9292 -4.73412 6.33424
-17.9401 -4.7782 6.33119
-17.9493 -4.82249 6.32886
-17.9575 -4.86687 6.32699
-17.9656 -4.91127 6.32507
-17.9738 -4.95585 6.32313
-17.9819 -5.00047 6.32116
-17.9904 -5.04493 6.31903
-17.9984 -5.08937 6.3172
-18.0057 -5.13388 6.31568
-18.013 -5.17823 6.31423
-18.0204 -5.22246 6.31282
-18.0277 -5.2666 6.31145
-18.035 -5.31083 6.31
-18.0423 -5.35497 6.30862
-18.0497 -5.39901 6.30733
-18.0571 -5.44288 6.30616
-18.0643 -5.48679 6.30513
-18.0714 -5.53058 6.30426
-18.0786 -5.5743 6.30349
-18.0885 -5.61756 6.3017
-18.0931 -5.66182 6.302
-18.1003 -5.70564 6.30127
-18.1076 -5.74942 6.30064
-18.1149 -5.79314 6.30015
-18.1217 -5.83694 6.2999
-18.1283 -5.88069 6.29987
-18.1353 -5.92434 6.29972
-18.1434 -5.96779 6.29922
-18.1514 -6.01127 6.29865
-18.1595 -6.05475 6.29809
-18.1685 -6.09802 6.29714
-18.1776 -6.14129 6.29626
-18.187 -6.18454 6.29527
-18.1973 -6.22755 6.29387
-18.2076 -6.27057 6.29248
-18.2179 -6.31353 6.29111
-18.2282 -6.35638 6.28973
-18.2385 -6.39923 6.28833
-18.2488 -6.44212 6.28689
-18.2593 -6.48508 6.28531
-18.2699 -6.52801 6.28363
-18.2805 -6.57115 6.28196
-18.291 -6.61443 6.28023
-18.3018 -6.65778 6.27841
-18.3131 -6.70085 6.27633
-18.3245 -6.74407 6.27422
-18.3359 -6.78744 6.27204
-18.3473 -6.83105 6.26975
-18.3588 -6.87469 6.26745
-18.3702 -6.91852 6.26503
-18.3816 -6.96247 6.26253
-18.3963 -7.00545 6.25823
-18.4069 -7.04956 6.25604
-18.4203 -7.09263 6.25264
-18.4327 -7.1363 6.24941
-18.4415 -7.18099 6.24805
-18.4503 -7.22569 6.2467
-18.459 -7.27067 6.24522
-18.4681 -7.31579 6.24346
-18.4786 -7.36071 6.24078
-18.4891 -7.40548 6.23814
-18.4997 -7.4504 6.23544
-18.5102 -7.49551 6.23269
-18.5208 -7.54087 6.22985
-18.5319 -7.5861 6.22668
-18.5433 -7.63141 6.22336
-18.5548 -7.67682 6.22007
-18.5664 -7.72225 6.21697
-18.5783 -7.76751 6.21392
-18.592 -7.81211 6.21025
-18.6041 -7.85729 6.20733
-18.6159 -7.90262 6.20452
-18.6262 -7.94834 6.20215
-18.6366 -7.99418 6.19975
-18.6459 -8.04032 6.19767
-18.656 -8.08643 6.19537
-18.6656 -8.13259 6.19322
-18.6737 -8.17913 6.19144
-18.6818 -8.22573 6.18963
-18.69 -8.2724 6.18778
-18.6981 -8.31909 6.18595
-18.7062 -8.36579 6.18404
-18.7143 -8.41247 6.18207
-18.7201 -8.45952 6.18058
-18.7303 -8.50578 6.17797
-18.7371 -8.55248 6.17611
-18.7463 -8.59869 6.17359
-18.7555 -8.64482 6.17097
-18.7647 -8.69097 6.16837
-18.7739 -8.73706 6.16575
-18.7831 -8.78308 6.16312
-18.7922 -8.82905 6.16049
-18.8013 -8.87506 6.15789
-18.8104 -8.92105 6.15537
-18.8194 -8.967 6.15288
-18.8285 -9.01289 6.15045
-18.8393 -9.05837 6.1477
-18.8511 -9.10364 6.14485
-18.8629 -9.14893 6.14205
-18.8744 -9.19438 6.13932
-18.8855 -9.24002 6.13658
-18.8966 -9.2857 6.13385
-18.9077 -9.33137 6.13121
-18.9188 -9.37697 6.12868
-18.9299 -9.42251 6.12614
-18.941 -9.46794 6.12375
-18.9522 -9.51328 6.12146
-18.9641 -9.55848 6.11919
-18.9761 -9.60387 6.11693
-18.9889 -9.64895 6.11456
-19.0039 -9.69324 6.11181
-19.0188 -9.73742 6.10915
-19.0338 -9.78159 6.10651
-19.0486 -9.82553 6.10385
-19.0633 -9.8693 6.10102
-19.0929 -9.90766 6.09493
-19.0952 -9.9561 6.09704
-19.1103 -9.9991 6.0928
-19.1254 -10.0419 6.08852
-19.1371 -10.0859 6.08555
-19.1496 -10.1297 6.08271
-19.162 -10.1735 6.08014
-19.1745 -10.2172 6.07755
-19.1869 -10.2608 6.07486
-19.2012 -10.304 6.0713
-19.2168 -10.3468 6.06746
-19.2325 -10.3895 6.06386
-19.2459 -10.433 6.06173
-19.2577 -10.4769 6.06047
-19.2696 -10.5207 6.05958
-19.2817 -10.5645 6.05895
-19.2933 -10.6084 6.05863
-19.304 -10.6525 6.0584
-19.3146 -10.6966 6.0583
-19.3278 -10.7402 6.05756
-19.3411 -10.7839 6.05699
-19.3556 -10.827 6.05585
-19.3709 -10.8703 6.05503
-19.3863 -10.9136 6.05449
-19.4019 -10.9571 6.0543
-19.4168 -11.0007 6.05431
-19.4318 -11.0444 6.05436
-19.4477 -11.0879 6.05387
-19.464 -11.1317 6.05335
-19.4804 -11.1755 6.05296
-19.4969 -11.2197 6.05233
-19.5132 -11.264 6.05151
-19.5399 -11.3044 6.04336
-19.5449 -11.3528 6.04797
-19.5603 -11.3973 6.04548
-19.5762 -11.4416 6.04297
-19.5921 -11.4863 6.04038
-19.6081 -11.5309 6.0379
-19.6243 -11.5758 6.03566
-19.638 -11.6221 6.03505
-19.6497 -11.6691 6.03589
-19.6636 -11.7153 6.03512
-19.6802 -11.7607 6.0336
-19.6971 -11.8061 6.03256
-19.7142 -11.8516 6.03216
-19.7304 -11.8975 6.03225
-19.746 -11.9436 6.03326
-19.7616 -11.9897 6.03478
-19.785 -12.0331 6.03387
-19.8114 -12.0748 6.02969
-19.8306 -12.1195 6.03023
-19.8508 -12.1637 6.03091
-19.8724 -12.2072 6.03178
-19.894 -12.2507 6.03259
-19.9158 -12.294 6.03413
-19.9379 -12.3369 6.03618
-19.9575 -12.3807 6.04005
-19.9745 -12.4254 6.04474
-19.9911 -12.4703 6.05015
-20.0072 -12.5154 6.05608
-20.0235 -12.5605 6.0625
-20.0398 -12.6054 6.06927
-20.0562 -12.6505 6.07592
-20.0691 -12.6969 6.08427
-20.0739 -12.7455 6.09377
-20.0887 -12.792 6.0985
-20.0992 -12.8392 6.10399
-20.1098 -12.8864 6.10937
-20.1235 -12.9327 6.11393
-20.1394 -12.9783 6.11823
-20.1576 -13.0229 6.12271
-20.1759 -13.0673 6.12774
-20.1937 -13.1117 6.13353
-20.2114 -13.1562 6.13899
-20.2292 -13.2002 6.14549
-20.247 -13.244 6.15288
-20.2647 -13.2873 6.16169
-20.2822 -13.3307 6.17063
-20.2999 -13.3737 6.18067
-20.3176 -13.4165 6.19147
-20.3353 -13.4593 6.20244
-20.353 -13.5026 6.21225
-20.3708 -13.546 6.22224
-20.3899 -13.5885 6.23263
-20.4094 -13.6305 6.2443
-20.4303 -13.6718 6.25571
-20.4515 -13.7124 6.26853
-20.4735 -13.7524 6.28206
-20.4955 -13.7922 6.29655
-20.5176 -13.8322 6.31058
-20.5396 -13.872 6.32524
-20.5616 -13.9116 6.34022
-20.5841 -13.9506 6.35636
-20.608 -13.9889 6.37362
-20.6333 -14.0264 6.39025
-20.6594 -14.0633 6.40688
-20.711 -14.0869 6.41282
-20.7092 -14.1394 6.43396
-20.733 -14.1815 6.448
-20.7598 -14.2181 6.45972
-20.7846 -14.2552 6.47202
-20.8098 -14.293 6.48455
-20.8348 -14.3307 6.49791
-20.8593 -14.3681 6.5119
-20.8838 -14.4052 6.52653
-20.9084 -14.4426 6.54076
-20.9331 -14.4796 6.55602
-20.9579 -14.516 6.57213
-20.9823 -14.5517 6.58977
-21.0067 -14.5874 6.60754
-21.0308 -14.6226 6.62656
-21.055 -14.6572 6.64634
-21.0793 -14.6917 6.66637
-21.1034 -14.7268 6.68539
-21.1275 -14.7618 6.70461
-21.1491 -14.7975 6.7257
-21.1706 -14.8328 6.74786
-21.1921 -14.868 6.77012
-21.2138 -14.9024 6.79348
-21.2357 -14.9365 6.81755
-21.2578 -14.9699 6.84242
-21.2787 -15.0035 6.86747
-21.2996 -15.037 6.8931
-21.3203 -15.0704 6.91928
-21.3419 -15.1034 6.94557
-21.3636 -15.1362 6.97203
-21.3853 -15.1695 6.99832
-21.4069 -15.2031 7.02437
-21.4229 -15.2392 7.05229
-21.4454 -15.2743 7.07653
-21.4634 -15.3113 7.10156
-21.4813 -15.3486 7.12635
-21.5009 -15.3857 7.15024
-21.5214 -15.4222 7.174
-21.542 -15.4583 7.19819
-21.5624 -15.4941 7.22272
-21.5842 -15.5291 7.24706
-21.6073 -15.5641 7.27055
-21.6308 -15.5982 7.29465
-21.6544 -15.6314 7.31942
-21.678 -15.6634 7.3452
-21.7016 -15.6955 7.37096
-21.7241 -15.7265 7.3982
-21.7473 -15.7564 7.42578
-21.7728 -15.7844 7.4526
-21.7995 -15.8125 7.47817
-21.8273 -15.8395 7.50351
-21.8549 -15.8656 7.52953
-21.8811 -15.8914 7.55701
-21.9056 -15.9183 7.5852
-21.9298 -15.9441 7.61455
-21.9522 -15.9703 7.64522
-21.9744 -15.9955 7.67668
-21.9988 -16.0194 7.707
-22.0243 -16.0425 7.73741
-22.0501 -16.0656 7.76844
-22.0755 -16.0892 7.79965
-22.1003 -16.1132 7.83001
-22.122 -16.1403 7.86194
-22.1457 -16.1676 7.89335
-22.196 -16.178 7.91958
-22.1951 -16.2261 7.94889
-22.2181 -16.2592 7.97592
-22.2419 -16.2928 8.00771
-22.268 -16.3259 8.04037
-22.2928 -16.3578 8.07238
-22.3165 -16.3886 8.1044
-22.3399 -16.4192 8.13674
-22.3673 -16.4442 8.16974
-22.3949 -16.468 8.20248
-22.4218 -16.4912 8.23502
-22.4487 -16.5129 8.26775
-22.4757 -16.5331 8.30075
-22.5028 -16.5533 8.33389
-22.5295 -16.5733 8.3673
-22.5557 -16.5933 8.40081
-22.5837 -16.6102 8.4345
-22.6145 -16.623 8.46807
-22.6455 -16.6364 8.5019
-22.6764 -16.65 8.53586
-22.7071 -16.6636 8.56952
-22.7377 -16.6771 8.60246
-22.7678 -16.6904 8.6355
-22.8016 -16.6951 8.66825
-22.8352 -16.699 8.70318
-22.8685 -16.7025 8.73884
-22.9017 -16.7056 8.77572
-22.9351 -16.709 8.81222
-22.9706 -16.7065 8.84791
-23.0058 -16.7047 8.88387
-23.0405 -16.7023 8.92054
-23.075 -16.6997 8.9573
-23.1431 -16.6305 8.9574
-23.1419 -16.6928 9.03183
-23.1746 -16.6893 9.06857
-23.2078 -16.6854 9.10272
-23.2438 -16.6787 9.13554
-23.2786 -16.6776 9.16842
-23.3139 -16.6781 9.19987
-23.3486 -16.6781 9.23136
-23.3871 -16.6729 9.25777
-23.422 -16.6728 9.28819
-23.4562 -16.673 9.31903
-23.4899 -16.6725 9.35
-23.5252 -16.6697 9.37932
-23.5632 -16.6652 9.40527
-23.5977 -16.6614 9.43696
-23.631 -16.6563 9.46928
-23.6644 -16.6508 9.50176
-23.7009 -16.6458 9.53052
-23.7381 -16.6402 9.55902
-23.775 -16.6336 9.58812
-23.8106 -16.6257 9.61918
-23.8461 -16.6179 9.65018
-23.8817 -16.6084 9.68122
-23.9173 -16.5979 9.71237
-23.953 -16.5858 9.74351
-23.9885 -16.5737 9.77457
-24.0288 -16.5611 9.80027
-24.0692 -16.5476 9.82575
-24.1096 -16.5355 9.85153
-24.1464 -16.5253 9.88184
-24.1835 -16.5167 9.912
-24.2211 -16.5084 9.94208
-24.2817 -16.4926 9.94183
-24.2979 -16.4947 10.0026
-24.3366 -16.488 10.0329
-24.3751 -16.4802 10.0628
-24.4135 -16.4725 10.0925
-24.4518 -16.4651 10.1221
-24.4899 -16.4577 10.1515
-24.5278 -16.4503 10.1807
-24.5653 -16.4426 10.2099
-24.603 -16.4349 10.2392
-24.6403 -16.4267 10.2683
-24.6795 -16.4171 10.294
-24.7182 -16.4069 10.3192
-24.7568 -16.397 10.3444
-24.7949 -16.3868 10.3693
-24.8326 -16.3763 10.394
-24.8697 -16.3656 10.4196
-24.9068 -16.3552 10.4464
-24.9437 -16.3446 10.4732
-24.9804 -16.3339 10.5
-25.015 -16.3244 10.5276
-25.0484 -16.316 10.5547
-25.0834 -16.3061 10.5783
-25.1186 -16.2959 10.6022
-25.1559 -16.2846 10.6276
-25.1955 -16.2724 10.6546
-25.2403 -16.2555 10.6744
-25.2846 -16.2377 10.6944
-25.3304 -16.2187 10.7131
-25.3775 -16.1984 10.7266
-25.426 -16.1784 10.7402
-25.4744 -16.1586 10.7538
-25.5441 -16.097 10.6353
-25.5802 -16.1135 10.7819
-25.6262 -16.0953 10.7912
-25.672 -16.0775 10.8003
-25.7176 -16.0609 10.8092
-25.7643 -16.0444 10.8195
-25.811 -16.0282 10.8298
-25.8572 -16.01 10.8317
-25.9034 -15.9923 10.8377
-25.9495 -15.9746 10.8442
-25.9948 -15.9563 10.851
-26.0395 -15.9378 10.8581
-26.0835 -15.9187 10.8645
-26.1278 -15.8976 10.8618
-26.1725 -15.8757 10.8604
-26.2157 -15.8525 10.853
-26.2585 -15.8294 10.8465
-26.3007 -15.8069 10.8399
-26.342 -15.7844 10.8337
-26.3832 -15.7617 10.8283
-26.4239 -15.7384 10.822
-26.4655 -15.7152 10.8173
-26.5073 -15.6918 10.814
-26.5489 -15.6678 10.8108
-26.5897 -15.6428 10.8044
-26.6304 -15.6181 10.7948
-26.6706 -15.5922 10.7852
-26.7102 -15.5654 10.7754
-26.7486 -15.5384 10.7652
-26.7866 -15.512 10.7551
-26.8242 -15.4861 10.7449
-26.8628 -15.4599 10.7319
-26.8902 -15.4319 10.6894
-26.9394 -15.4099 10.7071
-26.9758 -15.3861 10.6954
-27.0119 -15.3625 10.6837
-27.0471 -15.3393 10.6725
-27.0822 -15.3158 10.6614
-27.1167 -15.2922 10.6507
-27.1507 -15.2684 10.6401
-27.186 -15.2448 10.6329
-27.2205 -15.2211 10.6213
-27.2555 -15.1965 10.6108
-27.2907 -15.1719 10.6018
-27.3236 -15.146 10.5904
-27.3599 -15.1203 10.5887
-27.3945 -15.0938 10.5833
-27.4239 -15.0674 10.5686
-27.4547 -15.0406 10.5566
-27.4876 -15.0144 10.5477
-27.521 -14.9875 10.5387
-27.5542 -14.9603 10.5298
-27.5873 -14.9322 10.5209
-27.6203 -14.904 10.5117
-27.653 -14.8747 10.5024
-27.6822 -14.8442 10.4831
-27.7093 -14.8129 10.4597
-27.736 -14.783 10.4369
-27.7651 -14.7517 10.4213
-27.7951 -14.7203 10.4071
-27.8255 -14.6884 10.3933
-27.8561 -14.6566 10.3784
-27.8873 -14.625 10.364
-27.9196 -14.5934 10.3496
-27.9561 -14.5622 10.3445
-27.9824 -14.5338 10.3172
-28.0127 -14.5046 10.2945
-28.0474 -14.4742 10.2802
-28.0836 -14.4434 10.2674
-28.1182 -14.4128 10.255
-28.1524 -14.3819 10.2427
-28.1875 -14.3501 10.233
-28.2228 -14.318 10.2248
-28.2578 -14.2865 10.2167
-28.2897 -14.2546 10.1976
-28.3231 -14.222 10.1848
-28.356 -14.1887 10.1726
-28.3898 -14.1555 10.1641
-28.4236 -14.1214 10.1562
-28.4583 -14.087 10.1543
-28.4915 -14.0508 10.1386
-28.5255 -14.0156 10.1277
-28.561 -13.9805 10.1216
-28.596 -13.9449 10.1156
-28.6308 -13.9087 10.1108
-28.6658 -13.8725 10.1066
-28.6988 -13.8354 10.0999
-28.7313 -13.7983 10.0941
-28.7606 -13.7607 10.0824
-28.7878 -13.7235 10.0661
-28.815 -13.686 10.0504
-28.8414 -13.6484 10.034
-28.8672 -13.6104 10.0179
-28.8932 -13.5721 10.003
-28.9189 -13.5339 9.98823
-28.9449 -13.4959 9.97417
-28.9718 -13.4584 9.96056
-28.9995 -13.4212 9.94686
-29.0282 -13.3847 9.93393
-29.0569 -13.3483 9.92137
-29.0855 -13.3122 9.90888
-29.1138 -13.276 9.89641
-29.1413 -13.2395 9.88409
-29.1683 -13.203 9.87166
-29.1945 -13.1663 9.85928
-29.2211 -13.1297 9.84684
-29.2464 -13.093 9.83282
-29.2712 -13.0554 9.82065
-29.2949 -13.0174 9.80838
-29.3184 -12.9793 9.79614
-29.3409 -12.9409 9.78393
-29.3629 -12.902 9.77172
-29.3846 -12.8633 9.75813
-29.4074 -12.8248 9.74524
-29.4303 -12.786 9.73274
-29.4526 -12.7469 9.72011
-29.474 -12.7073 9.70746
-29.4954 -12.6677 9.69481
-29.5156 -12.6276 9.68219
-29.5352 -12.5864 9.66983
-29.5547 -12.5449 9.66377
-29.5738 -12.5056 9.64479
-29.5916 -12.4643 9.63695
-29.6092 -12.4241 9.62221
-29.6265 -12.3837 9.60753
-29.6436 -12.3432 9.5929
-29.6608 -12.3027 9.57821
-29.6778 -12.262 9.56388
-29.6935 -12.224 9.53911
-29.7142 -12.1812 9.53398
-29.7342 -12.1418 9.51855
-29.7544 -12.1024 9.50308
-29.7749 -12.063 9.48756
-29.7951 -12.0235 9.47205
-29.815 -11.9837 9.45694
-29.8348 -11.9436 9.44232
-29.8542 -11.9034 9.42775
-29.8737 -11.8633 9.41317
-29.8921 -11.8235 9.39693
-29.91 -11.7834 9.38067
-29.9268 -11.7429 9.36446
-29.9438 -11.702 9.34969
-29.96 -11.6607 9.33502
-29.9754 -11.6194 9.31908
-29.9911 -11.5773 9.30517
-30.0079 -11.5349 9.29326
-30.0246 -11.4923 9.28076
-30.0405 -11.4497 9.26775
-30.0555 -11.4066 9.25529
-30.0706 -11.3631 9.2448
-30.0845 -11.3194 9.23435
-30.0974 -11.2756 9.22392
-30.1089 -11.233 9.209
-30.1207 -11.1911 9.1929
-30.1315 -11.1491 9.1768
-30.1418 -11.1071 9.16069
-30.1512 -11.0649 9.14456
-30.1604 -11.0227 9.12842
-30.1696 -10.9813 9.11029
-30.1791 -10.9401 9.09184
-30.1896 -10.8991 9.07312
-30.2011 -10.8573 9.0566
-30.2138 -10.8156 9.04009
-30.2268 -10.774 9.02363
-30.24 -10.7332 9.00535
-30.2528 -10.6922 8.98693
-30.265 -10.6506 8.9703
-30.2769 -10.6081 8.95647
-30.2883 -10.5655 8.94264
-30.3 -10.523 8.92876
-30.3107 -10.4803 8.91486
-30.3206 -10.4375 8.90099
-30.3295 -10.3936 8.89011
-30.3382 -10.3502 8.87791
-30.3459 -10.3063 8.86663
-30.3529 -10.2623 8.8554
-30.3598 -10.2182 8.84417
-30.3678 -10.1742 8.83281
-30.3757 -10.1302 8.82146
-30.3828 -10.086 8.81018
-30.3886 -10.0421 8.79784
-30.3939 -9.99918 8.78219
-30.3982 -9.95542 8.76847
-30.4013 -9.91199 8.75354
-30.4032 -9.86863 8.73806
-30.4055 -9.82535 8.72248
-30.4073 -9.78173 8.70763
-30.4086 -9.73793 8.69312
-30.409 -9.69395 8.67875
-30.4091 -9.64992 8.66443
-30.4091 -9.60579 8.65027
-30.4092 -9.56162 8.63621
-30.4129 -9.51403 8.63312
-30.4121 -9.47368 8.60755
-30.4149 -9.42994 8.59296
-30.4178 -9.38622 8.57836
-30.4206 -9.34243 8.56401
-30.4231 -9.29854 8.5499
-30.4247 -9.25456 8.53595
-30.4259 -9.21052 8.52208
-30.4266 -9.16641 8.50832
-30.4276 -9.12237 8.49448
-30.4279 -9.07807 8.48127
-30.4275 -9.03353 8.46866
-30.4258 -8.9888 8.45631
-30.4241 -8.94407 8.44397
-30.4212 -8.89915 8.43186
-30.4176 -8.85411 8.41991
-30.4135 -8.80916 8.40745
-30.4103 -8.76446 8.39438
-30.4068 -8.7197 8.38134
-30.4026 -8.67486 8.36838
-30.3978 -8.6293 8.35764
-30.3932 -8.58361 8.3477
-30.3876 -8.53771 8.33804
-30.3814 -8.4916 8.32876
-30.3746 -8.44533 8.31961
-30.3681 -8.39906 8.31064
-30.3616 -8.35245 8.30265
-30.3548 -8.30573 8.2947
-30.3476 -8.25889 8.28679
-30.3405 -8.21211 8.27891
-30.3333 -8.16526 8.27099
-30.3267 -8.11851 8.263
-30.3286 -8.06318 8.29536
-30.3078 -8.02178 8.24903
-30.3042 -7.97492 8.24331
-30.3009 -7.92809 8.23753
-30.298 -7.88147 8.23161
-30.2947 -7.83474 8.22581
-30.2911 -7.78803 8.22011
-30.2875 -7.74138 8.21444
-30.2833 -7.69482 8.20794
-30.2791 -7.64816 8.20128
-30.2738 -7.6016 8.1937
-30.268 -7.55502 8.18622
-30.2615 -7.50848 8.17905
-30.2548 -7.4621 8.17197
-30.2475 -7.41573 8.16513
-30.2395 -7.36939 8.15775
-30.231 -7.32317 8.14945
-30.2249 -7.27603 8.14344
-30.2186 -7.22877 8.13753
-30.2119 -7.18143 8.13187
-30.2004 -7.13585 8.12101
-30.1879 -7.09124 8.10965
-30.1746 -7.04681 8.09905
-30.163 -7.0008 8.09181
-30.1541 -6.95366 8.08859
-30.1445 -6.90715 8.08366
-30.1344 -6.86074 8.07917
-30.124 -6.81417 8.07537
-30.1133 -6.76756 8.07276
-30.1041 -6.72066 8.07191
-30.0945 -6.67381 8.07151
-30.0846 -6.62701 8.07139
-30.0681 -6.58148 8.06431
-30.0629 -6.53278 8.06702
-30.0506 -6.48677 8.0629
-30.038 -6.44073 8.05894
-30.0253 -6.39476 8.05527
-30.0124 -6.3488 8.05174
-29.9992 -6.30295 8.04866
-29.9857 -6.25716 8.04583
-29.9721 -6.21145 8.04325
-29.9586 -6.16567 8.04045
-29.9448 -6.12003 8.03771
-29.9307 -6.0745 8.03521
-29.9164 -6.02907 8.03304
-29.9021 -5.98359 8.03083
-29.8867 -5.93857 8.02807
-29.8699 -5.89418 8.02437
-29.8529 -5.84984 8.0209
-29.8373 -5.80484 8.01866
-29.8223 -5.75957 8.01707
-29.8073 -5.71439 8.01546
-29.7925 -5.66929 8.01375
-29.7777 -5.6242 8.01199
-29.7632 -5.57921 8.00998
-29.7489 -5.53429 8.00775
-29.7347 -5.48943 8.00539
-29.7202 -5.44453 8.00333
-29.7056 -5.39984 8.00059
-29.6907 -5.35537 7.99699
-29.6758 -5.31118 7.99224
-29.661 -5.26705 7.98744
-29.6467 -5.22288 7.98192
-29.6328 -5.17868 7.97589
-29.6159 -5.13564 7.96713
-29.6042 -5.08999 7.9634
-29.5897 -5.04558 7.95699
-29.5756 -5.00115 7.95004
-29.5611 -4.95728 7.94142
-29.5462 -4.91364 7.93243
-29.5334 -4.86955 7.92371
-29.5211 -4.82552 7.91451
-29.5091 -4.78158 7.90489
-29.4968 -4.73755 7.89562
-29.4846 -4.69362 7.88615
-29.4728 -4.64985 7.87645
-29.4613 -4.60613 7.86631
-29.4499 -4.56218 7.85589
-29.4418 -4.51705 7.84791
-29.4356 -4.47131 7.84143
-29.4331 -4.42445 7.83881
-29.4302 -4.3774 7.83664
-29.427 -4.33037 7.83493
-29.4237 -4.2835 7.83326
-29.4188 -4.23764 7.83014
-29.4096 -4.19264 7.82307
-29.396 -4.14947 7.81157
-29.3824 -4.1065 7.80017
-29.3692 -4.06384 7.78856
-29.3584 -4.01994 7.77881
-29.3515 -3.97548 7.77229
-29.3446 -3.93199 7.76609
-29.3359 -3.88933 7.7584
-29.3236 -3.84698 7.74716
-29.3072 -3.80575 7.73273
-29.2907 -3.76466 7.71866
-29.2478 -3.74052 7.68549
-29.2557 -3.68221 7.68943
-29.2371 -3.64281 7.67683
-29.2179 -3.60466 7.66362
-29.1983 -3.56664 7.65112
-29.18 -3.52733 7.6394
-29.1607 -3.48831 7.6277
-29.1417 -3.44907 7.61675
-29.1225 -3.40978 7.60602
-29.1036 -3.37038 7.59492
-29.0845 -3.33095 7.58392
-29.0653 -3.29158 7.57315
-29.046 -3.2523 7.56272
-29.0265 -3.21306 7.55241
-29.007 -3.17396 7.54236
-28.9915 -3.13225 7.53544
-28.9766 -3.09006 7.52889
-28.9611 -3.04846 7.52157
-28.9454 -3.00707 7.51399
-28.9298 -2.96568 7.50647
-28.9143 -2.92436 7.49909
-28.8987 -2.88306 7.49175
-28.8831 -2.8419 7.48458
-28.8675 -2.80085 7.47749
-28.8517 -2.75986 7.47057
-28.836 -2.71874 7.46365
-28.8201 -2.67772 7.45683
-28.8043 -2.63681 7.45007
-28.7887 -2.59623 7.44339
-28.7731 -2.55588 7.43673
-28.7589 -2.51501 7.43102
-28.7461 -2.4739 7.426
-28.7228 -2.43688 7.41341
-28.7208 -2.39112 7.41516
-28.7082 -2.34948 7.40943
-28.6957 -2.30794 7.40364
-28.6823 -2.26717 7.39735
-28.6673 -2.2274 7.39049
-28.6527 -2.18769 7.38393
-28.6381 -2.14793 7.37725
-28.6235 -2.10809 7.37055
-28.6087 -2.06823 7.36376
-28.5936 -2.02823 7.3569
-28.5785 -1.98813 7.35003
-28.5633 -1.94786 7.34318
-28.5481 -1.90755 7.33633
-28.5328 -1.86715 7.3295
-28.5175 -1.82667 7.32267
-28.5022 -1.78631 7.31589
-28.4871 -1.74627 7.30918
-28.4719 -1.70624 7.30245
-28.4567 -1.66603 7.29567
-28.4413 -1.62551 7.2887
-28.4262 -1.58473 7.28193
-28.4111 -1.54339 7.2751
-28.3959 -1.50168 7.26816
-28.3806 -1.45971 7.26116
-28.3654 -1.41811 7.25432
-28.35 -1.37616 7.24736
-28.3352 -1.33346 7.24059
-28.3188 -1.29077 7.23266
-28.3025 -1.24803 7.22473
-28.286 -1.20467 7.21653
-28.2698 -1.16058 7.20851
-28.2615 -1.11253 7.20531
-28.2374 -1.07282 7.19198
-28.2212 -1.02907 7.18366
-28.205 -0.984969 7.17518
-28.1886 -0.940341 7.16646
-28.1722 -0.895579 7.15772
-28.1557 -0.850323 7.14879
-28.1409 -0.803931 7.14089
-28.127 -0.756933 7.1335
-28.114 -0.709956 7.12675
-28.1021 -0.662438 7.12064
-28.0901 -0.614644 7.1145
-28.0779 -0.566447 7.10838
-28.0657 -0.518123 7.10233
-28.0517 -0.470156 7.09521
-28.0362 -0.422694 7.08704
-28.0196 -0.37562 7.07823
-28.0029 -0.328866 7.06918
-27.9861 -0.282206 7.06027
-27.9689 -0.235684 7.05123
-27.9513 -0.189372 7.04205
-27.9337 -0.143008 7.03281
-27.9161 -0.0967337 7.02371
-27.8985 -0.0505751 7.01474
-27.8808 -0.0045432 7.00593
-27.8631 0.0415694 6.99709
-27.8454 0.0874617 6.98843
-27.8282 0.133444 6.98012
-27.8122 0.179562 6.97271
-27.7962 0.22554 6.96542
-27.7803 0.271144 6.95823
-27.7644 0.316463 6.95116
-27.7264 0.35206 6.93083
-27.7312 0.407465 6.93314
-27.7143 0.452354 6.92492
-27.6974 0.496941 6.9168
-27.6807 0.54102 6.90898
-27.6639 0.585087 6.9012
-27.6472 0.628603 6.8938
-27.6306 0.671739 6.88668
-27.6138 0.714407 6.87969
-27.5944 0.756046 6.8712
-27.5763 0.798181 6.8636
-27.5589 0.84031 6.85664
-27.5415 0.88212 6.8501
-27.524 0.923981 6.84358
-27.5065 0.965602 6.83746
-27.4889 1.00707 6.83159
-27.4713 1.04834 6.82598
-27.4536 1.0895 6.8202
-27.4344 1.12993 6.81376
-27.415 1.17043 6.80751
-27.3914 1.20907 6.79903
-27.3725 1.25071 6.79309
-27.3536 1.29289 6.78747
-27.3347 1.33513 6.78198
-27.3157 1.37712 6.77679
-27.2968 1.41868 6.77177
-27.278 1.45992 6.76691
-27.2592 1.5012 6.76205
-27.2406 1.54265 6.75711
-27.2223 1.58438 6.75213
-27.2027 1.62569 6.74623
-27.1817 1.66849 6.74117
-27.1383 1.69583 6.72004
-27.1351 1.74979 6.7258
-27.1133 1.78961 6.71696
-27.0913 1.82967 6.70794
-27.0696 1.86988 6.6986
-27.0476 1.91016 6.68941
-27.0256 1.95061 6.68013
-27.0036 1.99112 6.67084
-26.9812 2.03132 6.661
-26.9582 2.07082 6.6503
-26.9348 2.10988 6.6392
-26.9129 2.15086 6.6304
-26.8938 2.19371 6.62469
-26.8729 2.23524 6.61738
-26.8518 2.27673 6.61035
-26.8304 2.31829 6.60348
-26.8083 2.35952 6.59602
-26.7874 2.40159 6.58956
-26.7666 2.44376 6.58308
-26.7454 2.48589 6.57679
-26.7238 2.52782 6.57034
-26.7016 2.56933 6.56293
-26.6806 2.61184 6.5584
-26.6605 2.65492 6.55626
-26.6401 2.69797 6.5541
-26.6199 2.74105 6.55179
-26.5994 2.78416 6.54959
-26.5788 2.82715 6.54753
-26.5579 2.87038 6.54551
-26.5373 2.91425 6.54393
-26.5179 2.95892 6.54462
-26.4986 3.00359 6.5452
-26.4938 3.05402 6.57374
-26.4534 3.08828 6.54664
-26.4342 3.13403 6.54517
-26.4166 3.17804 6.54628
-26.3991 3.22189 6.5474
-26.3806 3.26556 6.54795
-26.3614 3.30901 6.54807
-26.3425 3.35241 6.5481
-26.3232 3.39577 6.54824
-26.3025 3.43862 6.54639
-26.2814 3.48153 6.54482
-26.2615 3.52512 6.54547
-26.2413 3.56863 6.54662
-26.2211 3.612 6.5478
-26.2006 3.65513 6.54929
-26.1795 3.69806 6.55069
-26.1579 3.7407 6.55142
-26.1366 3.78351 6.55191
-26.1152 3.8262 6.55238
-26.0936 3.86886 6.55305
-26.0728 3.9117 6.55625
-26.0511 3.95414 6.55764
-26.029 3.99632 6.55932
-26.0066 4.03832 6.5612
-25.984 4.0801 6.56331
-25.9614 4.12193 6.56538
-25.9387 4.16362 6.56757
-25.916 4.20527 6.5698
-25.893 4.24672 6.5722
-25.8699 4.28795 6.57482
-25.8469 4.32931 6.57729
-25.824 4.37075 6.57964
-25.786 4.40563 6.55508
-25.7826 4.45703 6.58249
-25.7614 4.50003 6.58298
-25.7403 4.54304 6.58341
-25.7182 4.58524 6.58352
-25.695 4.62663 6.58382
-25.6714 4.66747 6.58478
-25.6479 4.7083 6.58567
-25.6243 4.74895 6.58671
-25.6008 4.7897 6.58765
-25.5772 4.83026 6.58876
-25.553 4.87039 6.58952
-25.5285 4.91021 6.59036
-25.504 4.95 6.59121
-25.4796 4.98982 6.59256
-25.4552 5.02957 6.59409
-25.4308 5.06938 6.59565
-25.4064 5.1094 6.59702
-25.382 5.14945 6.59841
-25.3573 5.18942 6.59971
-25.3304 5.22778 6.59917
-25.3036 5.26609 6.59864
-25.2755 5.30347 6.59723
-25.2476 5.341 6.59605
-25.2206 5.37906 6.59585
-25.1936 5.41711 6.59563
-25.1666 5.45504 6.59548
-25.1396 5.49293 6.59535
-25.1126 5.53074 6.59528
-25.0855 5.56849 6.59523
-25.0585 5.60624 6.5951
-25.0315 5.644 6.5949
-24.9792 5.66358 6.57017
-24.9779 5.71989 6.59386
-24.9512 5.75799 6.59307
-24.9246 5.79607 6.59224
-24.898 5.83416 6.59144
-24.8721 5.87306 6.59171
-24.8463 5.91177 6.59211
-24.8185 5.94888 6.59064
-24.7893 5.98448 6.58787
-24.7602 6.01992 6.58518
-24.7313 6.05507 6.5826
-24.7023 6.09012 6.58007
-24.6746 6.12602 6.57857
-24.6471 6.16206 6.57705
-24.6195 6.19808 6.57555
-24.5919 6.23409 6.57412
-24.5643 6.2702 6.57287
-24.5366 6.30636 6.57165
-24.5089 6.3426 6.57052
-24.481 6.37886 6.56944
-24.4531 6.41518 6.56841
-24.4253 6.4515 6.56733
-24.3973 6.48786 6.56626
-24.3691 6.52396 6.56492
-24.3407 6.56001 6.56356
-24.3124 6.596 6.56223
-24.2841 6.63198 6.56089
-24.2559 6.6681 6.55961
-24.2281 6.70456 6.5586
-24.2003 6.74101 6.5576
-24.1724 6.77755 6.55664
-24.1445 6.81466 6.55592
-24.1372 6.86717 6.5694
-24.0896 6.88955 6.55533
-24.0623 6.92679 6.55507
-24.0349 6.9641 6.55482
-24.0076 7.00143 6.55448
-23.9816 7.03969 6.55489
-23.9567 7.07876 6.55593
-23.9317 7.11794 6.55707
-23.9067 7.15709 6.55822
-23.8826 7.19663 6.55979
-23.8613 7.23752 6.56265
-23.8412 7.2791 6.56614
-23.8178 7.31933 6.56778
-23.7946 7.35945 6.56901
-23.7712 7.3997 6.57029
-23.7477 7.43997 6.57164
-23.7246 7.48065 6.57373
-23.7015 7.52144 6.57613
-23.6782 7.56213 6.57883
-23.6549 7.6027 6.58166
-23.6278 7.64104 6.58162
-23.6002 7.67903 6.58072
-23.5703 7.71537 6.57792
-23.5391 7.75073 6.57422
-23.5078 7.78586 6.57089
-23.4766 7.82049 6.56796
-23.4455 7.85485 6.56526
-23.4144 7.88937 6.56225
-23.3825 7.92317 6.55864
-23.3507 7.95688 6.55513
-23.3187 7.99079 6.55151
-23.2867 8.02382 6.54842
-23.2761 8.08158 6.55846
-23.2159 8.09746 6.53911
-23.1893 8.13583 6.53818
-23.1637 8.17502 6.53765
-23.1384 8.2146 6.53774
-23.1121 8.25344 6.53758
-23.0841 8.29088 6.53618
-23.0565 8.32831 6.53443
-23.0287 8.3657 6.53288
-23.0005 8.40315 6.53168
-22.9726 8.44099 6.53139
-22.946 8.47965 6.53213
-22.9193 8.51825 6.53308
-22.8926 8.55687 6.53396
-22.8675 8.59651 6.53604
-22.8428 8.6363 6.53844
-22.8182 8.67604 6.54077
-22.7937 8.7158 6.54293
-22.7692 8.75548 6.54502
-22.7444 8.79489 6.54695
-22.7196 8.83429 6.54898
-22.6947 8.87381 6.55098
-22.6699 8.91332 6.55328
-22.6451 8.95274 6.55577
-22.6203 8.9919 6.55847
-22.5956 9.03099 6.56112
-22.5693 9.06891 6.56294
-22.5419 9.10591 6.56419
-22.5143 9.14312 6.56573
-22.4879 9.18176 6.56847
-22.4618 9.22119 6.57168
-22.4355 9.26075 6.57496
-22.4428 9.321 6.59673
-22.384 9.33988 6.57957
-22.3581 9.37902 6.58097
-22.3314 9.41827 6.58319
-22.3047 9.45745 6.58545
-22.2811 9.49837 6.58956
-22.259 9.54028 6.5948
-22.2357 9.58184 6.59961
-22.2124 9.62323 6.60445
-22.1895 9.66427 6.60906
-22.1667 9.70493 6.61367
-22.1439 9.74551 6.61839
-22.1222 9.78651 6.62387
-22.1013 9.82814 6.62997
-22.0804 9.8698 6.6363
-22.0594 9.91141 6.64275
-22.0384 9.95298 6.64925
-22.0175 9.99456 6.65561
-21.9966 10.0361 6.66197
-21.9756 10.0775 6.66841
-21.9547 10.1189 6.67494
-21.9338 10.1603 6.68144
-21.9129 10.2016 6.68805
-21.8919 10.2429 6.69474
-21.8706 10.2839 6.70138
-21.8491 10.3249 6.70786
-21.8275 10.3659 6.71442
-21.8059 10.4067 6.72097
-21.7843 10.4476 6.72771
-21.7616 10.4881 6.73419
-21.7386 10.5285 6.74053
-21.7156 10.569 6.74679
-21.6648 10.5965 6.73549
-21.6703 10.6507 6.75775
-21.6479 10.6918 6.76261
-21.6254 10.7326 6.76777
-21.6018 10.7727 6.77195
-21.5779 10.8123 6.77713
-21.5536 10.8513 6.78259
-21.5289 10.8902 6.78772
-21.5043 10.9291 6.79284
-21.4796 10.968 6.79787
-21.455 11.0069 6.80281
-21.4305 11.0459 6.80772
-21.4059 11.0848 6.81259
-21.379 11.1224 6.81628
-21.3518 11.1599 6.8198
-21.3245 11.1975 6.82327
-21.2993 11.2363 6.82783
-21.2755 11.2757 6.8331
-21.2518 11.3152 6.83826
-21.2258 11.3536 6.84212
-21.1994 11.3918 6.84567
-21.1729 11.43 6.84937
-21.1464 11.4682 6.85308
-21.1198 11.5066 6.85673
-21.0931 11.545 6.86031
-21.0666 11.5834 6.86385
-21.0399 11.6219 6.86738
-21.0133 11.6605 6.87086
-20.986 11.699 6.87438
-20.9584 11.7374 6.87826
-20.9303 11.7756 6.88185
-20.9019 11.8139 6.88567
-20.8472 11.8342 6.87489
-20.8453 11.8905 6.89322
-20.817 11.9287 6.89684
-20.7888 11.967 6.90047
-20.7605 12.0053 6.9041
-20.7315 12.0431 6.90741
-20.7021 12.0809 6.91053
-20.6727 12.1187 6.91356
-20.6434 12.1565 6.91653
-20.614 12.1943 6.91954
-20.5849 12.2321 6.92249
-20.556 12.2701 6.92553
-20.5272 12.3082 6.92841
-20.4969 12.3452 6.93043
-20.4653 12.3813 6.93168
-20.4337 12.4173 6.93289
-20.4021 12.4533 6.93423
-20.3709 12.4898 6.93611
-20.3414 12.5275 6.93884
-20.312 12.5652 6.94151
-20.2827 12.6027 6.94404
-20.2534 12.6403 6.9465
-20.2243 12.6779 6.94869
-20.1953 12.7154 6.95072
-20.1664 12.7529 6.95258
-20.1374 12.7904 6.95459
-20.1085 12.8278 6.95639
-20.0798 12.8653 6.95799
-20.0513 12.9026 6.95928
-20.0229 12.94 6.96054
-19.9946 12.9773 6.96156
-19.9664 13.0145 6.96242
-19.9702 13.0758 6.97691
-19.9098 13.0897 6.96476
-19.8816 13.1273 6.96591
-19.8535 13.1648 6.96694
-19.8256 13.2023 6.96774
-19.7978 13.2397 6.96849
-19.7701 13.2769 6.96899
-19.7427 13.314 6.96934
-19.7153 13.351 6.9696
-19.6877 13.3881 6.97007
-19.6602 13.4249 6.97037
-19.6322 13.4612 6.97027
-19.6039 13.4969 6.96959
-19.5756 13.5328 6.96893
-19.5523 13.5717 6.97022
-19.5292 13.6106 6.97139
-19.5061 13.6494 6.97251
-19.4829 13.6882 6.97378
-19.4597 13.727 6.97508
-19.4366 13.7658 6.97628
-19.4135 13.8046 6.97746
-19.3909 13.8439 6.97902
-19.3683 13.8832 6.98044
-19.3458 13.9225 6.98173
-19.3235 13.9619 6.98277
-19.3019 14.0014 6.98387
-19.279 14.0403 6.98414
-19.2561 14.0792 6.98436
-19.233 14.1182 6.98468
-19.2101 14.157 6.98504
-19.1868 14.196 6.98572
-19.1634 14.2349 6.98671
-19.1899 14.3049 7.01943
-19.1127 14.3207 6.98846
-19.0915 14.3615 6.9918
-19.0708 14.4022 6.99598
-19.0498 14.4426 7.00064
-19.0288 14.4833 7.00525
-19.0075 14.5242 7.01014
-18.9861 14.565 7.01522
-18.9647 14.6059 7.02035
-18.9434 14.6468 7.02527
-18.9214 14.6876 7.02972
-18.8994 14.7284 7.03416
-18.8772 14.7694 7.03866
-18.8553 14.8104 7.04341
-18.8335 14.8517 7.04825
-18.8117 14.893 7.05302
-18.7891 14.934 7.05723
-18.7661 14.9748 7.06119
-18.7431 15.0157 7.06496
-18.7202 15.0566 7.06857
-18.6973 15.0977 7.07195
-18.6745 15.1388 7.07535
-18.6524 15.1803 7.07893
-18.6307 15.2221 7.08259
-18.6091 15.2639 7.08612
-18.5875 15.3057 7.0898
-18.5658 15.3476 7.09336
-18.5443 15.3895 7.09682
-18.5229 15.4313 7.10002
-18.5016 15.4732 7.10307
-18.4803 15.515 7.10599
-18.4597 15.5572 7.10965
-18.4468 15.6027 7.11758
-18.4182 15.6411 7.11701
-18.3975 15.6829 7.12064
-18.3769 15.7246 7.1242
-18.3564 15.7662 7.12757
-18.336 15.8079 7.13089
-18.3157 15.8495 7.13393
-18.2955 15.8912 7.13679
-18.2753 15.9329 7.13945
-18.2549 15.9745 7.14217
-18.2319 16.015 7.14327
-18.2103 16.0563 7.14485
-18.1903 16.0982 7.14705
-18.1699 16.14 7.14897
-18.1495 16.1817 7.15057
-18.1293 16.2235 7.152
-18.1092 16.2652 7.15332
-18.089 16.3067 7.15483
-18.0689 16.3482 7.15629
-18.0482 16.3894 7.1572
-18.0275 16.4308 7.15803
-18.0079 16.4727 7.15951
-17.9883 16.5148 7.16082
-17.9687 16.557 7.16204
-17.9489 16.5993 7.16299
-17.9288 16.6411 7.16367
-17.9087 16.6832 7.16435
-17.8886 16.7256 7.16504
-17.8679 16.768 7.16548
-17.8471 16.8105 7.1659
-17.8261 16.8534 7.16654
-17.8048 16.8966 7.16734
-17.7767 16.937 7.16439
-17.7615 16.9834 7.16967
-17.7396 17.0269 7.17117
-17.7175 17.0707 7.17281
-17.6952 17.1147 7.17464
-17.6725 17.1587 7.17631
-17.648 17.2018 7.17685
-17.6256 17.246 7.1785
-17.6033 17.2902 7.17994
-17.5798 17.3337 7.18064
-17.5559 17.3767 7.18068
-17.532 17.4197 7.18056
-17.5084 17.4625 7.18024
-17.4854 17.5057 7.18032
-17.4637 17.5493 7.18106
-17.4421 17.5928 7.18169
-17.4203 17.6363 7.18239
-17.3982 17.6802 7.18338
-17.3757 17.7237 7.18405
-17.3526 17.7665 7.18395
-17.33 17.809 7.18346
-17.3075 17.8513 7.1829
-17.2856 17.8931 7.18181
-17.2635 17.9342 7.17993
-17.2414 17.9747 7.17745
-17.2188 18.0156 7.17532
-17.1957 18.0557 7.17221
-17.1725 18.095 7.16828
-17.1501 18.1337 7.16375
-17.1278 18.1724 7.15924
-17.106 18.2105 7.15409
-17.0844 18.2483 7.14845
-17.0503 18.2777 7.1338
-17.0409 18.3246 7.13696
-17.0193 18.3632 7.13142
-16.9986 18.4023 7.12603
-16.9762 18.439 7.11881
-16.9529 18.4746 7.11111
-16.9304 18.5094 7.1031
-16.9082 18.5441 7.09474
-16.8864 18.5785 7.08622
-16.8641 18.6131 7.07799
-16.8421 18.6476 7.06963
-16.8202 18.6817 7.06092
-16.7985 18.7152 7.05167
-16.7768 18.7487 7.04239
-16.7555 18.7819 7.03274
-16.7333 18.8141 7.02229
-16.7097 18.8445 7.0107
-16.6862 18.8749 6.99919
-16.6627 18.9053 6.98761
-16.6391 18.9358 6.97596
-16.6154 18.9664 6.96436
-16.5916 18.997 6.95288
-16.5675 19.0279 6.94153
-16.5428 19.0588 6.93015
-16.517 19.0892 6.9182
-16.4915 19.1194 6.90585
-16.4642 19.1487 6.89288
-16.434 19.1758 6.87922
-16.4026 19.2038 6.8658
-16.3712 19.2317 6.85236
-16.3387 19.2604 6.83952
-16.3052 19.2896 6.82699
-16.2496 19.2913 6.80649
-16.2363 19.3488 6.80439
-16.2011 19.378 6.79362
-16.1657 19.4075 6.78215
-16.1277 19.4348 6.77032
-16.0896 19.461 6.75835
-16.0506 19.4875 6.74682
-16.0107 19.5144 6.73547
-15.9703 19.5416 6.72424
-15.9299 19.5672 6.71236
-15.8888 19.5924 6.70024
-15.8468 19.6171 6.68785
-15.8036 19.6414 6.67519
-15.7603 19.6657 6.66256
-15.7165 19.6903 6.64985
-15.6721 19.7142 6.63681
-15.6277 19.7378 6.62354
-15.5828 19.7598 6.60994
-15.5365 19.7773 6.59483
-15.4902 19.7947 6.57946
-15.4441 19.8123 6.56376
-15.398 19.8298 6.54806
-15.3521 19.847 6.53191
-15.3064 19.8644 6.5154
-15.2618 19.8849 6.49982
-15.2166 19.9055 6.48452
-15.1711 19.9238 6.46833
-15.1261 19.9417 6.45181
-15.0822 19.9594 6.43497
-15.0385 19.9771 6.41802
-14.996 19.9946 6.40084
-14.9538 20.0105 6.38262
-14.9097 20.0164 6.36201
-14.8681 20.0372 6.34592
-14.8263 20.0523 6.32869
-14.7852 20.0668 6.31102
-14.745 20.0788 6.2924
-14.7052 20.0908 6.27366
-14.6668 20.1026 6.25446
-14.6294 20.1144 6.23498
-14.5927 20.1262 6.21514
-14.5552 20.1381 6.19539
-14.5188 20.154 6.17655
-14.4833 20.1709 6.15791
-14.4488 20.1878 6.13875
-14.4145 20.2046 6.11954
-14.3808 20.2214 6.10008
-14.3474 20.2382 6.08048
-14.3138 20.255 6.06107
-14.2794 20.2707 6.04168
-14.2446 20.2859 6.02231
-14.2098 20.3012 6.00284
-14.1751 20.3165 5.98313
-14.1404 20.3315 5.96308
-14.1058 20.3453 5.94209
-14.0713 20.3592 5.92082
-14.0371 20.3732 5.89929
-14.003 20.3871 5.878
-13.9691 20.4011 5.85641
-13.9352 20.4152 5.83447
-13.9012 20.4295 5.81206
-13.8673 20.4438 5.78967
-13.8331 20.4578 5.76666
-13.7987 20.4717 5.74322
-13.7647 20.491 5.7216
-13.7287 20.4997 5.69629
-13.6943 20.5168 5.67429
-13.6597 20.5341 5.65202
-13.6243 20.5503 5.62915
-13.5893 20.5684 5.60686
-13.5542 20.5875 5.58468
-13.5189 20.6067 5.56238
-13.4836 20.6269 5.54025
-13.4485 20.647 5.51813
-13.4134 20.6671 5.49602
-13.3782 20.6873 5.47394
-13.3424 20.7062 5.45154
-13.306 20.7232 5.42857
-13.2695 20.7402 5.40579
-13.2329 20.7571 5.38317
-13.1976 20.7778 5.36185
-13.1627 20.7988 5.34037
-13.1277 20.8196 5.31902
-13.0924 20.8406 5.29811
-13.059 20.8659 5.27897
-13.026 20.8918 5.2595
-12.9924 20.9173 5.24066
-12.9565 20.939 5.22188
-12.9201 20.9609 5.20362
-12.8837 20.9829 5.18479
-12.8472 21.0052 5.16672
-12.8138 21.0334 5.15052
-12.7808 21.0632 5.13548
-12.7482 21.0928 5.12043
-12.7157 21.1223 5.10565
-12.683 21.1518 5.0911
-12.6543 21.1856 5.07685
-12.6189 21.2104 5.06001
-12.5874 21.2393 5.04354
-12.5558 21.2682 5.02732
-12.5242 21.2971 5.01163
-12.4927 21.3263 4.99622
-12.4611 21.356 4.98195
-12.4293 21.3858 4.96837
-12.3973 21.4157 4.95545
-12.3654 21.4455 4.94189
-12.3332 21.4755 4.92917
-12.3006 21.5057 4.91736
-12.2676 21.5361 4.90689
-12.2345 21.5664 4.89655
-12.2019 21.5982 4.88754
-12.1691 21.63 4.87932
-12.1361 21.6619 4.87142
-12.1035 21.6937 4.86257
-12.0708 21.7255 4.85391
-12.0378 21.7574 4.8459
-12.0041 21.789 4.83867
-11.9704 21.8206 4.83144
-11.9364 21.8524 4.82521
-11.9021 21.8842 4.8196
-11.8676 21.9163 4.81488
-11.8326 21.9478 4.81008
-11.7969 21.9787 4.80561
-11.7606 22.0088 4.80116
-11.7259 22.0409 4.79704
-11.6914 22.0733 4.79323
-11.6571 22.1057 4.78878
-11.623 22.138 4.78374
-11.5973 22.1785 4.77786
-11.5553 22.201 4.76943
-11.5215 22.2322 4.76103
-11.4878 22.2632 4.7521
-11.4544 22.2942 4.74267
-11.4208 22.3251 4.73346
-11.3873 22.356 4.72461
-11.3537 22.387 4.71602
-11.3199 22.4177 4.70796
-11.2859 22.4485 4.69974
-11.2517 22.4794 4.69256
-11.2174 22.5103 4.68616
-11.1828 22.5412 4.68105
-11.1481 22.5722 4.67611
-11.1129 22.6028 4.6721
-11.0772 22.6329 4.66879
-11.041 22.6619 4.66527
-11.0042 22.6894 4.66019
-10.9672 22.7164 4.65524
-10.9296 22.7432 4.65124
-10.8914 22.7703 4.6488
-10.853 22.7975 4.64661
-10.8138 22.8249 4.64644
-10.7741 22.8527 4.64764
-10.7341 22.8804 4.65005
-10.6949 22.9078 4.65132
-10.6552 22.9353 4.65377
-10.6149 22.9634 4.65756
-10.5735 22.9923 4.66331
-10.5316 23.0209 4.66935
-10.4878 23.0496 4.67664
-10.4435 23.0787 4.68483
-10.348 23.0353 4.68462
-10.3467 23.1384 4.69514
-10.3001 23.1659 4.70295
-10.2536 23.1924 4.70971
-10.2065 23.2189 4.71753
-10.1591 23.2456 4.7255
-10.1112 23.2725 4.73486
-10.063 23.2994 4.74519
-10.0147 23.3264 4.75638
-9.96654 23.3533 4.76684
-9.9176 23.3787 4.77791
-9.86844 23.4037 4.78979
-9.81925 23.4286 4.8028
-9.77005 23.4534 4.81592
-9.72028 23.477 4.82973
-9.67056 23.5003 4.84405
-9.6193 23.5205 4.85811
-9.56752 23.5402 4.87163
-9.51595 23.5599 4.88498
-9.46473 23.5794 4.89844
-9.41417 23.5986 4.91197
-9.3637 23.6178 4.92558
-9.31351 23.6353 4.93902
-9.26335 23.6509 4.95211
-9.2135 23.6665 4.96532
-9.16288 23.6823 4.97884
-9.11308 23.6987 4.99228
-9.06421 23.7151 5.00534
-9.01615 23.7301 5.01762
-8.96807 23.7447 5.02994
-8.92078 23.7579 5.04108
-8.87395 23.77 5.05151
-8.82288 23.767 5.05924
-8.77845 23.7928 5.07187
-8.73072 23.8033 5.0816
-8.6838 23.8136 5.09039
-8.63814 23.8233 5.09786
-8.59233 23.8311 5.10493
-8.54777 23.8381 5.11063
-8.50388 23.8443 5.11533
-8.46077 23.8506 5.11941
-8.41706 23.8568 5.12427
-8.37394 23.8631 5.12876
-8.33144 23.8694 5.13265
-8.28983 23.8756 5.13567
-8.2484 23.8818 5.13845
-8.20747 23.8881 5.14068
-8.16676 23.8944 5.14265
-8.1258 23.9008 5.14479
-8.0842 23.9071 5.14757
-8.04217 23.9135 5.1507
-8.00022 23.9202 5.15374
-7.95839 23.927 5.15659
-7.91675 23.9338 5.15932
-7.87544 23.9408 5.16163
-7.83429 23.9477 5.16371
-7.79337 23.9546 5.16545
-7.75236 23.9617 5.16726
-7.71152 23.9685 5.16878
-7.67081 23.9748 5.17005
-7.63033 23.9811 5.17112
-7.5898 23.9874 5.17216
-7.54946 23.9937 5.17321
-7.50926 23.9999 5.17431
-7.46692 23.992 5.17346
-7.42899 24.0123 5.17702
-7.38875 24.0178 5.17863
-7.34858 24.0226 5.18035
-7.30835 24.0277 5.18225
-7.26809 24.0329 5.18413
-7.2275 24.0381 5.18602
-7.18667 24.0434 5.18792
-7.14551 24.0487 5.18979
-7.10448 24.054 5.19162
-7.06308 24.0594 5.19336
-7.02163 24.0664 5.19524
-6.97961 24.0734 5.19701
-6.93735 24.0805 5.19878
-6.89481 24.0875 5.20045
-6.85185 24.0924 5.20181
-6.8093 24.0976 5.20312
-6.76772 24.104 5.20459
-6.7263 24.1103 5.20601
-6.68452 24.1167 5.20737
-6.64203 24.1232 5.20868
-6.59933 24.1299 5.21004
-6.55554 24.1369 5.21137
-6.51098 24.144 5.21268
-6.46604 24.1527 5.21401
-6.42217 24.1627 5.21535
-6.37725 24.1719 5.21669
-6.33136 24.1812 5.21808
-6.28406 24.1909 5.21951
-6.23669 24.2005 5.22092
-6.18804 24.2104 5.22239
-6.13859 24.2205 5.2239
-6.08506 24.2141 5.22557
-6.03679 24.2343 5.22741
-5.98674 24.2401 5.22896
-5.93592 24.246 5.23061
-5.88393 24.2495 5.2322
-5.83196 24.2527 5.23355
-5.77916 24.2575 5.23522
-5.72569 24.2624 5.23708
-5.67152 24.2673 5.23899
-5.61768 24.2722 5.24074
-5.56344 24.2771 5.24246
-5.50891 24.2836 5.24442
-5.45432 24.2931 5.24685
-5.40015 24.3042 5.2496
-5.34559 24.3153 5.25237
-5.29096 24.3275 5.25528
-5.23691 24.3428 5.2584
-5.18292 24.358 5.26133
-5.12858 24.3714 5.26394
-5.07442 24.3846 5.26657
-5.02063 24.3978 5.26928
-4.96687 24.4109 5.27208
-4.91364 24.4239 5.27501
-4.86088 24.4368 5.27799
-4.80838 24.4496 5.28103
-4.75521 24.4626 5.28403
-4.70279 24.4761 5.28711
-4.65186 24.4919 5.29036
-4.60206 24.5075 5.29385
-4.55241 24.5229 5.29731
-4.50392 24.5381 5.30103
-4.45624 24.5529 5.30494
-4.40611 24.5585 5.30912
-4.36072 24.5827 5.31308
-4.31296 24.5976 5.31725
-4.26607 24.6123 5.32153
-4.22038 24.6262 5.32595
-4.17479 24.6398 5.33039
-4.13052 24.653 5.33485
-4.08711 24.666 5.33929
-4.04433 24.6788 5.34364
-4.00094 24.6923 5.34798
-3.95781 24.7051 5.35216
-3.91516 24.7173 5.35624
-3.87318 24.7285 5.36014
-3.83082 24.7377 5.36399
-3.78893 24.7464 5.36774
-3.74732 24.7551 5.37139
-3.70583 24.7638 5.37519
-3.66405 24.7723 5.37936
-3.62207 24.7808 5.38356
-3.58004 24.7894 5.38755
-3.53786 24.798 5.39115
-3.49572 24.8068 5.39466
-3.45341 24.8157 5.3976
-3.41068 24.8241 5.40015
-3.36747 24.8296 5.40235
-3.32475 24.835 5.40494
-3.28165 24.8405 5.40714
-3.23792 24.8453 5.40884
-3.19329 24.85 5.4098
-3.1486 24.8548 5.41068
-3.10289 24.8597 5.41089
-3.05657 24.8651 5.4106
-3.00833 24.8597 5.41009
-2.9633 24.8762 5.41016
-2.91633 24.8818 5.41011
-2.8686 24.8875 5.40965
-2.81966 24.8908 5.40867
-2.77075 24.8931 5.40767
-2.72081 24.8947 5.40606
-2.67011 24.8964 5.40403
-2.61888 24.8981 5.40167
-2.56823 24.8998 5.39967
-2.51731 24.9014 5.39743
-2.46587 24.8973 5.39495
-2.41359 24.8921 5.3921
-2.36133 24.8871 5.38924
-2.30857 24.8826 5.386
-2.25552 24.878 5.38252
-2.20247 24.8734 5.37882
-2.14974 24.8688 5.37519
-2.09741 24.8637 5.37157
-2.04525 24.8577 5.36796
-1.99329 24.8515 5.36446
-1.94129 24.845 5.361
-1.88931 24.8396 5.35777
-1.83746 24.8352 5.35478
-1.78551 24.8311 5.35188
-1.73319 24.8262 5.34858
-1.68094 24.8229 5.34562
-1.62896 24.8224 5.34322
-1.57752 24.8219 5.34142
-1.52617 24.8213 5.33969
-1.47554 24.8207 5.33866
-1.42544 24.8201 5.33817
-1.37581 24.8171 5.33787
-1.32567 24.8189 5.33729
-1.27598 24.8203 5.33715
-1.22695 24.8197 5.33759
-1.1788 24.8194 5.33877
-1.13075 24.8192 5.33998
-1.08345 24.819 5.34185
-1.03664 24.8188 5.34416
-0.989981 24.8186 5.34676
-0.942657 24.8184 5.349
-0.895419 24.8182 5.35133
-0.848532 24.818 5.3539
-0.802402 24.8129 5.35662
-0.75689 24.8054 5.35928
-0.71159 24.7979 5.36214
-0.666411 24.7903 5.36506
-0.621332 24.7825 5.36804
-0.576268 24.7744 5.37101
-0.531138 24.7663 5.37382
-0.485976 24.7582 5.37647
-0.440669 24.7502 5.37887
-0.395264 24.7424 5.38129
-0.349576 24.7353 5.38338
-0.303429 24.7307 5.38521
-0.257338 24.7252 5.38689
-0.211524 24.7196 5.38893
-0.165616 24.7131 5.39068
-0.119145 24.7084 5.39209
-0.0719787 24.7059 5.39289
-0.0247823 24.703 5.39362
0.0229259 24.6995 5.39377
0.0711783 24.6971 5.39349
0.119915 24.6976 5.39281
0.16798 24.6924 5.393
0.216501 24.69 5.39274
0.265444 24.688 5.39202
0.314974 24.6859 5.39066
0.364566 24.6838 5.38924
0.414651 24.6817 5.38716
0.465041 24.6795 5.38463
0.515574 24.6767 5.38179
0.56571 24.6726 5.37942
0.615908 24.6684 5.37679
0.66625 24.6636 5.37389
0.716716 24.6578 5.3706
0.767186 24.6521 5.36722
0.817832 24.6464 5.36356
0.868557 24.6406 5.35975
0.919475 24.6352 5.35596
0.970483 24.6299 5.35245
1.02143 24.6246 5.3491
1.07215 24.6184 5.34581
1.12255 24.6115 5.34251
1.17293 24.6051 5.33913
1.22276 24.5972 5.33577
1.27229 24.5893 5.33235
1.32168 24.5814 5.32884
1.37157 24.5738 5.3253
1.42125 24.567 5.32165
1.47044 24.5604 5.31798
1.5189 24.5538 5.31423
1.56754 24.5488 5.31034
1.61534 24.5441 5.30645
1.66223 24.5371 5.30284
1.70833 24.5279 5.29944
1.75556 24.5232 5.29531
1.80203 24.5163 5.29148
1.84789 24.509 5.2878
1.89296 24.5015 5.28432
1.93798 24.494 5.28083
1.98239 24.4866 5.27763
2.02643 24.4793 5.27464
2.07022 24.472 5.27194
2.11437 24.465 5.26912
2.15869 24.4594 5.26644
2.20293 24.454 5.26391
2.24715 24.4492 5.26166
2.29118 24.4432 5.25967
2.33516 24.4367 5.25781
2.37919 24.4301 5.25597
2.42324 24.4236 5.25372
2.46702 24.4163 5.25101
2.51081 24.4078 5.24806
2.55488 24.3991 5.24526
2.59945 24.3906 5.2428
2.64431 24.3836 5.2405
2.68974 24.3766 5.23888
2.73561 24.3694 5.23771
2.78198 24.3638 5.23703
2.82806 24.3598 5.23611
2.87463 24.3559 5.2356
2.92182 24.3527 5.23572
2.96985 24.3491 5.23652
3.01797 24.3449 5.23727
3.06677 24.3405 5.23867
3.11596 24.336 5.24051
3.16646 24.3453 5.24457
3.21497 24.3307 5.24503
3.26343 24.33 5.24729
3.31248 24.3288 5.24988
3.36219 24.3268 5.25293
3.41215 24.3249 5.25602
3.46316 24.3228 5.25962
3.51482 24.3207 5.26356
3.56711 24.3181 5.2677
3.61882 24.3138 5.27142
3.67114 24.3094 5.27522
3.72406 24.3049 5.27921
3.77781 24.3 5.28336
3.83167 24.295 5.2875
3.88606 24.2899 5.29176
3.94077 24.2851 5.29607
3.99535 24.2805 5.30049
4.04931 24.2759 5.305
4.10299 24.2713 5.30937
4.15684 24.2663 5.31351
4.21053 24.2576 5.31708
4.26427 24.2487 5.32059
4.31854 24.2398 5.32366
4.37314 24.2309 5.32638
4.42814 24.2219 5.32886
4.48315 24.214 5.33181
4.53887 24.2088 5.33459
4.59499 24.2042 5.33697
4.65163 24.2005 5.33872
4.70822 24.1969 5.34029
4.76505 24.1932 5.34129
4.82207 24.1902 5.34191
4.87914 24.1867 5.34257
4.93623 24.1856 5.34387
4.99313 24.1835 5.34511
5.04995 24.181 5.34588
5.10645 24.1759 5.34595
5.16299 24.1709 5.34591
5.21934 24.1656 5.34486
5.27535 24.158 5.3432
5.33094 24.1484 5.34097
5.38657 24.1388 5.33929
5.44208 24.1295 5.33699
5.4975 24.1202 5.33405
5.55249 24.1095 5.3302
5.60696 24.0963 5.32627
5.66139 24.0833 5.32171
5.716 24.0717 5.31669
5.77062 24.0601 5.31182
5.82543 24.0482 5.30779
5.87973 24.0344 5.30406
5.93359 24.0196 5.30005
5.98723 24.0049 5.29548
6.04084 23.9901 5.29074
6.09411 23.9754 5.28517
6.14709 23.9605 5.27914
6.19909 23.9431 5.27264
6.25084 23.9245 5.2665
6.30245 23.906 5.25997
6.35391 23.8875 5.25301
6.40522 23.8695 5.24544
6.45611 23.8506 5.23777
6.50648 23.8308 5.22967
6.55626 23.8098 5.22136
6.60636 23.7892 5.21299
6.65641 23.7676 5.2051
6.70671 23.7465 5.19727
6.75662 23.7247 5.18933
6.80565 23.7015 5.18122
6.85437 23.6779 5.17307
6.90272 23.6545 5.16461
6.95083 23.6311 5.156
6.99858 23.6076 5.14728
7.04586 23.5825 5.1388
7.0929 23.5576 5.13027
7.13965 23.5328 5.12164
7.1857 23.5078 5.11298
7.23056 23.4807 5.10458
7.27511 23.4539 5.09608
7.31943 23.4272 5.08755
7.36368 23.4004 5.07877
7.40901 23.3748 5.06961
7.45472 23.3499 5.06033
7.49922 23.3234 5.0515
7.5429 23.2963 5.04312
7.58628 23.2688 5.03483
7.62921 23.2416 5.02707
7.67188 23.2147 5.01973
7.71416 23.188 5.01272
7.75649 23.1612 5.00528
7.79857 23.1347 4.99833
7.8405 23.1082 4.99203
7.88166 23.081 4.98654
7.92283 23.0538 4.98087
7.96488 23.0281 4.97591
8.00792 23.0037 4.97137
8.05673 22.9882 4.96714
8.09571 22.9541 4.96182
8.14106 22.9304 4.9569
8.18659 22.9075 4.95247
8.23161 22.8836 4.94874
8.27619 22.859 4.94508
8.32031 22.8347 4.94226
8.36628 22.8144 4.94018
8.41298 22.7969 4.93874
8.45931 22.7787 4.93692
8.505 22.7605 4.93541
8.5511 22.7444 4.93444
8.59721 22.7298 4.93412
8.64322 22.7149 4.93383
8.68881 22.7001 4.93386
8.7341 22.6853 4.93406
8.77929 22.6706 4.93432
8.82544 22.6575 4.9346
8.87205 22.6462 4.93494
8.91855 22.6354 4.93533
8.96512 22.6268 4.93589
9.01159 22.6182 4.93649
9.05804 22.6117 4.93724
9.10438 22.6061 4.93798
9.15061 22.6006 4.93873
9.19713 22.5953 4.93969
9.24344 22.59 4.94051
9.28952 22.5853 4.94117
9.33518 22.5807 4.94151
9.38082 22.5762 4.94179
9.42601 22.5717 4.94168
9.47089 22.5673 4.94129
9.51568 22.5647 4.94094
9.56059 22.5601 4.94079
9.60545 22.5589 4.94065
9.6501 22.5567 4.94014
9.69442 22.5545 4.93917
9.73885 22.5533 4.93824
9.78301 22.5562 4.93697
9.82714 22.559 4.93538
9.87131 22.5616 4.93349
9.91562 22.5632 4.9318
9.95998 22.5646 4.92985
10.0042 22.5683 4.92779
10.0485 22.5721 4.92539
10.0928 22.5759 4.92288
10.1372 22.5796 4.92021
10.1815 22.5837 4.91752
10.2258 22.5867 4.915
10.2698 22.5897 4.91279
10.3138 22.5926 4.91084
10.3578 22.5955 4.90888
10.4022 22.5982 4.9068
10.4467 22.5984 4.90442
10.4918 22.5979 4.90171
10.5372 22.5968 4.8988
10.5828 22.596 4.89576
10.6281 22.5955 4.89293
10.6737 22.595 4.88986
10.7198 22.5944 4.88651
10.7667 22.594 4.88276
10.8137 22.5941 4.87907
10.8615 22.5945 4.87496
10.91 22.5942 4.87047
10.9585 22.5863 4.86532
11.0074 22.5888 4.86122
11.0551 22.582 4.85573
11.1038 22.5765 4.85039
11.1533 22.5709 4.84487
