BEGIN_Polyline
-29.5275 -4.04161 7.94876
-29.5064 -3.99905 7.94474
-29.4863 -3.95684 7.94046
-29.4665 -3.91415 7.93556
-29.4514 -3.87053 7.933
-29.4374 -3.82836 7.9309
-29.4243 -3.7864 7.92779
-29.4116 -3.74504 7.92451
-29.3228 -3.72783 7.8552
-29.3649 -3.64413 7.88924
-29.3443 -3.60397 7.88205
-29.324 -3.5634 7.87396
-29.3046 -3.52367 7.86548
-29.2853 -3.48358 7.85651
-29.2672 -3.44414 7.84643
-29.2489 -3.40595 7.83509
-29.2308 -3.36877 7.82249
-29.2123 -3.33132 7.8102
-29.1947 -3.29425 7.79718
-29.1784 -3.25714 7.78397
-29.1632 -3.22037 7.76995
-29.1481 -3.18355 7.75585
-29.1344 -3.14632 7.7419
-29.1235 -3.10775 7.72949
-29.1125 -3.06889 7.71703
-29.1008 -3.02978 7.70516
-29.0889 -2.99031 7.69343
-29.077 -2.95074 7.68147
-29.0654 -2.91106 7.66922
-29.0538 -2.87147 7.65687
-29.0427 -2.83196 7.64413
-29.0319 -2.79231 7.63142
-29.0229 -2.75213 7.61949
-29.014 -2.71202 7.60759
-29.0051 -2.67207 7.59558
-28.9963 -2.6322 7.58353
-28.9876 -2.59239 7.57148
-28.9788 -2.55252 7.55941
-28.9699 -2.51268 7.54754
-28.9602 -2.47376 7.53456
-28.9569 -2.4309 7.52812
-28.9389 -2.39616 7.50858
-28.9286 -2.35649 7.49728
-28.9216 -2.31539 7.48893
-28.9108 -2.27572 7.47849
-28.9001 -2.23609 7.4676
-28.8885 -2.19651 7.45648
-28.8759 -2.15708 7.44525
-28.8631 -2.11745 7.43414
-28.8506 -2.07796 7.42279
-28.8379 -2.03823 7.41146
-28.8251 -1.9983 7.40026
-28.8119 -1.95802 7.38925
-28.7988 -1.91756 7.37841
-28.7864 -1.8765 7.36821
-28.7738 -1.83529 7.35807
-28.7614 -1.79425 7.34785
-28.7493 -1.75366 7.33745
-28.7373 -1.71316 7.32695
-28.7252 -1.67247 7.31649
-28.7128 -1.63139 7.3061
-28.7004 -1.59013 7.29572
-28.6876 -1.54834 7.2855
-28.6741 -1.50647 7.27503
-28.66 -1.46452 7.26455
-28.6464 -1.42273 7.25425
-28.6299 -1.38211 7.24241
-28.6132 -1.3412 7.23065
-28.596 -1.29942 7.21892
-28.5784 -1.25693 7.20709
-28.565 -1.21157 7.19809
-28.5516 -1.16578 7.18917
-28.553 -1.11398 7.18934
-28.5256 -1.07515 7.17083
-28.513 -1.03051 7.16146
-28.5003 -0.985635 7.15209
-28.4873 -0.940356 7.14279
-28.4733 -0.895279 7.13289
-28.4587 -0.849727 7.12309
-28.446 -0.803039 7.11469
-28.433 -0.756077 7.10645
-28.4203 -0.709427 7.09805
-28.4074 -0.662577 7.08987
-28.3942 -0.615443 7.08192
-28.3807 -0.567925 7.07432
-28.3664 -0.520674 7.06634
-28.3513 -0.473261 7.0584
-28.335 -0.426118 7.05002
-28.3179 -0.379187 7.04118
-28.301 -0.332414 7.03198
-28.2842 -0.285664 7.02279
-28.2672 -0.238871 7.01381
-28.25 -0.192068 7.00517
-28.2327 -0.145249 6.99663
-28.2152 -0.0984971 6.98851
-28.1976 -0.051833 6.98064
-28.1789 -0.00571346 6.97242
-28.1596 0.0402588 6.9638
-28.142 0.0868071 6.95612
-28.1243 0.133164 6.94864
-28.1067 0.179192 6.94144
-28.0891 0.225173 6.93435
-28.0715 0.270824 6.92738
-28.0541 0.316234 6.92047
-28.0141 0.351271 6.90287
-28.0194 0.407245 6.90598
-28.0022 0.452776 6.89839
-27.9851 0.49801 6.89085
-27.9677 0.542562 6.88326
-27.9501 0.586804 6.87557
-27.9325 0.630545 6.86817
-27.9149 0.674013 6.86098
-27.8974 0.717268 6.85398
-27.8799 0.760802 6.84676
-27.8622 0.80419 6.8398
-27.8446 0.847334 6.83314
-27.8269 0.890176 6.82692
-27.8092 0.933019 6.82073
-27.791 0.975383 6.81475
-27.7711 1.01673 6.80824
-27.7512 1.058 6.80194
-27.7313 1.09937 6.7954
-27.7113 1.14077 6.78899
-27.6913 1.18213 6.78282
-27.6711 1.22351 6.7769
-27.6509 1.26491 6.7709
-27.6326 1.30747 6.76623
-27.6145 1.35024 6.76196
-27.5941 1.3917 6.7567
-27.5737 1.43297 6.7516
-27.5532 1.47431 6.74661
-27.5338 1.51637 6.74211
-27.5135 1.55841 6.73719
-27.4919 1.5998 6.73168
-27.4693 1.64126 6.72541
-27.4468 1.68303 6.71874
-27.4051 1.71297 6.69813
-27.4003 1.76767 6.70554
-27.3771 1.81016 6.69841
-27.354 1.85191 6.68894
-27.3311 1.89401 6.67905
-27.3079 1.93616 6.66934
-27.2847 1.97842 6.6596
-27.2613 2.02057 6.64963
-27.2371 2.06196 6.63901
-27.213 2.10319 6.62848
-27.1888 2.14414 6.61825
-27.1642 2.18473 6.60797
-27.1392 2.22481 6.59752
-27.1148 2.26601 6.58716
-27.0949 2.31025 6.58264
-27.0748 2.35444 6.57821
-27.0545 2.39871 6.5739
-27.0342 2.44301 6.56964
-27.0137 2.48708 6.56558
-26.9917 2.53002 6.55956
-26.9694 2.57241 6.55338
-26.9478 2.61513 6.54796
-26.9264 2.65734 6.54267
-26.9049 2.69923 6.53758
-26.8835 2.7407 6.53259
-26.8654 2.78441 6.53279
-26.8479 2.82849 6.53453
-26.8281 2.87151 6.5338
-26.8087 2.91409 6.53379
-26.7896 2.95651 6.53359
-26.771 2.99822 6.53332
-26.7525 3.03948 6.5331
-26.7449 3.08523 6.55228
-26.7163 3.12186 6.53231
-26.6985 3.16296 6.53177
-26.6808 3.20356 6.53126
-26.6634 3.24343 6.53083
-26.6459 3.28322 6.53046
-26.6283 3.32233 6.53025
-26.6108 3.36103 6.53025
-26.5933 3.39944 6.53033
-26.5758 3.4383 6.53028
-26.558 3.47702 6.53038
-26.5401 3.51541 6.53068
-26.5219 3.5534 6.53127
-26.5037 3.59135 6.5319
-26.4851 3.62894 6.53281
-26.4663 3.66632 6.5339
-26.4474 3.70346 6.53491
-26.4289 3.74065 6.53566
-26.4104 3.77792 6.53679
-26.3916 3.81523 6.53809
-26.3723 3.85264 6.53965
-26.353 3.89006 6.54124
-26.333 3.92774 6.5431
-26.3127 3.96565 6.54515
-26.2919 4.00374 6.54735
-26.2716 4.04156 6.54943
-26.2508 4.07973 6.5516
-26.2297 4.11826 6.55391
-26.2084 4.15761 6.55691
-26.1861 4.19667 6.55854
-26.1635 4.23659 6.56007
-26.1407 4.27707 6.56152
-26.1004 4.30905 6.53335
-26.0964 4.35849 6.5636
-26.0748 4.39939 6.56425
-26.0529 4.44083 6.56486
-26.0307 4.48306 6.56544
-26.0085 4.52538 6.56603
-25.9855 4.56832 6.56685
-25.9626 4.61185 6.56859
-25.9388 4.65542 6.57044
-25.9149 4.69837 6.57181
-25.8899 4.74097 6.5728
-25.8644 4.78382 6.57407
-25.8386 4.82708 6.57555
-25.8128 4.8705 6.57682
-25.7867 4.91421 6.57823
-25.7605 4.95798 6.57984
-25.734 5.00173 6.58164
-25.7077 5.04538 6.58336
-25.6792 5.08746 6.58326
-25.6489 5.12824 6.58194
-25.6197 5.16979 6.58163
-25.5905 5.21134 6.5813
-25.5613 5.25284 6.58105
-25.5321 5.29425 6.58085
-25.5028 5.33572 6.58081
-25.4732 5.37744 6.58089
-25.4443 5.41946 6.58146
-25.4157 5.46131 6.58192
-25.3869 5.50226 6.58186
-25.3572 5.54232 6.58123
-25.3286 5.58256 6.58111
-25.3003 5.62241 6.58097
-25.2456 5.64312 6.55625
-25.2441 5.70236 6.58028
-25.2161 5.74243 6.57971
-25.1884 5.78215 6.579
-25.1613 5.82135 6.57813
-25.1342 5.8604 6.57718
-25.1069 5.89845 6.57563
-25.08 5.93618 6.57405
-25.0532 5.97358 6.57247
-25.0259 6.01087 6.57051
-24.9985 6.04783 6.56848
-24.9701 6.08352 6.56533
-24.9418 6.11888 6.56204
-24.9136 6.1542 6.55873
-24.8855 6.18935 6.55547
-24.8575 6.2244 6.55229
-24.8293 6.25943 6.54922
-24.8024 6.29584 6.54728
-24.7754 6.33235 6.54555
-24.7483 6.3688 6.54398
-24.7201 6.40436 6.54186
-24.692 6.43979 6.53978
-24.6639 6.47509 6.53789
-24.6357 6.51033 6.53612
-24.6075 6.54556 6.53447
-24.5792 6.58091 6.53272
-24.551 6.61624 6.53102
-24.5227 6.65146 6.52937
-24.4956 6.68748 6.52855
-24.4691 6.72412 6.52826
-24.4426 6.76077 6.5281
-24.4162 6.79741 6.52788
-24.407 6.84676 6.53836
-24.3626 6.87069 6.52843
-24.3363 6.90768 6.52897
-24.311 6.94499 6.52866
-24.2855 6.98236 6.52854
-24.2598 7.01971 6.52886
-24.2332 7.0567 6.52909
-24.2064 7.09349 6.52892
-24.1793 7.13045 6.52883
-24.1525 7.16777 6.52895
-24.127 7.20623 6.53037
-24.1043 7.24632 6.53391
-24.0813 7.28669 6.53754
-24.0584 7.3271 6.5411
-24.0354 7.36762 6.54474
-24.0123 7.40817 6.54846
-23.9892 7.44858 6.55227
-23.9659 7.48865 6.55586
-23.9414 7.52781 6.55857
-23.9169 7.5669 6.56135
-23.8922 7.60611 6.56419
-23.8644 7.64385 6.5646
-23.8348 7.68078 6.56398
-23.8024 7.71545 6.56103
-23.7701 7.75006 6.55811
-23.7383 7.78413 6.55532
-23.7066 7.81802 6.55254
-23.6748 7.85207 6.54969
-23.6428 7.88634 6.54671
-23.6109 7.92069 6.54368
-23.5787 7.95542 6.5405
-23.5465 7.99208 6.53926
-23.5335 8.04554 6.55092
-23.4842 8.06691 6.53693
-23.454 8.10405 6.53478
-23.4236 8.14136 6.53261
-23.3932 8.17881 6.53027
-23.3627 8.21632 6.52798
-23.3322 8.25385 6.52572
-23.3017 8.29134 6.52345
-23.2736 8.33064 6.52287
-23.246 8.37004 6.52267
-23.2185 8.40934 6.52256
-23.1909 8.44862 6.52248
-23.1647 8.48895 6.52351
-23.1393 8.52984 6.52505
-23.1138 8.57082 6.52661
-23.0884 8.61177 6.52822
-23.0629 8.65268 6.52983
-23.0376 8.69364 6.53141
-23.0125 8.73456 6.5331
-22.9873 8.77537 6.5349
-22.9621 8.8161 6.5368
-22.9369 8.85693 6.53866
-22.9117 8.89761 6.54073
-22.8864 8.93815 6.54295
-22.8611 8.97841 6.54545
-22.8359 9.01853 6.54803
-22.8106 9.05848 6.55081
-22.7831 9.09731 6.5523
-22.7553 9.13575 6.55346
-22.7299 9.17493 6.55512
-22.7046 9.21487 6.55794
-22.6775 9.25352 6.55939
-22.6805 9.3134 6.58169
-22.6215 9.33234 6.56369
-22.5928 9.37226 6.56642
-22.5639 9.41208 6.56931
-22.5389 9.45336 6.5738
-22.5158 9.49464 6.57809
-22.4931 9.5353 6.58212
-22.4703 9.57599 6.58655
-22.4476 9.61654 6.59119
-22.4251 9.65731 6.59583
-22.4042 9.69871 6.60147
-22.3832 9.73996 6.6073
-22.3623 9.78104 6.61339
-22.3413 9.82214 6.61948
-22.3203 9.86309 6.62577
-22.2993 9.90394 6.63219
-22.2782 9.94471 6.63868
-22.2572 9.9856 6.645
-22.2363 10.0264 6.65135
-22.2153 10.0672 6.65777
-22.1943 10.1078 6.66432
-22.1733 10.1483 6.67089
-22.1522 10.1887 6.67754
-22.1312 10.229 6.68429
-22.1101 10.2694 6.69098
-22.089 10.3099 6.69737
-22.0671 10.3502 6.70341
-22.0447 10.3901 6.70959
-22.0213 10.4295 6.71536
-21.998 10.469 6.72099
-21.9746 10.5084 6.72667
-21.9512 10.5478 6.73244
-21.9025 10.574 6.72622
-21.9042 10.6267 6.7442
-21.8807 10.6661 6.75016
-21.8572 10.7055 6.75614
-21.8337 10.7449 6.76215
-21.8103 10.7843 6.76819
-21.7869 10.8237 6.77417
-21.7629 10.8627 6.77986
-21.7381 10.9012 6.78489
-21.7133 10.9397 6.78985
-21.6886 10.9782 6.79469
-21.6639 11.0167 6.79951
-21.6392 11.0551 6.80431
-21.6145 11.0936 6.80914
-21.5897 11.1319 6.81395
-21.5639 11.1697 6.81819
-21.5382 11.2074 6.82245
-21.5124 11.245 6.82669
-21.486 11.2822 6.83063
-21.4597 11.3195 6.83459
-21.4334 11.3567 6.83853
-21.407 11.3941 6.84244
-21.3806 11.4314 6.84633
-21.3542 11.4689 6.85019
-21.328 11.5063 6.85414
-21.3018 11.5438 6.85824
-21.2757 11.5813 6.8623
-21.2495 11.619 6.86626
-21.2233 11.6567 6.87017
-21.1971 11.6943 6.87427
-21.1709 11.7321 6.87813
-21.1446 11.77 6.88213
-21.0909 11.7915 6.86665
-21.0906 11.8489 6.87993
-21.0627 11.8861 6.88332
-21.0347 11.9234 6.88643
-21.0066 11.9606 6.88962
-20.9776 11.9968 6.89218
-20.9487 12.0331 6.89451
-20.9198 12.0695 6.89676
-20.8908 12.1059 6.89873
-20.8614 12.1419 6.90045
-20.832 12.1779 6.90193
-20.8027 12.2141 6.90326
-20.7734 12.2503 6.90442
-20.744 12.2866 6.90562
-20.7146 12.3228 6.90675
-20.6853 12.3592 6.90782
-20.6563 12.3958 6.90912
-20.6279 12.4329 6.91084
-20.5995 12.4699 6.91261
-20.5705 12.5066 6.91409
-20.5413 12.5431 6.91537
-20.5122 12.5797 6.91662
-20.4836 12.6167 6.91798
-20.4553 12.6538 6.91933
-20.4269 12.691 6.9206
-20.3986 12.7282 6.92194
-20.3702 12.7654 6.9232
-20.3419 12.8027 6.92438
-20.3136 12.8399 6.92543
-20.2852 12.8772 6.92648
-20.2569 12.9146 6.92744
-20.2286 12.952 6.92831
-20.2317 13.0127 6.94286
-20.172 13.0264 6.93042
-20.1437 13.0637 6.93116
-20.1154 13.1011 6.932
-20.0864 13.1379 6.93239
-20.0572 13.1748 6.93289
-20.028 13.2117 6.93343
-19.9988 13.2486 6.93394
-19.9697 13.2854 6.93448
-19.9406 13.3222 6.93506
-19.9128 13.3598 6.9362
-19.8852 13.3974 6.93742
-19.8576 13.435 6.93855
-19.8281 13.4714 6.93868
-19.8017 13.51 6.94031
-19.7775 13.5497 6.94303
-19.7533 13.5893 6.94579
-19.729 13.6288 6.94855
-19.7044 13.6682 6.95124
-19.6799 13.7076 6.95389
-19.655 13.7468 6.95636
-19.6301 13.786 6.95891
-19.6062 13.8257 6.96181
-19.5823 13.8655 6.96471
-19.5596 13.9058 6.96774
-19.5371 13.946 6.9704
-19.5146 13.9862 6.97295
-19.491 14.0262 6.97545
-19.4664 14.0657 6.97746
-19.4421 14.105 6.97921
-19.4176 14.1445 6.98102
-19.3931 14.1838 6.98306
-19.4181 14.2542 7.01598
-19.3416 14.2674 6.9881
-19.3164 14.3099 6.99109
-19.2943 14.3509 6.99579
-19.2721 14.3917 7.00071
-19.2499 14.4327 7.00559
-19.2276 14.4738 7.01051
-19.2053 14.5149 7.01547
-19.1835 14.5563 7.02067
-19.1619 14.5977 7.02587
-19.1403 14.6392 7.03091
-19.1188 14.6808 7.03586
-19.0973 14.7225 7.04069
-19.0757 14.7642 7.04554
-19.0542 14.8061 7.05029
-19.0317 14.8475 7.05434
-19.0086 14.8886 7.05804
-18.9851 14.9293 7.06156
-18.9615 14.97 7.06503
-18.9381 15.0108 7.06837
-18.9146 15.0518 7.07152
-18.8912 15.0928 7.07466
-18.8678 15.134 7.07754
-18.8454 15.1759 7.08089
-18.8241 15.2183 7.0846
-18.8027 15.2605 7.08839
-18.7815 15.3029 7.09202
-18.7602 15.3454 7.09548
-18.7389 15.3882 7.09882
-18.7176 15.4307 7.10229
-18.6959 15.4736 7.10544
-18.6726 15.5157 7.10794
-18.6597 15.5637 7.11568
-18.6297 15.6033 7.11476
-18.6075 15.6466 7.11837
-18.5853 15.69 7.12189
-18.563 15.7336 7.12528
-18.5408 15.7773 7.12861
-18.5187 15.821 7.13164
-18.4969 15.8648 7.13457
-18.4753 15.9086 7.13731
-18.4536 15.9523 7.14023
-18.4321 15.996 7.14287
-18.4108 16.0396 7.14524
-18.3897 16.083 7.14723
-18.3687 16.1264 7.1492
-18.3472 16.1693 7.15042
-18.3273 16.213 7.15222
-18.3073 16.2567 7.15392
-18.2861 16.3003 7.15547
-18.2649 16.3439 7.15705
-18.2439 16.3874 7.15843
-18.222 16.4299 7.15876
-18.2009 16.4726 7.15953
-18.1801 16.5149 7.15992
-18.1597 16.5568 7.16012
-18.1396 16.5984 7.16008
-18.1192 16.6404 7.16011
-18.0992 16.682 7.15997
-18.0794 16.7231 7.15972
-18.0601 16.7636 7.15931
-18.0409 16.804 7.15887
-18.0219 16.8438 7.15843
-18.0031 16.8832 7.15808
-17.9701 16.9157 7.14767
-17.9652 16.9626 7.15739
-17.9459 17.0024 7.15727
-17.9263 17.0417 7.15765
-17.9068 17.0803 7.158
-17.8875 17.1188 7.15826
-17.8685 17.1567 7.15833
-17.8498 17.1942 7.15831
-17.8314 17.2314 7.15808
-17.8128 17.269 7.15789
-17.7945 17.3063 7.1574
-17.7764 17.3434 7.15672
-17.7587 17.3801 7.15569
-17.7408 17.4166 7.15447
-17.7231 17.4529 7.15305
-17.7054 17.489 7.15137
-17.6875 17.5248 7.14957
-17.6694 17.5607 7.14805
-17.6511 17.5966 7.14655
-17.633 17.6326 7.14488
-17.615 17.6687 7.14303
-17.597 17.7047 7.14125
-17.5792 17.741 7.13909
-17.5625 17.778 7.13746
-17.5453 17.8151 7.13468
-17.5263 17.8509 7.13038
-17.5073 17.8874 7.12557
-17.4874 17.9235 7.12012
-17.467 17.96 7.11375
-17.4465 17.9966 7.10713
-17.4259 18.034 7.1
-17.4052 18.0717 7.09265
-17.3369 18.0781 7.057
-17.3635 18.147 7.07849
-17.3426 18.1845 7.07182
-17.3214 18.2224 7.06505
-17.2999 18.261 7.05806
-17.2785 18.2997 7.05087
-17.2567 18.339 7.04343
-17.2358 18.3795 7.03648
-17.2151 18.4203 7.0299
-17.1903 18.4577 7.02126
-17.1649 18.4951 7.01224
-17.1395 18.533 7.00293
-17.1137 18.5714 6.99319
-17.0878 18.6101 6.98344
-17.0618 18.6492 6.97313
-17.0358 18.6885 6.96247
-17.0097 18.7273 6.95101
-16.984 18.7656 6.93949
-16.9586 18.8037 6.92775
-16.9331 18.842 6.91588
-16.9051 18.8783 6.90287
-16.8759 18.9134 6.88968
-16.8455 18.9485 6.87629
-16.814 18.9834 6.8625
-16.782 19.019 6.84827
-16.75 19.0546 6.83358
-16.7175 19.0909 6.81882
-16.6846 19.1272 6.80448
-16.6496 19.1625 6.78999
-16.6136 19.1968 6.7749
-16.5764 19.2318 6.76065
-16.5388 19.267 6.74677
-16.4272 19.2159 6.70908
-16.4541 19.3403 6.72828
-16.4149 19.3746 6.7148
-16.3752 19.4089 6.70219
-16.3352 19.4421 6.69002
-16.2955 19.4751 6.67787
-16.2542 19.5057 6.66595
-16.2118 19.5356 6.65438
-16.1697 19.5649 6.64357
-16.1274 19.5922 6.63194
-16.0858 19.6191 6.6205
-16.0441 19.646 6.60927
-16.0013 19.6706 6.59765
-15.958 19.6951 6.58592
-15.9144 19.7199 6.57405
-15.8707 19.7447 6.56205
-15.8261 19.7683 6.5494
-15.7807 19.7909 6.53651
-15.7354 19.8136 6.52316
-15.6938 19.8434 6.51165
-15.6502 19.8691 6.49804
-15.6052 19.8899 6.48317
-15.562 19.9131 6.46877
-15.5195 19.9363 6.4542
-15.4773 19.9595 6.43941
-15.434 19.9831 6.42481
-15.3915 20.0066 6.41015
-15.3502 20.0299 6.39545
-15.31 20.0518 6.38008
-15.2691 20.0714 6.3638
-15.2299 20.0904 6.34724
-15.1919 20.1091 6.33053
-15.1484 20.11 6.30879
-15.1162 20.146 6.2982
-15.0787 20.1643 6.2824
-15.0424 20.1818 6.26607
-15.0078 20.1988 6.24933
-14.973 20.2153 6.23227
-14.9407 20.2345 6.21564
-14.9096 20.2541 6.19904
-14.879 20.2733 6.18183
-14.8466 20.2907 6.16385
-14.8144 20.3082 6.14536
-14.7839 20.3291 6.1279
-14.7541 20.3506 6.11012
-14.7244 20.3721 6.09233
-14.6953 20.3935 6.07429
-14.6663 20.4149 6.05609
-14.6376 20.4358 6.03804
-14.6089 20.456 6.02043
-14.5801 20.4762 6.00308
-14.5506 20.496 5.98531
-14.5203 20.5161 5.96709
-14.4891 20.5344 5.94787
-14.4567 20.5529 5.92785
-14.4234 20.572 5.90737
-14.3896 20.5913 5.88651
-14.357 20.6101 5.86615
-14.3237 20.6295 5.84534
-14.2891 20.6496 5.82395
-14.2526 20.6707 5.80166
-14.216 20.6919 5.77933
-14.1774 20.7142 5.75612
-14.1374 20.7371 5.7322
-14.1029 20.7811 5.7165
-14.0551 20.7811 5.6855
-14.0139 20.8031 5.66028
-13.9718 20.8269 5.63519
-13.9294 20.8554 5.61089
-13.8874 20.8841 5.58727
-13.8441 20.914 5.56374
-13.7989 20.9432 5.5394
-13.7526 20.9721 5.51462
-13.7073 21.0006 5.48986
-13.6613 21.0288 5.46516
-13.6146 21.0571 5.44058
-13.5663 21.0846 5.41606
-13.5177 21.1116 5.3915
-13.4694 21.1411 5.36819
-13.4222 21.1736 5.34629
-13.3747 21.2063 5.3244
-13.3271 21.2387 5.30163
-13.2794 21.2703 5.27892
-13.2316 21.3017 5.25691
-13.1844 21.3325 5.23583
-13.1407 21.369 5.21644
-13.0979 21.4064 5.19912
-13.0554 21.4434 5.18291
-13.0126 21.4797 5.16761
-12.9691 21.5162 5.15135
-12.9263 21.5521 5.13597
-12.8841 21.5873 5.12154
-12.8429 21.6215 5.10869
-12.802 21.6564 5.09647
-12.7633 21.6916 5.08545
-12.7255 21.726 5.07491
-12.7101 21.7852 5.06807
-12.6504 21.7948 5.05097
-12.6134 21.829 5.03757
-12.5775 21.8622 5.0247
-12.5431 21.8939 5.01277
-12.5088 21.9256 5.00123
-12.4759 21.9557 4.99132
-12.444 21.9847 4.98245
-12.4128 22.013 4.97462
-12.3808 22.0421 4.96589
-12.3493 22.0706 4.95833
-12.3183 22.0983 4.95197
-12.2881 22.1247 4.94739
-12.2581 22.151 4.94299
-12.2286 22.1765 4.94001
-12.1994 22.2018 4.93795
-12.17 22.2272 4.93617
-12.1398 22.253 4.93316
-12.1091 22.279 4.93015
-12.0783 22.3049 4.9278
-12.0476 22.3308 4.9263
-12.017 22.3565 4.92489
-11.9866 22.3819 4.92451
-11.9563 22.4072 4.92473
-11.9262 22.4322 4.92578
-11.8962 22.4572 4.92681
-11.8664 22.482 4.92818
-11.8367 22.5067 4.92957
-11.8067 22.5316 4.93115
-11.7762 22.5569 4.93322
-11.7454 22.582 4.93445
-11.7135 22.6066 4.93476
-11.6461 22.5843 4.9283
-11.6518 22.6544 4.93383
-11.6225 22.6797 4.93185
-11.5922 22.7068 4.92694
-11.5614 22.7341 4.9218
-11.5298 22.7598 4.91787
-11.4979 22.7857 4.91453
-11.4656 22.812 4.91076
-11.4331 22.8384 4.9072
-11.3996 22.863 4.90366
-11.3656 22.8876 4.90068
-11.3314 22.9124 4.89808
-11.2965 22.9373 4.89606
-11.2612 22.9622 4.89398
-11.2256 22.9872 4.89245
-11.1899 23.0122 4.89139
-11.1547 23.0369 4.89052
-11.1203 23.061 4.88901
-11.0856 23.084 4.88782
-11.05 23.1058 4.88719
-11.0138 23.1279 4.88758
-10.9772 23.1501 4.88805
-10.9397 23.1729 4.88967
-10.9014 23.196 4.89209
-10.8625 23.2194 4.89518
-10.8245 23.2424 4.89762
-10.7856 23.2658 4.90063
-10.746 23.2896 4.90415
-10.7042 23.3146 4.90896
-10.6608 23.3402 4.91502
-10.6151 23.3649 4.92061
-10.5671 23.3883 4.92683
-10.4805 23.3352 4.92195
-10.4742 23.4345 4.93676
-10.4282 23.458 4.94098
-10.3818 23.4818 4.94531
-10.3346 23.5058 4.94989
-10.2869 23.5298 4.95465
-10.2385 23.5541 4.96007
-10.1892 23.5778 4.96581
-10.1396 23.6014 4.97197
-10.0906 23.6248 4.9778
-10.0415 23.6482 4.98413
-9.99221 23.6717 4.99097
-9.94234 23.6944 4.9984
-9.89082 23.7137 5.00535
-9.83895 23.733 5.01286
-9.78805 23.755 5.02104
-9.73665 23.7761 5.02955
-9.68374 23.7936 5.03755
-9.6309 23.8107 5.04563
-9.57845 23.8278 5.05388
-9.52674 23.8448 5.06226
-9.4751 23.8614 5.07061
-9.42419 23.8774 5.07886
-9.37395 23.8932 5.08702
-9.32396 23.9088 5.09509
-9.27292 23.9249 5.10331
-9.22252 23.9407 5.11123
-9.17286 23.955 5.11862
-9.12431 23.9675 5.12563
-9.07589 23.9804 5.13336
-9.02897 23.9927 5.13997
-8.98247 24.0035 5.14632
-8.92402 23.9649 5.1464
-8.88526 24.0219 5.15603
-8.83827 24.0308 5.16068
-8.79243 24.0395 5.16465
-8.74874 24.0485 5.16789
-8.70498 24.0557 5.17108
-8.66321 24.0626 5.17366
-8.62271 24.0696 5.17577
-8.58326 24.0767 5.17764
-8.54279 24.0839 5.17993
-8.50295 24.0907 5.18215
-8.46398 24.0975 5.18413
-8.42625 24.104 5.18583
-8.38883 24.1105 5.18748
-8.35213 24.1169 5.18891
-8.31575 24.1232 5.19028
-8.279 24.1292 5.19153
-8.24139 24.1353 5.19276
-8.20318 24.1414 5.19412
-8.1651 24.148 5.19566
-8.12718 24.1548 5.1975
-8.08949 24.1615 5.19937
-8.0522 24.1681 5.20156
-8.01509 24.1747 5.20403
-7.97826 24.1812 5.20662
-7.94135 24.1877 5.20886
-7.90469 24.1942 5.21136
-7.86822 24.2006 5.21427
-7.83195 24.2069 5.21779
-7.79559 24.2131 5.22138
-7.75938 24.2195 5.22566
-7.72327 24.226 5.23042
-7.68712 24.2311 5.23535
-7.65165 24.2387 5.24013
-7.6159 24.2452 5.24508
-7.57997 24.2517 5.25047
-7.54368 24.2582 5.2565
-7.50734 24.2645 5.26256
-7.47035 24.2705 5.26914
-7.43286 24.2763 5.27604
-7.39491 24.2821 5.28317
-7.3573 24.288 5.28999
-7.31914 24.2939 5.29688
-7.28048 24.2999 5.30398
-7.24097 24.306 5.3113
-7.20121 24.3121 5.31864
-7.16091 24.3183 5.32615
-7.1204 24.3253 5.33382
-7.08044 24.3332 5.3417
-7.04141 24.3401 5.34955
-7.00256 24.3469 5.35729
-6.96318 24.3539 5.36491
-6.92288 24.3611 5.37225
-6.88234 24.3683 5.37955
-6.84022 24.3751 5.38639
-6.79717 24.3822 5.39297
-6.75345 24.3907 5.3995
-6.71056 24.3991 5.40643
-6.66665 24.4077 5.41307
-6.62164 24.4165 5.4193
-6.57524 24.4266 5.42487
-6.52896 24.4382 5.43035
-6.48165 24.451 5.43516
-6.43353 24.4639 5.4395
-6.38366 24.4711 5.4436
-6.33795 24.4895 5.44818
-6.29004 24.4993 5.45252
-6.24151 24.5082 5.45634
-6.19153 24.5156 5.45945
-6.14138 24.523 5.46248
-6.08998 24.5314 5.46475
-6.03771 24.54 5.46656
-5.98436 24.5465 5.46784
-5.93171 24.5529 5.46955
-5.87841 24.5594 5.47104
-5.82437 24.5659 5.47219
-5.76931 24.5727 5.47292
-5.71411 24.5794 5.47361
-5.65853 24.5887 5.47415
-5.60274 24.5991 5.47462
-5.54691 24.6098 5.47499
-5.49182 24.6216 5.47553
-5.43694 24.6334 5.4762
-5.38196 24.6452 5.4769
-5.32692 24.6569 5.47775
-5.27179 24.6687 5.47861
-5.21659 24.6803 5.47964
-5.16147 24.692 5.48081
-5.10631 24.7036 5.48201
-5.05093 24.7152 5.48293
-4.99598 24.7279 5.48406
-4.9415 24.7412 5.48549
-4.88753 24.7543 5.48742
-4.83365 24.7674 5.4894
-4.78036 24.7803 5.49197
-4.72766 24.7937 5.49491
-4.67325 24.7994 5.49818
-4.62224 24.8212 5.50088
-4.5695 24.8351 5.50417
-4.51737 24.8488 5.50791
-4.46599 24.8615 5.51227
-4.41478 24.8743 5.51666
-4.36457 24.8865 5.52159
-4.31508 24.8985 5.52684
-4.26626 24.9103 5.53233
-4.21685 24.9223 5.53757
-4.16801 24.9342 5.54285
-4.1194 24.9442 5.5483
-4.07147 24.9532 5.55395
-4.02373 24.9621 5.55967
-3.97654 24.9709 5.56546
-3.92965 24.9796 5.57123
-3.88258 24.9884 5.57694
-3.83475 24.9969 5.58264
-3.7865 25.0048 5.58815
-3.73822 25.0112 5.59354
-3.69025 25.0176 5.59869
-3.6425 25.024 5.60386
-3.59526 25.0303 5.6088
-3.54823 25.0364 5.61357
-3.5014 25.0419 5.61823
-3.45436 25.0475 5.62314
-3.40721 25.0498 5.62794
-3.36014 25.0523 5.63251
-3.3133 25.0547 5.63667
-3.26674 25.0571 5.64071
-3.2201 25.0595 5.64439
-3.17335 25.062 5.64784
-3.12272 25.002 5.65277
-3.07755 25.0669 5.65531
-3.02881 25.0694 5.65924
-2.98013 25.072 5.66285
-2.93211 25.0722 5.66592
-2.88495 25.0711 5.66887
-2.83862 25.0703 5.67111
-2.79228 25.0695 5.67288
-2.74611 25.0687 5.67444
-2.69971 25.0679 5.67654
-2.65349 25.0665 5.67853
-2.60765 25.0625 5.68026
-2.56201 25.0579 5.68153
-2.51633 25.0534 5.6827
-2.4708 25.0489 5.68343
-2.42542 25.0444 5.68389
-2.38024 25.039 5.68422
-2.33491 25.0337 5.68483
-2.28972 25.0284 5.68539
-2.2447 25.0231 5.68576
-2.19995 25.0178 5.68593
-2.15515 25.0134 5.68609
-2.11059 25.009 5.68603
-2.06616 25.0047 5.68584
-2.02182 24.9997 5.68543
-1.97727 24.9943 5.68497
-1.93268 24.9895 5.68446
-1.88812 24.9864 5.68404
-1.84371 24.9838 5.68365
-1.79938 24.9812 5.68317
-1.75522 24.9786 5.68291
-1.71125 24.9759 5.68283
-1.66594 24.9929 5.6841
-1.62132 24.9748 5.68385
-1.5773 24.9754 5.68483
-1.53341 24.9771 5.68597
-1.48958 24.9794 5.6874
-1.44586 24.9814 5.6886
-1.40223 24.9832 5.68974
-1.35858 24.9836 5.69091
-1.31481 24.9841 5.69202
-1.27088 24.9846 5.69313
-1.22677 24.9851 5.69406
-1.18263 24.9856 5.69485
-1.13845 24.9864 5.69542
-1.09403 24.987 5.69605
-1.05008 24.9827 5.69624
-1.00594 24.9798 5.69637
-0.962116 24.9764 5.69646
-0.918886 24.9704 5.6967
-0.875685 24.9644 5.69691
-0.832326 24.9583 5.69691
-0.788682 24.9522 5.69659
-0.744994 24.9461 5.69619
-0.700836 24.94 5.69538
-0.656347 24.9338 5.69427
-0.611489 24.9276 5.69297
-0.566834 24.9214 5.69198
-0.521721 24.9157 5.69078
-0.47598 24.9131 5.68935
-0.42946 24.9105 5.68756
-0.382651 24.9078 5.68586
-0.33521 24.9085 5.68379
-0.287476 24.9088 5.68174
-0.239795 24.9197 5.67871
-0.192604 24.9089 5.67748
-0.145537 24.9089 5.67507
-0.098201 24.9089 5.67244
-0.0504463 24.9089 5.66946
-0.00256728 24.9088 5.66648
0.0458551 24.909 5.66316
0.094598 24.9092 5.65959
0.143665 24.9095 5.65586
0.192518 24.9097 5.65232
0.241582 24.9099 5.64867
0.290879 24.9102 5.64486
0.340459 24.9092 5.64089
0.39004 24.907 5.63697
0.439795 24.9036 5.63297
0.489624 24.8999 5.62894
0.539453 24.8961 5.62496
0.589143 24.8923 5.62112
0.638679 24.8886 5.61741
0.68817 24.8848 5.61372
0.737566 24.881 5.61004
0.786989 24.8773 5.60633
0.836315 24.8735 5.60261
0.885541 24.8698 5.59891
0.934713 24.866 5.59518
0.984004 24.8621 5.59136
1.03317 24.858 5.5876
1.0823 24.8533 5.58393
1.13111 24.8516 5.58024
1.17977 24.8472 5.5767
1.22816 24.8429 5.57307
1.27633 24.8385 5.56942
1.32345 24.8209 5.56724
1.37342 24.8288 5.56164
1.42147 24.8226 5.55772
1.4693 24.8166 5.55385
1.51681 24.8112 5.55006
1.56447 24.807 5.54615
1.61173 24.8029 5.54259
1.6587 24.7995 5.53918
1.7054 24.7964 5.53611
1.75233 24.7924 5.53306
1.79899 24.7882 5.53044
1.84531 24.7832 5.52819
1.89099 24.7766 5.52656
1.93656 24.77 5.52507
1.98184 24.7635 5.52374
2.02697 24.757 5.52251
2.07218 24.7504 5.52083
2.11775 24.7436 5.51847
2.16341 24.7368 5.51579
2.20874 24.729 5.5134
2.25371 24.7206 5.51149
2.29874 24.7127 5.50969
2.34366 24.7074 5.50875
2.38832 24.7022 5.50831
2.4328 24.6989 5.50845
2.47738 24.6968 5.50824
2.52164 24.6937 5.50848
2.56566 24.6896 5.50921
2.60942 24.6852 5.51082
2.65301 24.6806 5.51247
2.69668 24.676 5.51494
2.74208 24.6738 5.51872
2.78765 24.6947 5.52463
2.83185 24.6697 5.52507
2.87708 24.6676 5.52843
2.92212 24.6664 5.53222
2.96718 24.6652 5.53668
3.01222 24.6639 5.54125
3.05709 24.6626 5.54645
3.10184 24.6612 5.55203
3.14639 24.6598 5.55787
3.191 24.6584 5.56337
3.23533 24.6571 5.56896
3.27947 24.6557 5.57476
3.32325 24.6531 5.5807
3.36692 24.6505 5.5867
3.41042 24.648 5.59284
3.4538 24.6454 5.59902
3.49736 24.6428 5.6053
3.54132 24.6399 5.61171
3.58535 24.6365 5.61792
3.62921 24.633 5.6239
3.67274 24.6296 5.62945
3.71616 24.6263 5.63495
3.75906 24.623 5.63988
3.8016 24.6198 5.64437
3.84384 24.6162 5.64855
3.88625 24.6104 5.65316
3.92834 24.6047 5.65729
3.97 24.5992 5.6609
4.01095 24.594 5.6635
4.05207 24.5916 5.66581
4.09257 24.5892 5.66744
4.13264 24.5867 5.66862
4.17236 24.5832 5.66997
4.21257 24.5816 5.6722
4.25253 24.5789 5.67436
4.29224 24.5764 5.67602
4.33164 24.5761 5.67673
4.37098 24.5756 5.67725
4.41004 24.5751 5.67662
4.44896 24.5745 5.67522
4.48781 24.5739 5.6731
4.52681 24.5733 5.67159
4.56589 24.5727 5.66939
4.60493 24.572 5.66645
4.64407 24.5713 5.66241
4.68334 24.5705 5.65823
4.72252 24.5675 5.65339
4.76175 24.5645 5.6481
4.80069 24.5615 5.64284
4.83911 24.5586 5.63837
4.8775 24.5553 5.63409
4.91619 24.5514 5.62952
4.95557 24.5475 5.62452
4.99513 24.5435 5.61941
5.03565 24.5393 5.61365
5.07662 24.5325 5.60757
5.11814 24.5256 5.60096
5.15873 24.5188 5.5945
5.20021 24.5119 5.58765
5.24286 24.5048 5.58054
5.28715 24.4974 5.57303
5.33143 24.49 5.56536
5.37747 24.4823 5.55771
5.42587 24.4728 5.55193
5.46163 24.3936 5.54627
5.52415 24.4523 5.53937
5.57082 24.4419 5.53262
5.61856 24.4313 5.52606
5.6675 24.4203 5.51961
5.71679 24.4094 5.51329
5.76721 24.3976 5.50692
5.81773 24.3833 5.50031
5.86842 24.3679 5.49367
5.91824 24.3528 5.48731
5.96819 24.3377 5.48096
6.01864 24.3224 5.47447
6.0698 24.3069 5.46781
6.12127 24.2918 5.46113
6.17249 24.2735 5.45434
6.22371 24.2546 5.4474
6.27517 24.2356 5.44034
6.32642 24.2165 5.43333
6.37752 24.1975 5.42624
6.42857 24.1785 5.41905
6.47905 24.1587 5.4118
6.52926 24.1387 5.40463
6.57915 24.1187 5.39739
6.62876 24.0989 5.39009
6.67842 24.0791 5.38265
6.72849 24.0584 5.37515
6.77764 24.0362 5.36763
6.82547 24.0126 5.36019
6.87236 23.9895 5.35275
6.91904 23.9664 5.34542
6.96458 23.944 5.33812
7.0093 23.9219 5.33087
7.03031 23.8513 5.32795
7.09901 23.8771 5.3156
7.14348 23.8548 5.30803
7.18663 23.8325 5.30083
7.22815 23.8107 5.29396
7.26884 23.7882 5.28757
7.30793 23.7664 5.28172
7.34604 23.7446 5.27609
7.383 23.7225 5.27077
7.42061 23.7 5.26529
7.45764 23.6774 5.26004
7.49391 23.6549 5.25503
7.5295 23.6328 5.25038
7.565 23.6108 5.2459
7.60011 23.589 5.24156
7.63494 23.5672 5.23726
7.66968 23.5452 5.23262
7.70471 23.523 5.22748
7.74002 23.5006 5.22204
7.77542 23.4782 5.21668
7.81101 23.4559 5.21158
7.84647 23.4337 5.20671
7.88262 23.4123 5.2023
7.91932 23.3913 5.19814
7.95622 23.3702 5.19422
7.99293 23.3493 5.19006
8.03109 23.3301 5.18616
8.06974 23.3108 5.18247
8.10976 23.2925 5.17927
8.14971 23.2742 5.1763
8.19073 23.2554 5.17356
8.23221 23.2364 5.17118
8.30485 23.2808 5.16976
8.31975 23.1963 5.16216
8.36555 23.1786 5.15694
8.40938 23.1623 5.15471
8.4538 23.1458 5.1529
8.49851 23.1292 5.15086
8.5439 23.1125 5.14922
8.59063 23.0985 5.14826
8.63798 23.0861 5.14773
8.68472 23.0738 5.14703
8.73144 23.0616 5.14637
8.77841 23.0492 5.14582
8.82583 23.0367 5.1453
8.87351 23.0242 5.14472
8.9215 23.0116 5.14413
8.96976 22.9998 5.14365
9.01797 22.9884 5.14335
9.06575 22.9768 5.14318
9.1133 22.9656 5.14302
9.16104 22.9553 5.14281
9.20877 22.9451 5.14232
9.25658 22.9349 5.14175
9.30466 22.9253 5.14084
9.35299 22.9168 5.13969
9.40144 22.9082 5.13843
9.44999 22.9001 5.13758
9.49875 22.8925 5.13647
9.5476 22.8849 5.13496
9.59666 22.8783 5.13281
9.64574 22.8723 5.13059
9.69478 22.8658 5.12764
9.74381 22.8593 5.1242
9.79267 22.851 5.12038
9.84214 22.8463 5.11715
9.89129 22.8398 5.11356
9.94045 22.8343 5.10947
9.98951 22.8302 5.10473
10.0386 22.8262 5.09993
10.0872 22.8214 5.09444
10.1353 22.8152 5.08851
10.1832 22.8092 5.08226
10.2313 22.803 5.07635
10.279 22.797 5.07031
10.3265 22.7909 5.06403
10.3734 22.7841 5.05745
10.4201 22.7771 5.0508
10.4665 22.7701 5.04401
10.5127 22.7632 5.03717
10.5592 22.7562 5.03037
10.6062 22.7491 5.02361
10.6532 22.7413 5.01704
10.7 22.7332 5.0106
10.7462 22.7252 5.0044
10.7923 22.7172 4.99816
10.8377 22.7093 4.99218
10.8826 22.7015 4.98642
10.9271 22.6938 4.9808
10.972 22.686 4.97499
11.0162 22.6774 4.96933
11.0594 22.6668 4.96381
11.1018 22.6563 4.95865
11.1441 22.6458 4.95364
11.1857 22.6355 4.94892
11.2269 22.6252 4.94439
11.2677 22.614 4.93977
11.3093 22.6034 4.9347
11.3505 22.5917 4.9296
11.3915 22.5801 4.92479
11.4319 22.5686 4.92043
11.4722 22.5572 4.91617
11.5119 22.5459 4.91254
11.5514 22.5347 4.90933
11.5905 22.5235 4.90651
11.63 22.5123 4.90332
11.669 22.5002 4.90051
11.7077 22.4878 4.89812
11.7456 22.4739 4.89635
11.7831 22.4588 4.89468
11.8206 22.4443 4.89348
11.858 22.4297 4.89256
11.8953 22.4152 4.89166
11.9325 22.4008 4.8903
11.9696 22.3858 4.88888
12.0056 22.368 4.88759
12.042 22.35 4.88669
12.0784 22.3319 4.88585
12.1154 22.3135 4.88552
12.1514 22.2926 4.8854
12.1884 22.2724 4.88571
12.2252 22.2531 4.88597
12.2625 22.2336 4.88648
12.3002 22.2139 4.88712
12.3391 22.1944 4.88814
12.3783 22.1749 4.88953
12.4172 22.153 4.89062
12.4564 22.1307 4.89158
12.4881 22.095 4.89047
12.5345 22.0865 4.89225
12.5733 22.0645 4.89177
12.6117 22.0413 4.89076
12.6501 22.0165 4.88945
12.6885 21.9918 4.88852
12.7277 21.9665 4.88793
12.7674 21.9408 4.88746
12.8076 21.9148 4.8872
12.8475 21.889 4.8868
12.8877 21.863 4.88681
12.9283 21.8366 4.88718
12.9698 21.81 4.88815
13.012 21.7845 4.8893
13.0547 21.7588 4.89095
13.0965 21.731 4.89276
13.1378 21.7024 4.89459
13.178 21.6731 4.89576
13.218 21.6439 4.8971
13.2585 21.6149 4.8989
13.2994 21.5862 4.90133
13.3403 21.5575 4.90377
13.3815 21.5286 4.90686
13.4226 21.4993 4.91034
13.4633 21.4689 4.91422
13.5041 21.4384 4.91797
13.545 21.4078 4.922
13.5846 21.3754 4.92593
13.6239 21.3427 4.93017
13.6632 21.3099 4.93456
13.7024 21.2772 4.93895
13.7415 21.2447 4.94324
13.769 21.1983 4.94417
13.819 21.1792 4.95024
13.8573 21.1467 4.95292
13.8959 21.1151 4.9556
13.9343 21.0839 4.95831
13.9728 21.0526 4.96111
14.0105 21.0209 4.96411
14.0477 20.9889 4.96728
14.0847 20.9569 4.97077
14.1225 20.9255 4.97422
14.1607 20.8949 4.97835
14.1987 20.8643 4.98291
14.2364 20.8338 4.98814
14.2741 20.8033 4.99342
14.3116 20.7729 4.99924
14.3489 20.7424 5.00545
14.3866 20.7122 5.01183
14.4241 20.6813 5.01752
14.4608 20.6493 5.02311
14.4974 20.6173 5.02909
14.5339 20.5853 5.03562
14.5704 20.5533 5.04222
14.6065 20.5215 5.04951
14.6425 20.4897 5.05724
14.6781 20.4577 5.0654
14.7134 20.4254 5.07326
14.7486 20.3931 5.08148
14.7812 20.3583 5.08942
14.8141 20.324 5.09799
14.8477 20.2907 5.10697
14.8815 20.2578 5.1161
14.9155 20.2251 5.1253
14.9429 20.1847 5.13214
14.9841 20.1594 5.1423
15.0188 20.1264 5.15006
15.054 20.0941 5.15798
15.089 20.0619 5.16594
15.124 20.0297 5.17406
15.1579 19.9968 5.18238
15.1909 19.9632 5.19075
15.2233 19.9295 5.19942
15.256 19.896 5.20801
15.2884 19.8626 5.21704
15.3206 19.8295 5.22642
15.3524 19.7966 5.23633
15.3842 19.7637 5.24627
15.4158 19.7309 5.25657
15.4472 19.6983 5.26714
15.4787 19.6656 5.27769
15.5106 19.6326 5.28781
15.5431 19.6001 5.29802
15.5758 19.5681 5.30853
15.6082 19.5363 5.3194
15.6405 19.5045 5.33036
15.6723 19.4729 5.34176
15.7036 19.4413 5.35345
15.7348 19.4099 5.3654
15.7662 19.3783 5.3771
15.7974 19.3468 5.38904
15.8283 19.3157 5.40123
15.8599 19.2861 5.41408
15.8918 19.257 5.42713
15.9234 19.2283 5.44058
15.9547 19.1998 5.45422
15.9933 19.18 5.46847
16.0173 19.1427 5.48068
16.0486 19.1141 5.49388
16.0797 19.0857 5.5071
16.1106 19.0576 5.52035
16.1395 19.0273 5.53334
16.1679 18.9969 5.54637
16.1962 18.9665 5.55937
16.2244 18.9362 5.57237
16.2527 18.9058 5.5854
16.2811 18.8753 5.59839
16.3094 18.8449 5.61133
16.3377 18.8146 5.62415
16.366 18.7842 5.6369
16.3942 18.7538 5.64954
16.4224 18.7233 5.66211
16.4505 18.693 5.6748
16.4789 18.6632 5.68785
16.5101 18.6366 5.70153
16.5416 18.6098 5.71499
16.5736 18.5827 5.72818
16.6057 18.5555 5.74147
16.6433 18.5344 5.75541
16.6812 18.5133 5.76857
16.7182 18.4899 5.78138
16.7534 18.4652 5.79407
16.7889 18.4402 5.8064
16.8239 18.4134 5.81806
16.8591 18.3852 5.82911
16.8944 18.357 5.84027
16.9318 18.3306 5.85136
16.9699 18.3041 5.86218
17.0119 18.2833 5.87344
17.0457 18.2515 5.88461
17.0833 18.2253 5.89611
17.1215 18.199 5.90729
17.1601 18.1724 5.91793
17.1989 18.1458 5.92844
17.2382 18.1188 5.93817
17.2779 18.0916 5.94738
17.318 18.0642 5.95613
17.3577 18.0369 5.96533
17.3977 18.0095 5.97404
17.4379 17.982 5.98218
17.4776 17.953 5.98942
17.5171 17.9235 5.99651
17.5568 17.8939 6.00297
17.5949 17.8619 6.00885
17.6326 17.8293 6.01461
17.6701 17.7969 6.02098
17.7076 17.7647 6.02737
17.745 17.7324 6.03344
17.7825 17.7002 6.03908
17.82 17.6679 6.04465
17.8575 17.6357 6.04968
17.8945 17.6028 6.05433
17.9314 17.5696 6.05857
17.9685 17.5363 6.06297
18.0055 17.5029 6.06712
18.0425 17.4697 6.07104
18.079 17.4362 6.0747
18.1147 17.4019 6.07824
18.1503 17.3676 6.08195
18.1858 17.3334 6.08583
18.179 17.2546 6.08749
18.2575 17.2642 6.09506
18.2935 17.2294 6.1004
18.3284 17.1943 6.10577
18.3628 17.1592 6.11138
18.3971 17.1243 6.11671
18.4308 17.09 6.1218
18.4642 17.056 6.12683
18.4971 17.0224 6.13158
18.528 16.9867 6.13612
18.5584 16.9509 6.14022
18.5871 16.9141 6.14394
18.6156 16.8776 6.14754
18.6442 16.8409 6.15126
18.6727 16.8044 6.15479
18.7012 16.768 6.15809
18.7298 16.7316 6.16116
18.7577 16.6944 6.16424
18.7853 16.6569 6.16684
18.8124 16.619 6.16905
18.8397 16.5813 6.17074
18.8668 16.5436 6.17233
18.8931 16.5053 6.17341
18.9193 16.4671 6.17425
18.9455 16.4288 6.17504
18.9716 16.3905 6.17609
18.9977 16.3522 6.17722
19.0239 16.3139 6.1783
19.0499 16.2758 6.17925
19.0758 16.238 6.18003
19.1026 16.2007 6.18101
19.1295 16.1637 6.18198
19.124 16.1023 6.17344
19.1842 16.0876 6.18439
19.2111 16.0488 6.18599
19.2363 16.0102 6.18673
19.2615 15.9716 6.18743
19.2866 15.9331 6.1881
19.3115 15.8944 6.1886
19.3363 15.8558 6.18903
19.3612 15.8172 6.1894
19.386 15.7786 6.18982
19.4109 15.74 6.19018
19.4357 15.7015 6.19047
19.4606 15.663 6.19066
19.4855 15.6245 6.19083
19.5103 15.586 6.19092
19.5352 15.5476 6.19098
19.56 15.5092 6.19101
19.5846 15.4704 6.19098
19.6076 15.4306 6.19047
19.6276 15.3893 6.1893
19.6477 15.3478 6.18797
19.6677 15.3063 6.18667
19.6879 15.2647 6.18522
19.7081 15.223 6.18366
19.7277 15.1809 6.18185
19.7472 15.1388 6.18006
19.7668 15.0967 6.17819
19.7865 15.0545 6.17631
19.8061 15.0123 6.1744
19.8258 14.9703 6.17247
19.8477 14.9294 6.17101
19.87 14.8886 6.16967
19.8821 14.8424 6.16688
19.9116 14.805 6.16715
19.9319 14.7634 6.16587
19.9522 14.7218 6.16469
19.9742 14.6811 6.16395
19.9967 14.6405 6.16328
20.0183 14.5995 6.16248
20.0399 14.5586 6.16171
20.0608 14.5174 6.16079
20.0801 14.4754 6.15943
20.0993 14.4335 6.15805
20.1186 14.3915 6.15668
20.1378 14.3496 6.15532
20.1572 14.3076 6.15402
20.1762 14.2654 6.15262
20.1938 14.2226 6.1509
20.2124 14.1802 6.14942
20.2331 14.1388 6.14856
20.2538 14.0973 6.14768
20.2746 14.0558 6.14675
20.2955 14.0142 6.14576
20.3174 13.9731 6.14501
20.3392 13.9319 6.14415
20.3613 13.8908 6.14326
20.3836 13.85 6.14229
20.4059 13.8092 6.14117
20.4282 13.7684 6.14002
20.4505 13.7277 6.13914
20.4727 13.6868 6.13804
20.4958 13.6462 6.13676
20.5197 13.6058 6.13536
20.5435 13.5655 6.13403
20.601 13.5441 6.14557
20.5921 13.4831 6.13118
20.6191 13.4432 6.13106
20.6451 13.4048 6.13154
20.671 13.3665 6.13213
20.6969 13.3281 6.13262
20.7229 13.2897 6.13307
20.7489 13.2513 6.13353
20.7749 13.2129 6.13393
20.8009 13.1745 6.13428
20.8268 13.136 6.13448
20.8534 13.0978 6.1349
20.8821 13.0612 6.13628
20.9108 13.0246 6.13764
20.9396 12.9879 6.13902
20.9676 12.9507 6.14002
20.997 12.9144 6.14182
21.0266 12.8784 6.14377
21.0562 12.8423 6.14577
21.0857 12.8063 6.14779
21.1152 12.7703 6.14981
21.1446 12.7344 6.15182
21.174 12.6985 6.15379
21.2034 12.6625 6.15574
21.2312 12.6249 6.15669
21.2592 12.5871 6.15764
21.2873 12.5492 6.15856
21.315 12.5112 6.15933
21.3421 12.4728 6.15975
21.3665 12.4326 6.15882
21.3909 12.3923 6.15783
21.4154 12.352 6.15684
21.417 12.2983 6.14467
21.4641 12.272 6.15434
21.4887 12.2324 6.15317
21.5133 12.1927 6.15234
21.5378 12.1531 6.15154
21.5624 12.1135 6.15072
21.5869 12.0739 6.14993
21.6114 12.0343 6.14916
21.6356 11.9946 6.14832
21.6589 11.9543 6.14698
21.6822 11.914 6.14567
21.7055 11.8737 6.14446
21.7289 11.8335 6.14333
21.7523 11.7932 6.14219
21.7757 11.7529 6.14113
21.7991 11.7126 6.14015
21.8222 11.6722 6.13918
21.8457 11.632 6.1383
21.8705 11.5925 6.13807
21.8953 11.553 6.13791
21.9208 11.514 6.13814
21.9464 11.475 6.13836
21.972 11.4359 6.13866
21.9976 11.3969 6.13902
22.0232 11.3578 6.13943
22.0487 11.3187 6.13985
22.0745 11.2798 6.14032
22.1004 11.241 6.14084
22.1266 11.2023 6.14139
22.1517 11.1629 6.14149
22.1769 11.1235 6.14147
22.2022 11.0841 6.14133
22.2313 11.0471 6.14274
22.2522 11.0051 6.14049
22.2758 10.9646 6.13901
22.2994 10.9239 6.13752
22.3231 10.8833 6.13599
22.3486 10.8438 6.13532
22.3739 10.8041 6.13461
22.3991 10.7644 6.134
22.4253 10.7254 6.1339
22.4527 10.6873 6.13409
22.4795 10.6488 6.13428
22.5048 10.6095 6.1343
22.5311 10.5708 6.13501
22.5583 10.5328 6.13608
22.5854 10.4946 6.13743
22.6125 10.4565 6.13898
22.6396 10.4183 6.1405
22.6674 10.3807 6.14182
22.6949 10.3428 6.14308
22.7215 10.3043 6.14441
22.748 10.2658 6.14613
22.7741 10.2271 6.14779
22.8 10.1882 6.14996
22.8264 10.1498 6.15267
22.8532 10.1116 6.15588
22.8801 10.0735 6.15887
22.9068 10.0353 6.16219
22.933 9.9968 6.16565
22.9584 9.95781 6.16942
22.9844 9.91917 6.17345
23.0114 9.88139 6.17795
23.0392 9.84426 6.18269
23.0658 9.80614 6.18693
23.0935 9.76876 6.19089
23.1207 9.73097 6.19445
23.1483 9.69357 6.19823
23.1763 9.65654 6.20233
23.2044 9.61952 6.20655
23.2322 9.58251 6.21125
23.2595 9.54504 6.21611
23.2854 9.50668 6.22103
23.3103 9.46763 6.22548
23.3351 9.42855 6.23032
23.3639 9.39213 6.23657
23.3885 9.35297 6.24224
23.4143 9.3146 6.24837
23.4406 9.27679 6.25509
23.465 9.23719 6.26166
23.4855 9.19577 6.26734
23.5094 9.15636 6.27331
23.5327 9.11662 6.27909
23.5551 9.07627 6.28487
23.5773 9.03584 6.29105
23.5996 8.99538 6.2973
23.6218 8.95478 6.30407
23.644 8.91408 6.31116
23.6662 8.87335 6.31865
23.689 8.83306 6.32616
23.7118 8.79266 6.33393
23.7346 8.75217 6.34192
23.756 8.71067 6.34979
23.7773 8.66909 6.35766
23.7986 8.62734 6.36567
23.8206 8.58618 6.37407
23.8337 8.53909 6.37905
23.865 8.50282 6.39065
23.886 8.46067 6.39784
23.9071 8.41843 6.405
23.9281 8.37599 6.41202
23.9488 8.33339 6.419
23.9696 8.29069 6.42607
23.9903 8.24792 6.43321
24.0111 8.2051 6.44044
24.032 8.16245 6.44771
24.0534 8.12014 6.45539
24.0749 8.07779 6.46319
24.0963 8.03541 6.47115
24.1169 7.99259 6.47875
24.1369 7.94937 6.48623
24.1569 7.90612 6.49383
24.1768 7.8628 6.50154
24.1968 7.81941 6.50921
24.2168 7.77602 6.51695
24.2367 7.73268 6.52473
24.2589 7.6907 6.53351
24.2812 7.64885 6.54233
24.3025 7.60667 6.55075
24.3238 7.5646 6.55914
24.345 7.52262 6.5675
24.3663 7.48051 6.57596
24.3875 7.43855 6.58431
24.4087 7.39675 6.59259
24.4298 7.35521 6.60056
24.4508 7.31355 6.6082
24.4725 7.27257 6.61593
24.4942 7.23176 6.62347
24.5231 7.19562 6.63537
24.5373 7.14997 6.63943
24.5589 7.10902 6.64714
24.5804 7.06825 6.6547
24.602 7.02775 6.662
24.6235 6.98728 6.66926
24.645 6.94711 6.67624
24.6665 6.90713 6.68304
24.688 6.86741 6.68981
24.7108 6.82836 6.69743
24.733 6.78911 6.70469
24.7553 6.75 6.71177
24.7775 6.71108 6.71864
24.7996 6.67208 6.72535
24.8224 6.63372 6.73244
24.8446 6.59498 6.73904
24.8666 6.55606 6.74554
24.8885 6.51704 6.75218
24.9105 6.47795 6.7589
24.9325 6.43884 6.76562
24.9545 6.39972 6.77232
24.9764 6.36065 6.77898
24.9984 6.32157 6.7856
25.0205 6.28248 6.79219
25.0426 6.24333 6.79877
25.0646 6.20417 6.80536
25.0865 6.16477 6.81177
25.1072 6.12469 6.81751
25.1276 6.08423 6.823
25.1471 6.04329 6.82792
25.1663 6.00206 6.83265
25.1848 5.96042 6.83703
25.2011 5.91772 6.84038
25.2216 5.87734 6.84597
25.2401 5.83596 6.85065
25.2598 5.79514 6.85602
25.2796 5.75421 6.86147
25.2995 5.71335 6.86699
25.3194 5.67232 6.87257
25.339 5.63092 6.87794
25.3595 5.58987 6.88384
25.3796 5.54857 6.88949
25.4013 5.5081 6.89611
25.4246 5.46856 6.90368
25.448 5.42882 6.9113
25.4715 5.38906 6.91894
25.4949 5.34923 6.92659
25.5184 5.30937 6.93425
25.5418 5.26965 6.94187
25.5646 5.2298 6.94918
25.5871 5.18982 6.9562
25.6089 5.14943 6.96288
25.6306 5.1088 6.96941
25.6522 5.06811 6.97599
25.6735 5.02692 6.98227
25.6948 4.98561 6.98855
25.7165 4.94436 6.99494
25.7389 4.90369 7.00168
25.7617 4.86304 7.00858
25.7847 4.82237 7.01565
25.8073 4.78106 7.02242
25.8295 4.73939 7.02884
25.8515 4.69737 7.03522
25.8748 4.65698 7.04205
25.8866 4.60755 7.04407
25.9232 4.575 7.05878
25.9463 4.53297 7.06667
25.9688 4.49083 7.0731
25.9915 4.44853 7.07951
26.0141 4.4062 7.08597
26.0367 4.36375 7.09248
26.0588 4.3208 7.09856
26.0807 4.2778 7.10462
26.1027 4.23486 7.11065
26.1246 4.19195 7.11672
26.1465 4.14901 7.12283
26.1684 4.10606 7.12904
26.1894 4.06263 7.13475
26.2094 4.01859 7.13993
26.2296 3.97471 7.1453
26.2498 3.93082 7.15069
26.2699 3.88681 7.15597
26.2892 3.84248 7.16085
26.3084 3.7982 7.16581
26.3275 3.75401 7.17089
26.3467 3.70982 7.17597
26.3657 3.66575 7.18115
26.3845 3.62178 7.1864
26.4028 3.57762 7.19129
26.4211 3.53341 7.19609
26.4393 3.4893 7.20092
26.4573 3.44537 7.20597
26.4755 3.40137 7.21082
26.4944 3.35692 7.21495
26.5123 3.31248 7.21911
26.5284 3.26704 7.22207
26.5175 3.21159 7.211
26.5625 3.18015 7.23115
26.5803 3.13559 7.23682
26.5979 3.09126 7.24257
26.6154 3.04709 7.24847
26.6328 3.0029 7.25441
26.6503 2.95916 7.26003
26.6672 2.91554 7.26521
26.6827 2.87177 7.26871
26.6967 2.82739 7.27069
26.7104 2.78317 7.27204
26.724 2.73918 7.27332
26.7375 2.69546 7.27468
26.7508 2.6517 7.27625
26.7673 2.60916 7.28088
26.7821 2.56616 7.28426
26.7949 2.52234 7.28574
26.8077 2.47839 7.28658
26.8209 2.43455 7.2884
26.8342 2.39085 7.29078
26.8471 2.34716 7.29343
26.86 2.30353 7.29603
26.8725 2.25994 7.29895
26.883 2.21584 7.29994
26.8938 2.17179 7.30204
26.9048 2.12787 7.30426
26.9155 2.08396 7.30666
26.9257 2.03993 7.30868
26.9353 1.99582 7.31048
26.9445 1.95165 7.31195
26.9537 1.90747 7.31331
26.963 1.86332 7.31477
26.9737 1.81947 7.31726
26.9833 1.77526 7.3175
26.9939 1.73124 7.31829
27.0054 1.68746 7.32011
27.0168 1.64365 7.32195
27.0281 1.59984 7.32387
27.0391 1.55597 7.32602
27.0499 1.51208 7.32847
27.0607 1.46818 7.33137
27.0717 1.42432 7.33414
27.0823 1.38037 7.3372
27.0931 1.33659 7.34147
27.1036 1.29274 7.34638
27.114 1.24886 7.35132
27.1241 1.20498 7.35685
27.1342 1.16118 7.36312
27.1441 1.11744 7.36945
27.1545 1.07385 7.37545
27.1648 1.03029 7.38151
27.1748 0.986666 7.38782
27.1843 0.942909 7.39446
27.1937 0.899102 7.40115
27.202 0.854832 7.40731
27.2096 0.810287 7.41317
27.2163 0.765411 7.41858
27.2231 0.720627 7.4239
27.23 0.675806 7.42983
27.2366 0.630863 7.43594
27.2432 0.585808 7.4424
27.2508 0.541213 7.45078
27.2593 0.496766 7.46027
27.2667 0.451803 7.46834
27.2767 0.407681 7.4789
27.2827 0.361937 7.48379
27.2922 0.317566 7.492
27.3018 0.273106 7.50018
27.3112 0.2284 7.50806
27.3196 0.183322 7.51514
27.3279 0.138037 7.52246
27.336 0.0926454 7.52994
27.3439 0.047152 7.53762
27.3517 0.00166643 7.54488
27.3588 -0.0440594 7.55193
27.3656 -0.0899021 7.55924
27.3719 -0.135895 7.56692
27.3793 -0.181516 7.57595
27.3864 -0.227187 7.58555
27.3927 -0.273218 7.59449
27.3983 -0.319441 7.6029
27.4041 -0.365551 7.61099
27.4099 -0.41161 7.61911
27.4157 -0.457661 7.62752
27.4213 -0.503736 7.6362
27.4269 -0.549819 7.64489
27.4309 -0.596295 7.65287
27.4341 -0.642962 7.66057
27.4389 -0.689184 7.67009
27.4437 -0.735411 7.67965
27.4481 -0.781726 7.68927
27.4517 -0.828276 7.69828
27.4552 -0.874851 7.70741
27.4586 -0.921371 7.7166
27.4622 -0.967936 7.72564
27.4661 -1.01435 7.73462
27.4414 -1.06866 7.71643
27.474 -1.10933 7.75021
27.4778 -1.15615 7.75737
27.4818 -1.20294 7.76435
27.4859 -1.2496 7.77116
27.4898 -1.29631 7.77788
27.4935 -1.3429 7.78461
27.4974 -1.38934 7.79159
27.5001 -1.43592 7.79784
27.5022 -1.48262 7.80388
27.5037 -1.52931 7.80985
27.5049 -1.5759 7.81587
27.506 -1.62239 7.82204
27.5072 -1.66895 7.82807
27.5083 -1.71533 7.83427
27.5094 -1.76153 7.8408
27.5086 -1.80764 7.84645
27.5072 -1.85372 7.85168
27.5055 -1.89966 7.85707
27.5027 -1.94558 7.86199
27.4996 -1.99147 7.86714
27.4964 -2.03741 7.8723
27.4932 -2.08344 7.87759
27.49 -2.12954 7.88297
27.4868 -2.1757 7.8883
27.4836 -2.22173 7.89346
27.4806 -2.26792 7.89851
27.4775 -2.31431 7.90363
27.4748 -2.36099 7.90889
27.4724 -2.40754 7.91426
27.4701 -2.45463 7.91937
27.468 -2.50213 7.9243
27.5016 -2.54918 7.95605
27.4643 -2.59899 7.93356
27.4627 -2.64807 7.93793
27.4606 -2.69735 7.94172
27.4596 -2.74643 7.94609
27.461 -2.79543 7.95263
27.4611 -2.84404 7.95813
27.4591 -2.89206 7.96158
27.4604 -2.93919 7.96801
27.462 -2.98677 7.97513
27.4644 -3.03431 7.98331
27.4667 -3.08168 7.99151
27.4697 -3.12889 8.00029
27.4737 -3.17601 8.00968
27.4777 -3.22316 8.019
27.4817 -3.27028 8.02833
27.486 -3.31721 8.03821
27.492 -3.36361 8.04982
27.498 -3.40987 8.06178
27.5041 -3.45607 8.07374
27.5086 -3.50256 8.0843
27.5132 -3.54888 8.09472
27.5194 -3.59444 8.10683
27.5258 -3.63981 8.11918
27.5323 -3.68537 8.1315
27.5389 -3.73128 8.14388
27.5457 -3.77734 8.15618
27.5525 -3.82322 8.16838
27.5603 -3.86856 8.18154
27.568 -3.91378 8.19479
27.5757 -3.95898 8.20808
27.5836 -4.00426 8.2212
27.6422 -4.02295 8.29564
27.5935 -4.09352 8.25094
27.6019 -4.14058 8.26261
27.6101 -4.18677 8.27503
27.62 -4.23232 8.28851
27.6283 -4.27641 8.30305
27.637 -4.319 8.31898
27.6461 -4.3618 8.33465
27.6554 -4.40412 8.35022
27.6654 -4.44586 8.36642
27.6754 -4.48722 8.38237
27.6852 -4.52858 8.39797
27.6946 -4.57003 8.41294
27.7018 -4.61266 8.42567
27.7087 -4.65575 8.43805
27.7157 -4.69897 8.45045
27.7227 -4.74258 8.46301
27.7296 -4.78641 8.4756
27.7364 -4.83054 8.48833
27.7432 -4.87474 8.5011
27.7502 -4.91887 8.51401
27.7587 -4.96213 8.52837
27.7671 -5.00526 8.54263
27.7759 -5.04827 8.55731
27.7871 -5.08948 8.57462
27.7983 -5.13064 8.59197
27.8094 -5.17176 8.60937
27.8205 -5.2129 8.62674
27.8316 -5.25397 8.64415
27.8424 -5.29492 8.66167
27.8534 -5.33593 8.67906
27.8646 -5.37703 8.69656
27.9168 -5.39076 8.75287
27.8919 -5.46128 8.73137
27.9059 -5.50059 8.74665
27.9176 -5.54361 8.76306
27.9294 -5.5852 8.78049
27.9422 -5.62453 8.79972
27.9544 -5.66319 8.81891
27.9666 -5.70198 8.83815
27.9789 -5.74074 8.85741
27.9913 -5.77969 8.87663
