BEGIN_Polyline
-22.1755 14.0922 7.43733
-22.1542 14.1326 7.43181
-22.1329 14.1728 7.42606
-22.1112 14.2107 7.41831
-22.0726 14.2399 7.40077
-22.0735 14.2925 7.40797
-22.0526 14.3337 7.40248
-22.0314 14.3728 7.39494
-22.0103 14.4119 7.38726
-21.9913 14.4524 7.38088
-21.9736 14.4936 7.37528
-21.9551 14.5343 7.36906
-21.9342 14.5734 7.36104
-21.9126 14.6122 7.35285
-21.8918 14.6515 7.34523
-21.874 14.6924 7.33899
-21.8533 14.7313 7.33095
-21.8328 14.7706 7.32299
-21.8124 14.8099 7.31489
-21.7923 14.8496 7.30684
-21.7725 14.8895 7.29868
-21.7527 14.9296 7.2901
-21.7323 14.9696 7.28102
-21.7106 15.0087 7.27131
-21.689 15.0479 7.26147
-21.6665 15.0865 7.25129
-21.6436 15.1249 7.24084
-21.6209 15.1635 7.23036
-21.5982 15.202 7.21969
-21.5733 15.2387 7.20797
-21.5473 15.2747 7.19574
-21.5212 15.3109 7.18345
-21.4959 15.3481 7.1715
-21.4711 15.3859 7.15984
-21.4458 15.4237 7.14813
-21.4182 15.4619 7.13551
-21.3452 15.4623 7.10882
-21.3616 15.5377 7.11227
-21.3337 15.5741 7.10033
-21.3061 15.6129 7.08915
-21.2782 15.6517 7.07803
-21.2495 15.6897 7.06677
-21.2195 15.7268 7.05519
-21.1894 15.764 7.04352
-21.1593 15.8012 7.0319
-21.129 15.8375 7.02027
-21.0986 15.8736 7.00866
-21.0679 15.9092 6.9969
-21.0366 15.9443 6.98492
-21.0057 15.9798 6.97298
-20.9748 16.0154 6.96096
-20.944 16.0509 6.94884
-20.9133 16.0865 6.93657
-20.8826 16.122 6.92405
-20.8524 16.158 6.91152
-20.8223 16.1938 6.89887
-20.7925 16.2295 6.88614
-20.763 16.2652 6.87338
-20.7338 16.3006 6.86054
-20.7056 16.3367 6.84795
-20.6772 16.3721 6.83512
-20.6486 16.4071 6.82214
-20.6203 16.4418 6.80912
-20.5924 16.4762 6.79605
-20.5652 16.5103 6.78302
-20.5397 16.5454 6.77057
-20.5139 16.5789 6.75757
-20.4885 16.6115 6.7444
-20.4631 16.6423 6.73072
-20.4422 16.6746 6.71854
-20.4209 16.7046 6.70561
-20.4006 16.7344 6.6928
-20.381 16.7637 6.67991
-20.362 16.7929 6.66707
-20.3428 16.8212 6.65383
-20.3239 16.8491 6.64043
-20.3051 16.8767 6.62687
-20.2864 16.9043 6.61318
-20.2679 16.9319 6.59937
-20.2495 16.9593 6.58546
-20.2309 16.9864 6.57126
-20.2122 17.0131 6.55681
-20.1937 17.04 6.54233
-20.1754 17.0668 6.52775
-20.157 17.0937 6.51311
-20.1387 17.1206 6.49846
-20.1197 17.1469 6.48342
-20.1006 17.1734 6.46825
-20.0812 17.2 6.45285
-20.0617 17.2268 6.43722
-20.0423 17.2542 6.42153
-20.0221 17.2815 6.40537
-20.0018 17.3089 6.38899
-19.9811 17.3363 6.3723
-19.9599 17.3638 6.35521
-19.9386 17.3923 6.33791
-19.9172 17.4218 6.3204
-19.8949 17.4515 6.30238
-19.872 17.482 6.28385
-19.8478 17.5132 6.26402
-19.8046 17.528 6.2374
-19.7952 17.5802 6.22155
-19.7662 17.6154 6.19898
-19.7365 17.6514 6.17613
-19.7062 17.6883 6.15286
-19.6748 17.7253 6.12915
-19.6423 17.7623 6.10499
-19.6094 17.7998 6.08057
-19.5763 17.8379 6.05608
-19.543 17.876 6.0316
-19.5093 17.9142 6.00706
-19.4763 17.9536 5.98269
-19.4431 17.9933 5.9583
-19.41 18.0337 5.93397
-19.3773 18.0746 5.90977
-19.3444 18.1157 5.88561
-19.3111 18.1567 5.86143
-19.2784 18.1981 5.83747
-19.2459 18.24 5.81371
-19.2136 18.2818 5.79016
-19.1811 18.3236 5.76683
-19.1482 18.3648 5.7437
-19.1163 18.4067 5.72109
-19.0847 18.4488 5.69885
-19.0532 18.4907 5.67692
-19.0222 18.533 5.65535
-18.9913 18.5752 5.6342
-18.9611 18.6173 5.6137
-18.9313 18.6593 5.59384
-18.9018 18.7008 5.57459
-18.8731 18.7422 5.55626
-18.8445 18.7825 5.53884
-18.8212 18.8255 5.52346
-18.7893 18.8595 5.50817
-18.7629 18.8961 5.49495
-18.737 18.9321 5.48268
-18.7119 18.9677 5.4713
-18.6872 19.0029 5.46055
-18.6627 19.0376 5.45041
-18.6382 19.0716 5.44088
-18.6137 19.1052 5.43182
-18.5895 19.1387 5.42312
-18.5655 19.1721 5.41483
-18.5419 19.2054 5.40697
-18.5181 19.2383 5.39949
-18.4945 19.2708 5.39242
-18.4712 19.3035 5.38571
-18.448 19.336 5.37928
-18.4248 19.3685 5.37306
-18.4012 19.4009 5.36691
-18.3776 19.4333 5.36092
-18.354 19.4656 5.35512
-18.3303 19.4978 5.34948
-18.3066 19.5298 5.34401
-18.2828 19.5617 5.3387
-18.2587 19.5933 5.33351
-18.2346 19.6248 5.32853
-18.2103 19.6561 5.32384
-18.186 19.6874 5.31928
-18.1615 19.7186 5.31469
-18.137 19.7496 5.31011
-18.1129 19.7806 5.30565
-18.0894 19.8119 5.3011
-18.065 19.8437 5.29494
-17.9879 19.8338 5.286
-18.0147 19.907 5.28098
-17.9893 19.9392 5.27513
-17.9639 19.9716 5.26905
-17.9368 20.0023 5.26279
-17.9105 20.0328 5.25625
-17.8846 20.0633 5.24963
-17.8586 20.0939 5.24306
-17.8326 20.1246 5.23653
-17.8064 20.1555 5.23006
-17.78 20.1863 5.22366
-17.7533 20.217 5.2173
-17.7262 20.2475 5.21101
-17.699 20.2781 5.20482
-17.6717 20.3087 5.19872
-17.6442 20.3393 5.19273
-17.6166 20.37 5.18687
-17.5888 20.4005 5.18109
-17.5603 20.4304 5.17546
-17.5314 20.4603 5.16996
-17.5025 20.4902 5.16465
-17.4735 20.5204 5.15957
-17.4443 20.5507 5.15469
-17.4144 20.5806 5.14997
-17.3842 20.6106 5.14541
-17.3535 20.6407 5.14098
-17.3225 20.6709 5.13672
-17.2911 20.7012 5.13268
-17.2593 20.7315 5.12887
-17.227 20.7618 5.12532
-17.1944 20.7924 5.12204
-17.1619 20.8233 5.11907
-17.0763 20.7998 5.11754
-17.0944 20.8877 5.11409
-17.0588 20.9202 5.11216
-17.0236 20.952 5.11073
-16.9881 20.984 5.1096
-16.9524 21.0164 5.10873
-16.9167 21.0491 5.10814
-16.8806 21.0818 5.10783
-16.8439 21.1142 5.10783
-16.8071 21.1468 5.10814
-16.7701 21.1794 5.1087
-16.7329 21.2122 5.1095
-16.6956 21.2452 5.11052
-16.6577 21.2779 5.11177
-16.6184 21.3091 5.11325
-16.5791 21.3406 5.11491
-16.5397 21.3721 5.11668
-16.4999 21.4031 5.1185
-16.4598 21.4338 5.12045
-16.4194 21.4644 5.12258
-16.3786 21.4947 5.12491
-16.3377 21.5251 5.12745
-16.2965 21.5555 5.13023
-16.2551 21.586 5.13323
-16.2135 21.6166 5.1365
-16.1717 21.6472 5.14009
-16.1297 21.6779 5.14395
-16.0875 21.7086 5.14806
-16.0448 21.7391 5.15248
-16.0023 21.7702 5.15719
-15.9596 21.8014 5.16227
-15.9165 21.8326 5.16773
-15.8498 21.8318 5.17363
-15.8299 21.8962 5.18159
-15.786 21.9281 5.18899
-15.7417 21.9599 5.19636
-15.6973 21.9918 5.20401
-15.6526 22.0235 5.21188
-15.6077 22.0549 5.21995
-15.5627 22.0864 5.22822
-15.5176 22.118 5.23662
-15.4724 22.149 5.24503
-15.427 22.1799 5.25351
-15.3815 22.2105 5.26208
-15.3358 22.2408 5.2707
-15.2899 22.271 5.2794
-15.244 22.301 5.28815
-15.1972 22.3295 5.29685
-15.1503 22.358 5.30558
-15.1036 22.3865 5.31433
-15.0565 22.4145 5.32304
-15.0097 22.4426 5.33172
-14.9631 22.4706 5.34034
-14.9168 22.4988 5.34888
-14.8711 22.5276 5.35736
-14.8258 22.5566 5.36572
-14.7807 22.5855 5.37392
-14.7356 22.614 5.38197
-14.6906 22.6423 5.38979
-14.646 22.6702 5.39737
-14.6013 22.6974 5.40464
-14.5566 22.7247 5.41161
-14.5121 22.751 5.41815
-14.4671 22.7753 5.42415
-14.4068 22.769 5.42865
-14.3807 22.822 5.43437
-14.3393 22.8444 5.43845
-14.2984 22.8669 5.44157
-14.2581 22.8889 5.4442
-14.2171 22.9085 5.44673
-14.1765 22.9277 5.449
-14.1362 22.9471 5.45092
-14.0963 22.9664 5.4526
-14.0567 22.9855 5.45412
-14.0174 23.0046 5.45544
-13.9784 23.0236 5.45656
-13.9396 23.0425 5.45751
-13.901 23.0613 5.45828
-13.8625 23.0801 5.4589
-13.8243 23.0991 5.4594
-13.7862 23.1182 5.45978
-13.7482 23.1374 5.46006
-13.7103 23.1568 5.46025
-13.6726 23.1763 5.46035
-13.6349 23.196 5.46036
-13.5974 23.2162 5.46033
-13.56 23.2365 5.46023
-13.5223 23.2565 5.46004
-13.4846 23.2764 5.45977
-13.4468 23.296 5.45934
-13.409 23.3156 5.45885
-13.3709 23.3353 5.45838
-13.3327 23.355 5.45796
-13.2939 23.374 5.45763
-13.2548 23.393 5.45745
-13.2153 23.4122 5.45745
-13.1861 23.4545 5.45791
-13.134 23.4529 5.45904
-13.0923 23.4735 5.46038
-13.0501 23.4943 5.46172
-13.0079 23.5163 5.46314
-12.9658 23.5382 5.4645
-12.9237 23.5608 5.46583
-12.8818 23.5842 5.46712
-12.8395 23.607 5.46837
-12.7971 23.6298 5.46934
-12.7552 23.6535 5.47005
-12.714 23.6785 5.47047
-12.6718 23.702 5.47097
-12.6307 23.7276 5.47114
-12.5896 23.7533 5.47115
-12.5485 23.7789 5.47103
-12.5077 23.8049 5.47066
-12.4664 23.8298 5.47023
-12.4251 23.8545 5.46958
-12.3845 23.8802 5.46853
-12.3441 23.9059 5.46724
-12.3034 23.9309 5.46581
-12.2626 23.9556 5.4642
-12.2218 23.9799 5.46239
-12.1808 24.0038 5.46042
-12.1397 24.0273 5.45828
-12.0987 24.0509 5.45582
-12.0585 24.0752 5.45282
-12.0178 24.0979 5.44974
-11.9771 24.1206 5.44621
-11.9367 24.1427 5.4423
-11.8957 24.1638 5.43817
-11.8442 24.164 5.43839
-11.8155 24.2042 5.42756
-11.7765 24.2236 5.42112
-11.7378 24.2429 5.41439
-11.6993 24.262 5.40722
-11.6611 24.2808 5.39972
-11.623 24.2994 5.39188
-11.585 24.3177 5.38376
-11.5471 24.3359 5.37536
-11.5093 24.3539 5.36676
-11.4715 24.3719 5.35796
-11.4337 24.3894 5.349
-11.3959 24.4068 5.33984
-11.3582 24.4242 5.33043
-11.3207 24.4417 5.32081
-11.2832 24.4591 5.31105
-11.2456 24.4762 5.30118
-11.2079 24.4932 5.29123
-11.1701 24.5101 5.28118
-11.1324 24.5271 5.27101
-11.0945 24.5436 5.26088
-11.0564 24.5601 5.25073
-11.0181 24.5763 5.24059
-10.9794 24.5918 5.23054
-10.9406 24.6074 5.22039
-10.9017 24.6229 5.21
-10.8627 24.6385 5.19958
-10.8235 24.6542 5.18928
-10.7836 24.6689 5.1793
-10.7435 24.6839 5.16933
-10.7032 24.699 5.15956
-10.6615 24.7147 5.14994
-10.6033 24.6896 5.15145
-10.5739 24.7432 5.13514
-10.5304 24.7568 5.12791
-10.4866 24.7702 5.12099
-10.4426 24.7837 5.11425
-10.3984 24.7976 5.10752
-10.3543 24.8127 5.10064
-10.3104 24.8285 5.0938
-10.2663 24.8442 5.08691
-10.2221 24.86 5.07979
-10.1774 24.8748 5.07276
-10.1325 24.8892 5.06573
-10.0883 24.9059 5.05832
-10.0442 24.9226 5.05095
-9.99989 24.9391 5.04355
-9.95556 24.9556 5.03606
-9.91111 24.9721 5.02842
-9.8664 24.9885 5.02057
-9.82163 25.0049 5.01255
-9.77685 25.0212 5.0044
-9.73194 25.0367 4.9962
-9.68726 25.0522 4.98786
-9.64276 25.0676 4.97939
-9.59789 25.0814 4.97098
-9.55289 25.0946 4.96251
-9.5078 25.1078 4.95389
-9.46238 25.1192 4.94534
-9.417 25.1292 4.93679
-9.37199 25.1391 4.92803
-9.32732 25.1489 4.91906
-9.28327 25.1582 4.90987
-9.24059 25.1681 4.90051
-9.19106 25.1478 4.89499
-9.15855 25.1866 4.87958
-9.11956 25.1946 4.86903
-9.08134 25.2024 4.85818
-9.04375 25.2099 4.84706
-9.00659 25.2175 4.83565
-8.96991 25.2255 4.82392
-8.93352 25.2331 4.81199
-8.89725 25.2407 4.79982
-8.86084 25.2484 4.78737
-8.82441 25.2559 4.77469
-8.78799 25.2632 4.76183
-8.75148 25.27 4.74884
-8.71505 25.2769 4.73561
-8.67867 25.284 4.72217
-8.64225 25.291 4.70856
-8.60571 25.2977 4.69491
-8.56904 25.3039 4.68134
-8.53226 25.3101 4.66764
-8.49526 25.3163 4.65377
-8.45766 25.3213 4.63993
-8.41963 25.326 4.62585
-8.3812 25.331 4.61154
-8.34231 25.3362 4.59698
-8.30307 25.3421 4.58211
-8.2634 25.348 4.56703
-8.22312 25.3542 4.55168
-8.182 25.3606 4.53599
-8.14018 25.3678 4.51992
-8.09767 25.3753 4.50366
-8.05378 25.3826 4.48712
-8.00838 25.3901 4.47018
-7.97129 25.4458 4.44496
-7.90821 25.4089 4.43345
-7.8554 25.4197 4.41412
-7.80143 25.4315 4.39416
-7.7463 25.444 4.37379
-7.6908 25.457 4.35291
-7.6348 25.4709 4.33163
-7.57855 25.4866 4.30982
-7.52189 25.5025 4.28788
-7.46558 25.5196 4.26576
-7.40976 25.5386 4.24326
-7.35356 25.5578 4.22068
-7.29685 25.5766 4.19815
-7.24021 25.5968 4.17536
-7.18323 25.6169 4.1526
-7.12595 25.6366 4.12995
-7.06869 25.6565 4.10731
-7.01145 25.6764 4.08471
-6.95432 25.6963 4.06219
-6.89794 25.7175 4.03951
-6.84029 25.7351 4.01765
-6.78197 25.7495 3.99652
-6.72338 25.7623 3.97588
-6.66537 25.7759 3.95528
-6.6078 25.7903 3.93485
-6.55034 25.8045 3.91479
-6.49305 25.8181 3.89532
-6.43638 25.8315 3.87633
-6.38051 25.8452 3.85771
-6.32536 25.8589 3.83951
-6.27117 25.8724 3.82197
-6.21816 25.8874 3.8054
-6.17494 25.9246 3.78319
-6.11736 25.9159 3.7758
-6.07018 25.9303 3.76219
-6.02437 25.9441 3.74905
-5.97962 25.9578 3.73657
-5.93569 25.9715 3.72457
-5.89304 25.9864 3.71266
-5.85111 26.0012 3.70127
-5.80982 26.016 3.69023
-5.76865 26.0301 3.6797
-5.72788 26.0439 3.66955
-5.68757 26.0577 3.65976
-5.64806 26.0723 3.65
-5.60908 26.087 3.64054
-5.57048 26.1018 3.63136
-5.53205 26.1165 3.6225
-5.49378 26.1311 3.61386
-5.45535 26.1454 3.60547
-5.41694 26.1596 3.59732
-5.37861 26.1737 3.58944
-5.34046 26.1879 3.58173
-5.30262 26.2025 3.57408
-5.26492 26.2171 3.56665
-5.22733 26.2317 3.55942
-5.18989 26.2464 3.55242
-5.15258 26.2609 3.54578
-5.11536 26.2754 3.53933
-5.07824 26.2901 3.53296
-5.04107 26.305 3.52677
-5.00366 26.3198 3.52095
-4.96604 26.3346 3.51527
-4.92779 26.349 3.50996
-4.88246 26.3471 3.51087
-4.84999 26.377 3.49912
-4.81095 26.392 3.49313
-4.77144 26.4071 3.48744
-4.73165 26.4221 3.48191
-4.69181 26.4372 3.47652
-4.65189 26.4524 3.47125
-4.61196 26.4678 3.46602
-4.57218 26.4837 3.46077
-4.53224 26.4993 3.4559
-4.49224 26.5148 3.45126
-4.45181 26.5294 3.44722
-4.41127 26.5438 3.44344
-4.37074 26.5582 3.43981
-4.33009 26.5724 3.43648
-4.28955 26.5868 3.43323
-4.24909 26.6012 3.43014
-4.20877 26.6157 3.42724
-4.16848 26.63 3.42461
-4.12813 26.644 3.42231
-4.08787 26.6581 3.42017
-4.04773 26.6724 3.41816
-4.00763 26.6866 3.41635
-3.96758 26.7008 3.41476
-3.92751 26.7149 3.41342
-3.88745 26.729 3.41225
-3.84735 26.7428 3.41139
-3.80733 26.7566 3.41077
-3.7674 26.7703 3.4104
-3.72766 26.7844 3.41015
-3.68823 26.7989 3.40994
-3.649 26.8134 3.40997
-3.61115 26.831 3.40882
-3.57155 26.8424 3.41134
-3.53288 26.8561 3.41301
-3.49493 26.8709 3.41413
-3.45693 26.8853 3.41575
-3.41869 26.899 3.41803
-3.38004 26.9112 3.42122
-3.34135 26.923 3.42479
-3.30266 26.9347 3.42851
-3.26378 26.946 3.43257
-3.22488 26.9572 3.43672
-3.18597 26.9686 3.44098
-3.14703 26.9799 3.44532
-3.10811 26.9915 3.44966
-3.06912 27.0031 3.45413
-3.03008 27.0146 3.45866
-2.991 27.0262 3.46325
-2.95187 27.0375 3.46795
-2.91267 27.0488 3.47266
-2.87337 27.0602 3.47739
-2.83394 27.0717 3.4821
-2.79423 27.0829 3.48699
-2.75432 27.0941 3.49189
-2.71422 27.1053 3.49678
-2.67393 27.1166 3.50167
-2.63347 27.1278 3.5066
-2.59264 27.1385 3.51176
-2.55139 27.1489 3.51707
-2.50977 27.1592 3.52236
-2.46778 27.1695 3.5276
-2.42529 27.18 3.53276
-2.38223 27.1903 3.53786
-2.33869 27.2024 3.54215
-2.29308 27.2092 3.54851
-2.2471 27.2187 3.55363
-2.20057 27.2283 3.55865
-2.15364 27.2384 3.56333
-2.10641 27.2488 3.56782
-2.05886 27.2592 3.57222
-2.01099 27.2696 3.57654
-1.96286 27.2797 3.58093
-1.91477 27.2903 3.58505
-1.86655 27.3008 3.5891
-1.81818 27.3115 3.59301
-1.76976 27.3227 3.59661
-1.7212 27.334 3.6001
-1.67238 27.3446 3.60371
-1.6234 27.3551 3.60729
-1.57425 27.3656 3.61079
-1.52476 27.3759 3.61435
-1.47485 27.3839 3.61865
-1.42493 27.3921 3.62273
-1.37503 27.4003 3.62669
-1.32506 27.4069 3.6311
-1.27512 27.4129 3.63561
-1.22527 27.4187 3.63997
-1.17543 27.4233 3.64462
-1.12559 27.427 3.64949
-1.07592 27.4306 3.65418
-1.02656 27.4342 3.65866
-0.977463 27.4364 3.66338
-0.928669 27.4385 3.66788
-0.880344 27.4404 3.67209
-0.832604 27.4422 3.67599
-0.785551 27.4289 3.68565
-0.739048 27.441 3.68421
-0.694416 27.4396 3.68763
-0.65028 27.4383 3.69084
-0.606651 27.4368 3.69376
-0.563532 27.4328 3.69747
-0.520706 27.4283 3.70113
-0.47808 27.4238 3.70453
-0.43562 27.4193 3.70774
-0.393279 27.4143 3.71101
-0.351448 27.4071 3.71501
-0.309537 27.4005 3.7186
-0.26766 27.3939 3.72202
-0.225837 27.3873 3.72531
-0.183984 27.3806 3.72849
-0.141913 27.3746 3.73125
-0.0996517 27.3687 3.73393
-0.0572514 27.3614 3.73708
-0.0146695 27.354 3.74018
0.0285357 27.3493 3.74204
0.0721557 27.3467 3.74301
0.116057 27.3441 3.74398
0.160179 27.3443 3.74369
0.204395 27.3467 3.74245
0.248684 27.3492 3.74111
0.292676 27.3516 3.73958
0.336782 27.3539 3.738
0.381312 27.3563 3.7365
0.426032 27.3612 3.73404
0.470984 27.3667 3.73117
0.516524 27.3724 3.72834
0.562678 27.3782 3.72561
0.613175 27.3632 3.73358
0.659134 27.3901 3.71956
0.709235 27.3953 3.71692
0.759353 27.3993 3.71607
0.809984 27.4034 3.71531
0.861043 27.4073 3.71478
0.912569 27.4094 3.71531
0.964515 27.4112 3.71611
1.01668 27.413 3.71691
1.06883 27.4147 3.71768
1.12109 27.4167 3.71828
1.17348 27.4194 3.71848
1.22603 27.4221 3.71869
1.27877 27.4248 3.71886
1.33164 27.4277 3.719
1.38456 27.4311 3.71877
1.43751 27.4346 3.71842
1.49039 27.4389 3.71763
1.54328 27.4429 3.71683
1.59619 27.4468 3.71604
1.64908 27.4509 3.71508
1.70193 27.455 3.71401
1.75476 27.459 3.71292
1.80758 27.4629 3.71177
1.86041 27.4665 3.71069
1.91331 27.4697 3.70977
1.96619 27.4727 3.70887
2.01895 27.4751 3.70816
2.0717 27.4774 3.7073
2.12469 27.4785 3.7068
2.17752 27.4792 3.70626
2.23017 27.4792 3.70589
2.28268 27.446 3.72277
2.33515 27.4773 3.70433
2.38644 27.4759 3.70386
2.43721 27.474 3.70328
2.48763 27.4718 3.70275
2.53772 27.4692 3.70245
2.58755 27.4663 3.70214
2.63717 27.4632 3.7018
2.68659 27.46 3.70134
2.73585 27.4569 3.70075
2.78491 27.4536 3.70014
2.83378 27.4498 3.69967
2.88249 27.4465 3.6989
2.93102 27.4431 3.69803
2.9794 27.4398 3.6971
3.02762 27.4362 3.69624
3.07572 27.4319 3.6957
3.12381 27.4276 3.69511
3.17181 27.4234 3.69448
3.21966 27.4191 3.69382
3.26732 27.4146 3.69322
3.31469 27.4095 3.69293
3.36186 27.4045 3.6926
3.40884 27.3995 3.69225
3.45564 27.3945 3.69189
3.5022 27.3885 3.69197
3.54854 27.3824 3.69215
3.59456 27.3763 3.69232
3.64043 27.3703 3.69255
3.68633 27.3638 3.69325
3.73185 27.3563 3.69459
3.77692 27.3489 3.69594
3.8134 27.2955 3.71993
3.8675 27.3332 3.6994
3.90983 27.3244 3.70137
3.95163 27.3156 3.70343
3.99293 27.3064 3.70571
4.03384 27.2975 3.70816
4.07441 27.2885 3.71072
4.11468 27.2792 3.71341
4.15477 27.2699 3.7161
4.19468 27.2604 3.71894
4.23445 27.2508 3.72182
4.27413 27.2414 3.72464
4.31374 27.2321 3.72741
4.35325 27.2227 3.73018
4.3927 27.2134 3.73294
4.4319 27.2034 3.73605
4.47094 27.1927 3.73938
4.51003 27.1822 3.74258
4.5492 27.1718 3.74568
4.58835 27.1612 3.74884
4.62746 27.1502 3.75216
4.66664 27.1392 3.75546
4.70593 27.1281 3.75875
4.74486 27.1154 3.76278
4.78383 27.1024 3.76694
4.82289 27.0894 3.77113
4.8621 27.0761 3.7754
4.90124 27.0619 3.78004
4.94089 27.0477 3.78455
4.9814 27.0337 3.78884
5.0222 27.0195 3.79313
5.06297 27.0035 3.79812
5.09009 26.9564 3.81955
5.14537 26.9719 3.80908
5.18869 26.9561 3.81321
5.23216 26.9396 3.8176
5.27596 26.9227 3.82197
5.3195 26.9051 3.82671
5.36304 26.8869 3.83166
5.40688 26.8683 3.83658
5.45141 26.8507 3.84098
5.49607 26.8331 3.84551
5.54089 26.8155 3.85011
5.58587 26.7979 3.85472
5.63102 26.7803 3.8593
5.67627 26.7625 3.86394
5.72161 26.7446 3.8686
5.7665 26.7256 3.87385
5.81104 26.7059 3.87952
5.85558 26.6862 3.88515
5.89934 26.6651 3.89163
5.94326 26.6442 3.89799
5.9872 26.6233 3.90438
6.03107 26.6022 3.91089
6.07473 26.5808 3.91766
6.11869 26.5599 3.92417
6.16259 26.5389 3.93078
6.20551 26.5163 3.93834
6.24835 26.4935 3.946
6.29091 26.4705 3.95393
6.33346 26.4477 3.96185
6.37632 26.4256 3.96944
6.41905 26.4036 3.97711
6.46152 26.3816 3.98494
6.51571 26.3789 3.98206
6.54637 26.3384 4.00045
6.58857 26.3177 4.00825
6.63052 26.2973 4.0161
6.6723 26.2769 4.02404
6.71382 26.2564 4.03217
6.75538 26.2363 4.04024
6.79672 26.2161 4.04846
6.83861 26.1971 4.05615
6.88004 26.1774 4.06427
6.9214 26.1578 4.07245
6.96333 26.1393 4.08012
7.00553 26.1216 4.0875
7.04764 26.1039 4.0949
7.08933 26.0856 4.10262
7.13143 26.0682 4.10995
7.17368 26.0513 4.11713
7.21578 26.0344 4.12447
7.25728 26.0165 4.13223
7.2989 25.9989 4.13986
7.34077 25.9819 4.14724
7.3826 25.965 4.15457
7.42428 25.9478 4.16193
7.46592 25.9306 4.16922
7.50751 25.9133 4.17646
7.54937 25.8967 4.1834
7.59116 25.88 4.19027
7.63295 25.8632 4.19702
7.67502 25.8471 4.20343
7.71711 25.8309 4.20971
7.75922 25.8146 4.21583
7.80139 25.7983 4.22176
7.84239 25.7789 4.22843
7.88609 25.7649 4.23279
7.92855 25.7477 4.23793
7.9705 25.7294 4.24333
8.01231 25.7107 4.24867
8.05409 25.692 4.25388
8.09612 25.6739 4.25874
8.13829 25.656 4.26334
8.18039 25.6382 4.26784
8.22326 25.6224 4.27157
8.26649 25.6075 4.27487
8.3097 25.5926 4.27808
8.35288 25.5777 4.28121
8.396 25.5626 4.28427
8.43962 25.549 4.28677
8.48359 25.5365 4.2888
8.52761 25.5239 4.29073
8.57257 25.5142 4.29169
8.6178 25.5051 4.29233
8.66302 25.4953 4.29289
8.70869 25.4878 4.29289
8.75436 25.4804 4.29273
8.80005 25.4729 4.29244
8.84595 25.4665 4.29181
8.89199 25.4608 4.29097
8.93813 25.455 4.29
8.98426 25.4492 4.28894
9.03047 25.4449 4.28758
9.0767 25.4417 4.28598
9.12286 25.4385 4.28431
9.16885 25.4353 4.2826
9.21475 25.4324 4.28084
9.26092 25.4426 4.27726
9.30532 25.4284 4.27708
9.34974 25.4266 4.27536
9.39393 25.4247 4.27365
9.43786 25.421 4.2722
9.48175 25.4173 4.27075
9.52555 25.4136 4.26931
9.56922 25.4099 4.26786
9.61276 25.4056 4.26648
9.65608 25.3992 4.26535
9.69942 25.3928 4.26419
9.74274 25.3864 4.26303
9.78604 25.38 4.26186
9.82915 25.3724 4.26086
9.87213 25.3642 4.25995
9.91512 25.3559 4.25904
9.95813 25.3475 4.2581
10.0013 25.3399 4.25705
10.0442 25.331 4.25614
10.0871 25.3212 4.25536
10.1299 25.3113 4.25465
10.1728 25.3008 4.25408
10.2158 25.2901 4.25361
10.2591 25.2804 4.25296
10.3026 25.2706 4.2523
10.3462 25.2609 4.25159
10.39 25.251 4.25088
10.4338 25.2406 4.25036
10.4779 25.2301 4.24991
10.5221 25.2195 4.24954
10.5667 25.2089 4.24921
10.6122 25.1974 4.24822
10.645 25.1348 4.25885
10.7045 25.1729 4.24719
10.7512 25.1607 4.24731
10.798 25.148 4.24771
10.8449 25.1342 4.24846
10.892 25.1215 4.24944
10.9394 25.1095 4.25047
10.9869 25.0977 4.25146
11.0345 25.0854 4.25268
11.082 25.0728 4.25414
11.1296 25.0602 4.25568
11.1774 25.0475 4.25725
11.2251 25.0345 4.25894
11.2728 25.021 4.26074
11.3205 25.0074 4.2625
11.3684 24.9939 4.26425
11.4165 24.9802 4.26597
11.4646 24.9657 4.26796
11.5127 24.9511 4.26992
11.561 24.9365 4.27184
11.6086 24.9203 4.2742
11.6561 24.9041 4.27652
11.703 24.8865 4.27923
11.7494 24.8678 4.28221
11.7958 24.8491 4.28509
11.8419 24.8294 4.28818
11.888 24.8096 4.29117
11.9338 24.7899 4.29398
11.9796 24.7701 4.29671
12.0254 24.7497 4.29967
12.0707 24.7284 4.30282
12.1163 24.7067 4.30541
12.1239 24.6132 4.3336
12.2039 24.6632 4.31038
12.2457 24.6416 4.31289
12.2863 24.6204 4.31484
12.3265 24.5994 4.31655
12.3664 24.5785 4.31809
12.4056 24.5568 4.31971
12.4447 24.5353 4.32102
12.484 24.5144 4.32184
12.5228 24.4928 4.32259
12.5614 24.4709 4.3232
12.6 24.4492 4.32359
12.6382 24.4271 4.32397
12.6758 24.4038 4.32459
12.7137 24.3811 4.32496
12.7515 24.3585 4.32524
12.7891 24.3355 4.32559
12.8264 24.3123 4.32608
12.8636 24.289 4.32656
12.9005 24.2652 4.32715
12.9374 24.2413 4.32769
12.9744 24.2175 4.32815
13.0115 24.1937 4.32852
13.0488 24.17 4.32879
13.0862 24.1463 4.32899
13.1236 24.1228 4.32909
13.1611 24.0991 4.32916
13.1988 24.0752 4.32918
13.2366 24.0512 4.32914
13.2745 24.027 4.32901
13.3127 24.0026 4.32876
13.3512 23.9781 4.32841
13.3979 23.9655 4.32511
13.4302 23.9284 4.32715
13.4705 23.903 4.32628
13.5112 23.8778 4.32525
13.5522 23.8525 4.32414
13.5933 23.8269 4.32309
13.6343 23.8009 4.32207
13.6764 23.7764 4.32073
13.7185 23.7517 4.31939
13.7609 23.7273 4.31799
13.8044 23.7048 4.31632
13.848 23.6822 4.31467
13.8923 23.6609 4.31285
13.9368 23.6399 4.31101
13.9813 23.619 4.30921
14.0259 23.5981 4.30746
14.0712 23.5795 4.30567
14.1166 23.5616 4.30407
14.1618 23.5438 4.30259
14.2069 23.5261 4.30119
14.252 23.5085 4.29987
14.2967 23.49 4.29865
14.3412 23.4712 4.2975
14.3855 23.4521 4.29644
14.43 23.4332 4.29542
14.4745 23.4145 4.29438
14.519 23.3957 4.29342
14.5634 23.377 4.2926
14.6069 23.3564 4.2919
14.6503 23.3359 4.29136
14.6936 23.3155 4.29104
14.7356 23.2922 4.29095
14.7756 23.2657 4.29119
14.8186 23.2451 4.29192
14.8596 23.2214 4.29313
14.9003 23.1976 4.29455
14.9408 23.1734 4.29618
14.9812 23.1494 4.29793
15.021 23.1243 4.29978
15.0605 23.0991 4.30177
15.1004 23.0748 4.30379
15.1406 23.0509 4.30582
15.1806 23.0271 4.30788
15.2202 23.0027 4.31001
15.26 22.9787 4.31213
15.2996 22.9547 4.31429
15.3392 22.9308 4.31646
15.3787 22.9069 4.31861
15.4182 22.883 4.32076
15.4577 22.859 4.3229
15.4965 22.8339 4.3251
15.5352 22.8089 4.32724
15.5739 22.7841 4.32929
15.6126 22.7596 4.33122
15.6513 22.7352 4.33304
15.6898 22.711 4.33475
15.7273 22.6853 4.33648
15.7645 22.6594 4.33817
15.8014 22.6335 4.33975
15.8381 22.6075 4.34113
15.8746 22.5817 4.3423
15.9109 22.5561 4.34326
15.9471 22.5307 4.34391
15.983 22.5056 4.34421
16.0137 22.4739 4.34427
16.0535 22.4567 4.3427
16.0891 22.4341 4.34111
16.1244 22.4114 4.33925
16.1594 22.3888 4.3371
16.1942 22.3662 4.33473
16.2289 22.3438 4.33214
16.2629 22.3206 4.32944
16.2968 22.2973 4.32659
16.3312 22.275 4.32358
16.3656 22.2527 4.32047
16.4 22.2304 4.31726
16.4341 22.2079 4.31397
16.468 22.1851 4.31061
16.5018 22.1623 4.30719
16.5356 22.1395 4.30374
16.5693 22.1164 4.30032
16.6029 22.0934 4.29696
16.6365 22.0704 4.29364
16.6698 22.0468 4.29037
16.7028 22.0227 4.28716
16.7358 21.9982 4.28397
16.7689 21.9737 4.28075
16.8022 21.9492 4.27754
16.8355 21.9243 4.27433
16.8689 21.8995 4.2711
16.9028 21.875 4.2678
16.9373 21.8507 4.26446
16.9717 21.8258 4.26119
17.0063 21.8007 4.25796
17.0414 21.7752 4.25474
17.0769 21.7493 4.25161
17.1083 21.7164 4.24934
17.1502 21.696 4.2452
17.1879 21.6683 4.24199
17.2257 21.6401 4.23897
17.2638 21.6112 4.23605
17.302 21.5821 4.23322
17.3405 21.5527 4.2305
17.3788 21.5226 4.22796
17.4172 21.4923 4.22555
17.4557 21.462 4.22324
17.4929 21.4299 4.22133
17.5305 21.398 4.21951
17.5685 21.3663 4.21779
17.6066 21.3344 4.21623
17.6447 21.3025 4.21484
17.6824 21.2699 4.21367
17.7196 21.2368 4.21273
17.7567 21.2037 4.21193
17.7944 21.1713 4.21123
17.832 21.1389 4.21073
17.8697 21.1065 4.21047
17.9065 21.0732 4.21055
17.9434 21.04 4.2109
17.9803 21.0068 4.21154
18.0171 20.9735 4.21249
18.0541 20.9401 4.21375
18.0908 20.9065 4.21537
18.1266 20.872 4.21743
18.1622 20.8374 4.21989
18.1977 20.8029 4.22272
18.233 20.7685 4.22601
18.2683 20.7341 4.23007
18.2681 20.6645 4.23644
18.3378 20.6651 4.23892
18.3712 20.6312 4.24466
18.4047 20.5976 4.25088
18.4383 20.5646 4.25753
18.4716 20.5313 4.26457
18.5048 20.4981 4.27201
18.5381 20.4653 4.27986
18.5711 20.4326 4.28808
18.6036 20.3996 4.29662
18.6355 20.3663 4.30552
18.667 20.3328 4.31475
18.6985 20.2996 4.3243
18.73 20.2665 4.33419
18.7613 20.2334 4.34437
18.7916 20.1996 4.3548
18.8219 20.1658 4.36545
18.8521 20.132 4.3762
18.8822 20.0982 4.38715
18.9115 20.0639 4.39834
18.9406 20.0295 4.40979
18.9696 19.9952 4.42152
18.9982 19.9609 4.43353
19.0267 19.9267 4.44582
19.0552 19.8926 4.4584
19.0837 19.8585 4.47129
19.1124 19.8249 4.48448
19.1412 19.7917 4.49797
19.1691 19.758 4.51176
19.1964 19.724 4.52586
19.2235 19.6902 4.54031
19.2504 19.6566 4.55505
19.2511 19.6024 4.56988
19.304 19.5913 4.58625
19.3303 19.5585 4.60258
19.3558 19.5257 4.61858
19.3812 19.4932 4.63483
19.4064 19.4608 4.65144
19.4316 19.4287 4.66833
19.4569 19.397 4.68544
19.4813 19.3647 4.7027
19.5057 19.3325 4.72012
19.5305 19.3008 4.73775
19.5551 19.2691 4.75557
19.5791 19.237 4.77354
19.6032 19.2051 4.79175
19.6275 19.1735 4.81019
19.6517 19.142 4.8288
19.6749 19.1097 4.84746
19.6981 19.0776 4.86623
19.7218 19.0459 4.88522
19.7454 19.0142 4.90437
19.7688 18.9823 4.92364
19.7915 18.9499 4.94296
19.8142 18.9174 4.96244
19.8369 18.885 4.98209
19.8597 18.8527 5.00196
19.8835 18.8212 5.02221
19.9065 18.7891 5.04251
19.9293 18.7566 5.06291
19.9521 18.7242 5.08348
19.975 18.6917 5.10415
19.9979 18.6591 5.12501
20.0204 18.6259 5.14649
20.0169 18.5707 5.16164
20.0655 18.5587 5.1899
20.0883 18.5248 5.21164
20.111 18.4907 5.23338
20.1332 18.456 5.25512
20.1555 18.4213 5.27663
20.1778 18.3866 5.29812
20.1996 18.3513 5.3195
20.2213 18.3159 5.34092
20.243 18.2805 5.36235
20.2644 18.2447 5.38368
20.2856 18.2088 5.40497
20.3068 18.1728 5.42627
20.3279 18.1366 5.44751
20.349 18.1004 5.46873
20.3701 18.064 5.48992
20.3912 18.0276 5.51105
20.412 17.9909 5.532
20.4328 17.9542 5.55289
20.4536 17.9174 5.57371
20.4747 17.8808 5.59453
20.4966 17.8448 5.61551
20.5178 17.8081 5.63615
20.5391 17.7715 5.65669
20.5616 17.7357 5.67753
20.5841 17.6999 5.69827
20.6067 17.664 5.71888
20.6296 17.6283 5.73939
20.6531 17.5931 5.75994
20.6767 17.5579 5.78028
20.7004 17.5227 5.80037
20.7248 17.4876 5.82002
20.7572 17.4605 5.84358
20.7744 17.4182 5.85857
20.7993 17.3836 5.87742
20.8244 17.3491 5.89599
20.8496 17.3147 5.91431
20.8752 17.2806 5.93254
20.901 17.2465 5.95054
20.9268 17.2124 5.96831
20.9524 17.1779 5.98567
20.978 17.1434 6.00286
21.0041 17.1091 6.02003
21.0301 17.0748 6.03697
21.0562 17.0404 6.05368
21.0825 17.006 6.07019
21.108 16.9708 6.08608
21.1332 16.9351 6.10152
21.1584 16.8995 6.11681
21.1836 16.8639 6.13199
21.2089 16.8283 6.14703
21.2349 16.7932 6.16224
21.2611 16.7583 6.17733
21.2874 16.7233 6.19223
21.3138 16.6883 6.20696
21.3406 16.6536 6.22161
21.3675 16.6188 6.23605
21.3944 16.5839 6.25024
21.4213 16.5489 6.26419
21.4484 16.5139 6.27791
21.4755 16.4787 6.29138
21.5028 16.4435 6.30465
21.5303 16.4082 6.31765
21.5579 16.3728 6.33042
21.5642 16.3168 6.33333
21.6149 16.2998 6.35322
21.6423 16.2629 6.36459
21.6698 16.2258 6.3757
21.6974 16.1887 6.38657
21.7252 16.1515 6.3972
21.7523 16.1136 6.40734
21.7791 16.0754 6.41717
21.8058 16.0371 6.42672
21.8325 15.9988 6.43608
21.8592 15.9606 6.44525
21.8858 15.9223 6.45419
21.9122 15.8839 6.46289
21.9388 15.8454 6.47146
21.9655 15.807 6.47987
21.9917 15.7682 6.48796
22.0173 15.7288 6.49566
22.0429 15.6895 6.50323
22.0673 15.6493 6.51028
22.0921 15.6094 6.51728
22.1174 15.5698 6.52433
22.1436 15.531 6.53161
22.17 15.4923 6.5388
22.1964 15.4537 6.54586
22.2215 15.4143 6.55239
22.2449 15.3739 6.55818
22.2682 15.3336 6.56385
22.2927 15.294 6.56979
22.3184 15.2554 6.57608
22.3439 15.2169 6.58227
22.3693 15.1785 6.58833
22.3942 15.1395 6.59523
22.3962 15.0852 6.59148
22.4417 15.0608 6.60686
22.4652 15.022 6.61171
22.488 14.9832 6.61634
22.5105 14.9443 6.62067
22.5334 14.906 6.62538
22.5565 14.868 6.63015
22.5795 14.83 6.63478
22.6023 14.7919 6.63924
22.6249 14.7538 6.64354
22.6465 14.715 6.64735
22.6678 14.6761 6.6509
22.6902 14.6379 6.65498
22.7126 14.5997 6.65903
22.7349 14.5616 6.66303
22.7575 14.5236 6.66705
22.7804 14.4858 6.6712
22.8029 14.4478 6.67496
22.8249 14.4093 6.67835
22.846 14.3704 6.68134
22.8675 14.3317 6.68443
22.8893 14.293 6.68757
22.9116 14.2546 6.6909
22.9339 14.2161 6.69418
22.956 14.1775 6.69735
22.9775 14.1383 6.70021
22.9986 14.0989 6.70289
23.0196 14.0592 6.70549
23.0407 14.0194 6.70804
23.0608 13.9786 6.71005
23.081 13.9376 6.71193
23.1013 13.8964 6.71379
23.0917 13.8396 6.70477
23.1427 13.8136 6.71783
23.1642 13.7716 6.7197
23.1866 13.73 6.72196
23.2064 13.687 6.72359
23.2245 13.6437 6.72535
23.2419 13.6 6.72712
23.2601 13.5565 6.72906
23.2783 13.5129 6.73094
23.2961 13.4692 6.7326
23.3139 13.4255 6.73421
23.3317 13.3818 6.73578
23.3495 13.338 6.7373
23.3668 13.2939 6.73869
23.3841 13.2498 6.74005
23.4008 13.2054 6.74117
23.416 13.1605 6.74185
23.4312 13.1156 6.74248
23.4456 13.0706 6.74283
23.4603 13.0256 6.74319
23.4763 12.9811 6.74391
23.4923 12.9366 6.74465
23.5073 12.8917 6.74506
23.5217 12.8467 6.7452
23.5366 12.8018 6.74542
23.552 12.757 6.74561
23.5658 12.7116 6.74519
23.5801 12.6665 6.74496
23.5964 12.6222 6.74531
23.6124 12.5777 6.74472
23.6286 12.5335 6.74425
23.6454 12.4894 6.74373
23.6906 12.4561 6.75681
23.6814 12.4013 6.74214
23.6995 12.3582 6.74209
23.7172 12.315 6.74175
23.7348 12.2719 6.74131
23.7533 12.2292 6.74125
23.7723 12.1867 6.74139
23.7922 12.1447 6.74201
23.8128 12.1031 6.74306
23.8337 12.062 6.74456
23.8546 12.0211 6.74617
23.8755 11.9802 6.74772
23.8963 11.9393 6.74926
23.9176 11.8986 6.751
23.9389 11.8579 6.75273
23.9608 11.8176 6.75488
23.9827 11.7774 6.75712
24.0047 11.7373 6.75956
24.0266 11.6973 6.76204
24.0485 11.6572 6.76446
24.0703 11.617 6.76686
24.0921 11.5769 6.7693
24.114 11.5368 6.77175
24.1359 11.4966 6.77422
24.1574 11.4562 6.77641
24.1793 11.4161 6.77893
24.2013 11.376 6.78146
24.2233 11.3357 6.78401
24.2453 11.2954 6.78661
24.267 11.2548 6.78902
24.2886 11.214 6.79144
24.3102 11.173 6.79399
24.3078 11.1176 6.77745
24.3546 11.0892 6.79879
24.3765 11.0464 6.80084
24.3972 11.0035 6.80332
24.4164 10.9598 6.80457
24.4354 10.9165 6.80514
24.4545 10.8733 6.80571
24.4736 10.83 6.80641
24.492 10.7863 6.80671
24.5113 10.743 6.80786
24.5294 10.6992 6.80815
24.5473 10.6553 6.8084
24.5652 10.6114 6.8087
24.5826 10.5673 6.8087
24.5997 10.523 6.80849
24.6167 10.4787 6.80828
24.6327 10.4341 6.80743
24.6486 10.3895 6.80665
24.6649 10.3451 6.80618
24.6812 10.3008 6.8058
24.6976 10.2566 6.80546
24.714 10.2124 6.80505
24.7288 10.1677 6.80342
24.7437 10.1231 6.80192
24.7597 10.0787 6.80116
24.7761 10.0343 6.80072
24.7926 9.98985 6.80043
24.8092 9.94566 6.80034
24.8265 9.90172 6.80039
24.8469 9.85884 6.8016
24.8683 9.81646 6.80333
24.8878 9.77493 6.80555
24.9269 9.74073 6.81948
24.9257 9.68792 6.80915
24.9456 9.6462 6.81128
24.9652 9.60436 6.81315
24.9839 9.56248 6.81472
25.0042 9.52137 6.81679
25.0246 9.48041 6.81889
25.0448 9.43938 6.82094
25.065 9.39838 6.82302
25.0854 9.35753 6.82531
25.1052 9.31636 6.82729
25.1251 9.27531 6.8294
25.145 9.23428 6.83152
25.1649 9.19324 6.83364
25.1844 9.15206 6.83559
25.2039 9.11087 6.83752
25.2234 9.06968 6.83946
25.2423 9.02826 6.84117
25.2613 8.98685 6.84288
25.2803 8.94543 6.8446
25.2994 8.904 6.84633
25.3186 8.8626 6.84812
25.3378 8.82117 6.84992
25.357 8.77971 6.85173
25.3767 8.73847 6.85381
25.3966 8.69728 6.85597
25.4165 8.65605 6.85815
25.4359 8.61448 6.86006
25.4552 8.57277 6.86192
25.4743 8.53091 6.86375
25.4941 8.48925 6.86591
25.5141 8.4475 6.86809
25.5276 8.40226 6.86665
25.5544 8.3635 6.8723
25.5762 8.32202 6.87511
25.5977 8.27984 6.87741
25.6191 8.2375 6.87964
25.6379 8.19383 6.88087
25.6565 8.14992 6.88201
25.6738 8.10536 6.88252
25.693 8.06161 6.88396
25.7122 8.01796 6.88538
25.7313 7.97434 6.88683
25.7503 7.93066 6.88826
25.7712 7.88781 6.89063
25.7928 7.84519 6.8931
25.8119 7.80147 6.89465
25.8291 7.75702 6.89557
25.8452 7.71219 6.89614
25.8606 7.6672 6.89638
25.8778 7.62301 6.89751
25.8949 7.57884 6.89871
25.912 7.53468 6.89995
25.9279 7.48994 6.90057
25.945 7.44572 6.90185
25.9637 7.4023 6.90408
25.9802 7.35807 6.9053
25.9947 7.31317 6.9056
26.0082 7.26796 6.9055
26.0222 7.22294 6.90567
26.036 7.17785 6.90575
26.0487 7.1324 6.90532
26.0619 7.08714 6.90516
26.0758 7.0421 6.90532
26.1004 7.00042 6.91042
26.1036 6.95227 6.90544
26.117 6.90712 6.90523
26.1311 6.86225 6.90536
26.1467 6.81796 6.90632
26.1623 6.77393 6.90753
26.1782 6.73012 6.90898
26.1941 6.68636 6.91049
26.2104 6.64277 6.91221
26.2274 6.59962 6.91452
26.2435 6.55616 6.9163
26.2598 6.51279 6.91819
26.2765 6.46965 6.9204
26.2936 6.42668 6.92284
26.3109 6.38381 6.92543
26.328 6.34088 6.92793
26.3449 6.29787 6.93035
26.363 6.25536 6.93363
26.381 6.21284 6.93692
26.3989 6.17022 6.94007
26.4167 6.12757 6.94314
26.4349 6.08509 6.94641
26.4538 6.043 6.95022
26.4728 6.00091 6.95398
26.4917 5.95875 6.95765
26.5113 5.91683 6.96165
26.5309 5.87488 6.9656
26.5509 5.83315 6.96974
26.5711 5.79147 6.97392
26.5931 5.75066 6.97929
26.6153 5.70985 6.9846
26.6374 5.66899 6.98963
26.6655 5.63207 6.99913
26.6793 5.58658 6.9973
26.7005 5.54536 7.00094
26.7217 5.50417 7.00445
26.7428 5.46289 7.00774
26.7638 5.42148 7.01079
26.7845 5.37984 7.01348
26.8052 5.3382 7.01611
26.826 5.2965 7.01864
26.8467 5.25466 7.02104
26.8673 5.21269 7.02327
26.8877 5.17059 7.02531
26.9081 5.12843 7.02727
26.9286 5.08629 7.02925
26.9493 5.04416 7.03125
26.97 5.00206 7.03329
26.9908 4.96 7.03538
27.0116 4.91797 7.03747
27.0324 4.87593 7.03956
27.0532 4.83385 7.04163
27.0744 4.79187 7.04392
27.0956 4.7498 7.04621
27.1168 4.70766 7.04849
27.1381 4.66542 7.05077
27.1592 4.62297 7.05286
27.1802 4.58031 7.05474
27.2006 4.53721 7.05616
27.2211 4.49386 7.05753
27.2416 4.45037 7.05886
27.2622 4.4069 7.06005
27.2834 4.3634 7.06169
27.3049 4.31889 7.06291
27.2993 4.26131 7.04656
27.3457 4.22824 7.06611
27.3676 4.18237 7.06755
27.3879 4.13547 7.06789
27.4079 4.08812 7.06795
27.4276 4.04103 7.06836
27.4472 3.9939 7.06883
27.4665 3.94644 7.06905
27.485 3.89859 7.06868
27.5035 3.85091 7.06835
27.5221 3.80325 7.06804
27.541 3.75569 7.06796
27.5592 3.70784 7.06744
27.5771 3.65983 7.06676
27.5949 3.61178 7.06609
27.6123 3.56358 7.0651
27.6293 3.51528 7.06386
27.6464 3.46704 7.06264
27.6634 3.41886 7.06143
27.6805 3.37075 7.06026
27.6974 3.32272 7.0591
27.714 3.27474 7.05786
27.7304 3.22686 7.05661
27.7468 3.17909 7.05543
27.7628 3.13132 7.05408
27.7786 3.08354 7.05269
27.7943 3.0359 7.05138
27.8093 2.98833 7.04978
27.8239 2.94091 7.04806
27.8382 2.89372 7.04641
27.8523 2.84688 7.04491
27.8662 2.80045 7.04357
27.8595 2.74889 7.02921
27.8912 2.70883 7.04138
27.9033 2.66437 7.04073
27.9158 2.62033 7.04025
27.928 2.57666 7.03991
27.9403 2.53332 7.03983
27.952 2.49014 7.03958
27.9632 2.44708 7.03912
27.9743 2.40421 7.03874
27.9857 2.36156 7.03868
27.9972 2.31909 7.03874
28.0078 2.27657 7.03833
28.0181 2.23412 7.03776
28.0282 2.19177 7.03719
28.0372 2.14929 7.03596
28.0466 2.10695 7.03504
28.0561 2.06469 7.03427
28.0655 2.02244 7.03352
28.0745 1.98011 7.03244
28.0835 1.93781 7.03143
28.093 1.89561 7.03079
28.1024 1.85339 7.03016
28.1116 1.81113 7.02942
28.121 1.76889 7.02881
28.1304 1.72664 7.02824
28.1397 1.68441 7.02768
28.149 1.64214 7.02712
28.1584 1.59978 7.02655
28.1683 1.55743 7.02632
28.1784 1.51504 7.02619
28.189 1.47259 7.02637
28.1997 1.42989 7.02637
28.2062 1.38589 7.02293
28.2188 1.34276 7.02388
28.2295 1.29901 7.02306
28.2406 1.25503 7.02233
28.2517 1.21087 7.02154
28.2637 1.16679 7.02134
28.2748 1.12235 7.02042
28.286 1.0778 7.01946
28.2972 1.03317 7.0185
28.3086 0.988574 7.01778
28.3197 0.943827 7.01681
28.3306 0.898967 7.01569
28.3415 0.854044 7.01456
28.3525 0.809059 7.01343
28.3631 0.763952 7.01209
28.3737 0.718784 7.01069
28.3846 0.673605 7.00936
28.3962 0.628516 7.00838
28.4074 0.583287 7.00707
28.4185 0.538023 7.0057
28.4285 0.492544 7.0037
28.4366 0.446794 7.00076
28.4447 0.401009 6.99779
28.4525 0.355158 6.99464
28.4602 0.309277 6.99147
28.468 0.263361 6.98833
28.4757 0.217431 6.9852
28.4823 0.171343 6.9816
28.4898 0.125387 6.97839
28.4972 0.079437 6.97516
28.5047 0.0335147 6.97195
28.5121 -0.0123929 6.96875
28.5053 -0.0601119 6.95987
28.5276 -0.103491 6.96266
28.5359 -0.149092 6.95997
28.5439 -0.194677 6.95721
28.5515 -0.240302 6.95432
28.5587 -0.285855 6.95144
28.5656 -0.331408 6.94848
28.5724 -0.376966 6.9455
28.5792 -0.422507 6.94253
28.5852 -0.468109 6.93931
28.5912 -0.513697 6.93611
28.5965 -0.559368 6.93264
28.6005 -0.605144 6.92881
28.6044 -0.650929 6.92499
28.6083 -0.696718 6.9212
28.6122 -0.742515 6.91741
28.6158 -0.788316 6.91364
28.6191 -0.8341 6.90993
28.6224 -0.879879 6.90628
28.6259 -0.925657 6.90271
28.6293 -0.971449 6.89919
28.6323 -1.0173 6.89555
28.6349 -1.06319 6.89187
28.6384 -1.10907 6.8884
28.6418 -1.15496 6.88492
28.6452 -1.2009 6.88138
28.647 -1.24689 6.87731
28.6504 -1.29287 6.87382
28.654 -1.3389 6.87021
28.6576 -1.38495 6.86626
28.6604 -1.43112 6.86203
28.6643 -1.47732 6.85807
28.6858 -1.52291 6.86153
28.6724 -1.57062 6.84933
28.6767 -1.61761 6.84477
28.6821 -1.66425 6.84142
28.6876 -1.71096 6.83806
28.6931 -1.75772 6.83466
28.6986 -1.80451 6.83128
28.7041 -1.85133 6.82793
28.711 -1.89799 6.82549
28.7178 -1.9446 6.82317
28.7246 -1.99119 6.8209
28.732 -2.03775 6.81902
28.74 -2.08421 6.81761
28.7471 -2.13085 6.81551
28.7535 -2.17758 6.81301
28.7606 -2.22428 6.81096
28.7695 -2.27068 6.81018
28.7783 -2.31704 6.80943
28.7862 -2.36354 6.80804
28.7944 -2.40998 6.80687
28.8033 -2.45628 6.80622
28.8121 -2.50258 6.80557
28.8213 -2.54882 6.80515
28.8309 -2.59496 6.80509
28.8406 -2.64111 6.80499
28.8505 -2.68722 6.8051
28.861 -2.73322 6.80558
28.8715 -2.77921 6.80604
28.8819 -2.82522 6.80641
28.8929 -2.87111 6.80721
28.9039 -2.91699 6.80798
28.9149 -2.96283 6.80871
28.9379 -3.00558 6.82036
28.9376 -3.05447 6.81084
28.9493 -3.09985 6.81239
28.9611 -3.14508 6.81389
28.9729 -3.19026 6.81537
28.985 -3.23533 6.8171
28.997 -3.28036 6.81884
29.0094 -3.32527 6.82079
29.0218 -3.37009 6.82283
29.0343 -3.41482 6.82496
29.0469 -3.45949 6.82715
29.0593 -3.50422 6.82909
29.0715 -3.54895 6.83095
29.0837 -3.59367 6.83281
29.0957 -3.63848 6.8344
29.107 -3.68347 6.83544
29.1183 -3.72848 6.83647
29.1297 -3.77357 6.83748
29.141 -3.81871 6.83841
29.1518 -3.864 6.83889
29.1624 -3.90932 6.83924
29.1727 -3.95466 6.83933
29.183 -4.00001 6.83941
29.1934 -4.04539 6.8395
29.2036 -4.09089 6.83947
29.2135 -4.13672 6.83905
29.2225 -4.18281 6.83787
29.231 -4.22899 6.83627
29.2388 -4.2753 6.83403
29.2467 -4.32154 6.83193
29.2546 -4.3679 6.82988
29.2619 -4.41576 6.82783
29.2223 -4.46783 6.78707
29.2746 -4.51144 6.82261
29.281 -4.55896 6.81989
29.2875 -4.60646 6.81718
29.2923 -4.65377 6.81301
29.2968 -4.70032 6.80827
29.3012 -4.74659 6.80349
29.3057 -4.79292 6.79876
29.309 -4.8392 6.7931
29.312 -4.88538 6.78723
29.3146 -4.93153 6.78115
29.3172 -4.97767 6.77508
29.3197 -5.02382 6.76897
29.322 -5.07002 6.76261
29.3241 -5.11624 6.75613
29.3262 -5.16247 6.74963
29.3283 -5.20869 6.74314
29.3304 -5.25489 6.73663
29.3325 -5.30108 6.73012
29.3349 -5.34731 6.72393
29.3375 -5.39353 6.71774
29.34 -5.43977 6.71154
29.3423 -5.48602 6.70519
29.3447 -5.53228 6.69886
29.3471 -5.57856 6.69254
29.3496 -5.62488 6.6862
29.3515 -5.67118 6.67946
29.3532 -5.71748 6.67248
29.3549 -5.76381 6.66547
29.3565 -5.81014 6.65833
29.358 -5.85648 6.65106
29.3594 -5.90285 6.64372
29.3554 -5.94875 6.63204
29.3621 -5.99581 6.6285
29.3628 -6.04215 6.6203
29.3635 -6.08851 6.61208
29.3643 -6.13488 6.60385
29.3651 -6.18126 6.59561
29.3657 -6.22764 6.58729
29.3664 -6.27403 6.57897
29.3671 -6.32041 6.57065
29.368 -6.36681 6.56256
29.3697 -6.4133 6.55514
29.3715 -6.45978 6.54773
29.3731 -6.50626 6.54027
29.3746 -6.55274 6.5328
29.3773 -6.59929 6.52615
29.3798 -6.64585 6.51955
29.3824 -6.69243 6.513
29.3849 -6.73904 6.50656
29.388 -6.7857 6.50057
29.3916 -6.83237 6.49502
29.3951 -6.87904 6.48953
29.3984 -6.92571 6.48395
29.4014 -6.97237 6.47831
29.4054 -7.01906 6.47345
29.4094 -7.06575 6.46875
29.413 -7.11247 6.46396
29.4164 -7.15918 6.45916
29.4199 -7.20587 6.45459
29.4237 -7.25256 6.45034
29.4274 -7.29927 6.4462
29.4311 -7.34599 6.44216
29.4346 -7.3927 6.43822
29.4663 -7.43877 6.45264
29.4413 -7.48586 6.43037
29.4445 -7.53249 6.42661
29.4477 -7.57913 6.42297
29.4504 -7.62582 6.41928
29.454 -7.67256 6.41645
29.4576 -7.71933 6.41384
29.4612 -7.76613 6.41131
29.4646 -7.81288 6.40892
29.4693 -7.85942 6.40771
29.474 -7.90591 6.40673
29.4786 -7.95237 6.40586
29.4832 -7.99882 6.4051
29.4885 -8.04524 6.40508
29.4944 -8.09158 6.40555
29.5003 -8.13786 6.40626
29.5063 -8.18406 6.4071
29.5124 -8.23009 6.40813
29.5188 -8.27598 6.40956
29.5253 -8.32182 6.41119
29.5317 -8.36764 6.41292
29.5378 -8.4135 6.41463
29.5432 -8.45945 6.41606
29.5487 -8.50539 6.41763
29.5543 -8.5513 6.41954
29.5598 -8.59723 6.42157
29.5653 -8.64317 6.42375
29.5707 -8.68914 6.42609
29.5759 -8.73515 6.42852
29.5809 -8.7812 6.43103
29.5857 -8.82729 6.43372
29.5905 -8.87342 6.43662
29.5926 -8.91997 6.43804
29.5992 -8.96588 6.44326
29.6056 -9.01195 6.44859
29.6121 -9.05799 6.45434
29.6186 -9.10408 6.46028
29.6247 -9.1503 6.46615
29.6303 -9.19661 6.47178
29.6342 -9.24318 6.47618
29.6379 -9.2897 6.48071
29.6437 -9.33575 6.48714
29.6493 -9.38174 6.49364
29.6529 -9.42805 6.49834
29.6564 -9.47433 6.50313
29.6595 -9.52062 6.50782
29.6624 -9.56691 6.51254
29.6637 -9.61347 6.51594
29.6641 -9.6602 6.51875
29.6646 -9.70709 6.52194
29.6653 -9.75401 6.52561
29.6644 -9.80109 6.52797
29.662 -9.8482 6.52893
29.6594 -9.89525 6.52989
29.6555 -9.94222 6.52967
29.651 -9.98922 6.52907
29.6454 -10.0362 6.52749
29.6396 -10.0832 6.52603
29.6334 -10.1301 6.52423
29.6267 -10.177 6.5222
29.6193 -10.2238 6.51949
29.6118 -10.2708 6.51678
29.604 -10.3176 6.514
29.5957 -10.3645 6.51082
29.5708 -10.4068 6.49021
29.5783 -10.4574 6.504
29.5692 -10.503 6.50045
29.5598 -10.5484 6.49679
29.5509 -10.5939 6.4939
29.5427 -10.6398 6.4919
29.5352 -10.6859 6.49083
29.5274 -10.7318 6.48981
29.5194 -10.7777 6.48872
29.5112 -10.8236 6.48772
29.503 -10.8695 6.48699
29.4946 -10.9154 6.4864
29.4861 -10.9612 6.48594
29.4775 -11.007 6.48575
29.4693 -11.0529 6.48639
29.4605 -11.0986 6.48661
29.4515 -11.1444 6.48699
29.4423 -11.1901 6.48755
29.4337 -11.2359 6.48917
29.4251 -11.2817 6.49118
29.4164 -11.3275 6.49341
29.4075 -11.3732 6.49588
29.3985 -11.4188 6.4986
29.3893 -11.4645 6.50153
29.3795 -11.51 6.50427
29.3679 -11.5553 6.5058
29.3586 -11.6011 6.50997
29.3505 -11.6468 6.51554
29.3421 -11.6924 6.52134
29.3334 -11.7378 6.52727
29.3227 -11.7829 6.53165
29.3117 -11.8279 6.5363
29.3056 -11.8735 6.54678
29.2877 -11.9171 6.54643
29.2746 -11.9616 6.55149
29.2619 -12.006 6.55722
29.2489 -12.0503 6.56322
29.2357 -12.0944 6.56948
29.2224 -12.1385 6.57601
29.2088 -12.1825 6.58282
29.195 -12.2263 6.58987
29.181 -12.2701 6.59713
29.1668 -12.3138 6.60457
29.1522 -12.3573 6.61199
29.1374 -12.4008 6.61969
29.1226 -12.4441 6.62774
29.1082 -12.4874 6.63649
29.0938 -12.5305 6.64555
29.0793 -12.5736 6.6548
29.0648 -12.6164 6.6642
29.0513 -12.6593 6.67479
29.0376 -12.702 6.68556
29.0237 -12.7446 6.69643
29.0097 -12.7871 6.70751
28.9959 -12.8295 6.71917
28.9819 -12.8718 6.73103
28.9679 -12.9141 6.74321
28.9536 -12.9564 6.75569
28.9382 -12.9985 6.76769
28.9228 -13.0406 6.77999
28.9067 -13.0824 6.79197
28.8898 -13.124 6.80337
28.8728 -13.1656 6.81508
28.8558 -13.2072 6.82696
28.8147 -13.2444 6.81976
28.8194 -13.2901 6.85079
28.8014 -13.3314 6.86255
28.7833 -13.3725 6.87448
28.7651 -13.4135 6.88654
28.7464 -13.4544 6.89828
28.7278 -13.4951 6.91058
28.709 -13.5357 6.92306
28.6872 -13.5753 6.93294
28.666 -13.6148 6.94361
28.6449 -13.6541 6.95456
28.6236 -13.6932 6.96569
28.6027 -13.7323 6.97745
28.5822 -13.7714 6.98969
28.5611 -13.8103 7.00179
28.5399 -13.849 7.01407
28.5181 -13.8874 7.02607
28.4943 -13.9251 7.0367
28.4708 -13.9628 7.04785
28.4465 -14.0002 7.05867
28.4217 -14.0373 7.06946
28.3971 -14.0743 7.08092
28.3724 -14.1111 7.09257
28.3499 -14.1488 7.10639
28.3256 -14.1858 7.1187
28.2996 -14.2219 7.12888
28.2735 -14.258 7.13907
28.2472 -14.2941 7.14965
28.2218 -14.3305 7.16138
28.197 -14.3665 7.17368
28.1722 -14.4025 7.18647
28.1471 -14.4388 7.19953
28.0665 -14.451 7.17686
28.094 -14.5152 7.22703
28.0661 -14.5549 7.24111
28.0358 -14.593 7.25309
28.0052 -14.6313 7.2654
27.9754 -14.6682 7.2778
27.9437 -14.7035 7.28905
27.9113 -14.7384 7.30021
27.8804 -14.7735 7.31277
27.8455 -14.8039 7.32209
27.8111 -14.8341 7.33198
27.7772 -14.8644 7.34275
27.743 -14.8942 7.35372
27.7079 -14.9235 7.36438
27.6726 -14.9526 7.37529
27.6372 -14.9815 7.38638
27.6012 -15.0099 7.39694
27.5634 -15.0373 7.40559
27.5253 -15.0642 7.41401
27.4906 -15.0935 7.42641
27.4558 -15.1227 7.43898
27.4211 -15.1518 7.45204
27.3877 -15.1817 7.4665
27.3527 -15.2104 7.48026
27.3173 -15.2384 7.49398
27.2822 -15.2661 7.50802
27.247 -15.2936 7.52236
27.2133 -15.3223 7.53824
27.1811 -15.3519 7.55572
27.1488 -15.3814 7.57374
27.1156 -15.4099 7.59149
27.0817 -15.4377 7.60928
27.0328 -15.4545 7.61598
27.0138 -15.4928 7.64694
26.9794 -15.5197 7.66679
26.9439 -15.5447 7.68604
26.9083 -15.5693 7.70576
26.8734 -15.5943 7.72649
26.8377 -15.6181 7.74699
26.8019 -15.6418 7.76785
26.7662 -15.6652 7.78904
26.7286 -15.6867 7.80911
26.6914 -15.7083 7.82985
26.6542 -15.7297 7.85103
26.6173 -15.751 7.87272
26.5805 -15.7722 7.89473
26.5432 -15.7928 7.91673
26.5056 -15.8129 7.93869
26.4681 -15.8327 7.96086
26.4305 -15.8524 7.98319
26.3922 -15.8712 8.00507
26.3534 -15.8892 8.0266
26.3149 -15.9074 8.04868
26.2767 -15.9256 8.07109
26.2385 -15.9436 8.09364
26.1998 -15.961 8.11598
26.1616 -15.9789 8.1393
26.1231 -15.9968 8.16324
26.0843 -16.0144 8.18724
26.0457 -16.0318 8.21126
26.0063 -16.0481 8.23448
25.9652 -16.0625 8.25592
25.9241 -16.0766 8.27745
25.8831 -16.0906 8.29906
25.8219 -16.082 8.2964
25.8039 -16.1205 8.34189
25.7641 -16.1349 8.36426
25.7245 -16.149 8.38644
25.685 -16.1629 8.40869
25.6455 -16.1767 8.43097
25.6063 -16.1907 8.45354
25.5657 -16.2027 8.4745
25.5251 -16.2144 8.49536
25.4851 -16.2263 8.51657
25.4452 -16.2381 8.53785
25.4053 -16.2498 8.55922
25.3646 -16.2604 8.57979
25.3239 -16.2714 8.60041
25.2841 -16.2834 8.6223
25.2451 -16.296 8.6452
25.206 -16.3084 8.6683
25.167 -16.3204 8.69171
25.1277 -16.3318 8.71491
25.0877 -16.3425 8.73792
25.0457 -16.3508 8.75781
25.0038 -16.3589 8.77775
24.9628 -16.3679 8.7992
24.9216 -16.3769 8.82035
24.8812 -16.3867 8.84276
24.8408 -16.3962 8.86535
24.8003 -16.4056 8.88805
24.7584 -16.4133 8.90849
24.7168 -16.4214 8.92961
24.6753 -16.4294 8.95087
24.6339 -16.4374 8.97216
24.5909 -16.4441 8.99252
24.5395 -16.4404 8.99699
24.5049 -16.4558 9.03053
24.4632 -16.4624 9.05006
24.4215 -16.4697 9.07028
24.3789 -16.4761 9.08889
24.3381 -16.4839 9.11044
24.2984 -16.4928 9.13366
24.2579 -16.5007 9.15555
24.2171 -16.5083 9.17708
24.1751 -16.5149 9.1972
24.1326 -16.5207 9.2162
24.0914 -16.5276 9.23758
24.051 -16.5348 9.26012
24.0115 -16.5425 9.2837
23.9723 -16.5503 9.30757
23.9325 -16.5574 9.33083
23.8916 -16.5633 9.35196
23.85 -16.5684 9.37163
23.8084 -16.5733 9.39136
23.7678 -16.5786 9.4128
23.7278 -16.5842 9.4354
23.688 -16.5896 9.45811
