BEGIN_Polyline
-18.4963 -8.22774 9.85386
-18.5075 -8.27287 9.86037
-18.5188 -8.31799 9.86677
-18.5301 -8.36304 9.87319
-18.5415 -8.40805 9.8796
-18.5528 -8.45309 9.886
-18.5636 -8.49807 9.89332
-18.5742 -8.54299 9.90095
-18.5852 -8.58787 9.90815
-18.5965 -8.63279 9.91476
-18.6078 -8.67764 9.92171
-18.618 -8.72236 9.93034
-18.6282 -8.76711 9.93899
-18.6384 -8.81199 9.94761
-18.6486 -8.85682 9.95624
-18.6586 -8.90146 9.96477
-18.6696 -8.94614 9.97269
-18.6818 -8.99114 9.98071
-18.6939 -9.03603 9.98799
-18.7087 -9.08156 9.99138
-18.7364 -9.12514 9.96615
-18.737 -9.17246 9.99773
-18.7502 -9.21728 10.0005
-18.7636 -9.26194 10.0028
-18.7772 -9.30644 10.0043
-18.791 -9.3507 10.0059
-18.8052 -9.39471 10.007
-18.8197 -9.43865 10.0076
-18.8343 -9.48261 10.0083
-18.849 -9.52669 10.009
-18.8638 -9.5707 10.0098
-18.8782 -9.61473 10.0117
-18.8919 -9.65866 10.0152
-18.9045 -9.7026 10.0204
-18.9172 -9.7464 10.0257
-18.93 -9.79016 10.031
-18.9428 -9.83396 10.0364
-18.9552 -9.87794 10.0423
-18.9672 -9.922 10.0488
-18.9794 -9.96602 10.0554
-18.9917 -10.01 10.0622
-19.0041 -10.0539 10.0689
-19.0166 -10.0977 10.0758
-19.0292 -10.1414 10.0827
-19.0419 -10.185 10.0897
-19.0546 -10.2286 10.0967
-19.0674 -10.2722 10.1038
-19.0803 -10.3157 10.1106
-19.0933 -10.359 10.1175
-19.1064 -10.4023 10.1244
-19.1194 -10.4455 10.1312
-19.1324 -10.4887 10.138
-19.1535 -10.5315 10.132
-19.1579 -10.5758 10.1502
-19.171 -10.619 10.1558
-19.1841 -10.6622 10.1614
-19.1971 -10.7053 10.1669
-19.2102 -10.7484 10.1725
-19.2234 -10.7915 10.1782
-19.2367 -10.8345 10.1839
-19.2501 -10.8775 10.1897
-19.2634 -10.9205 10.1954
-19.2769 -10.9636 10.2012
-19.291 -11.0066 10.2065
-19.3057 -11.0494 10.2114
-19.3207 -11.0923 10.2159
-19.3359 -11.1351 10.2206
-19.3513 -11.1779 10.2254
-19.3667 -11.2206 10.2303
-19.3819 -11.2631 10.2349
-19.3971 -11.3056 10.2397
-19.4124 -11.3482 10.2445
-19.428 -11.3907 10.2495
-19.4436 -11.4334 10.2544
-19.4596 -11.4762 10.2596
-19.4757 -11.519 10.2649
-19.4921 -11.562 10.2704
-19.5085 -11.6047 10.2758
-19.5252 -11.6476 10.281
-19.5423 -11.6906 10.2858
-19.5596 -11.7339 10.2908
-19.576 -11.7774 10.2974
-19.5926 -11.8213 10.3037
-19.6093 -11.8654 10.3097
-19.6284 -11.9093 10.3109
-19.642 -11.9538 10.3213
-19.658 -11.9982 10.3269
-19.6739 -12.0428 10.3324
-19.6899 -12.0876 10.3379
-19.7059 -12.1325 10.3437
-19.7217 -12.1777 10.3504
-19.7376 -12.2229 10.3571
-19.7538 -12.2683 10.3639
-19.7697 -12.3136 10.3706
-19.786 -12.3589 10.3775
-19.8022 -12.4042 10.3853
-19.8187 -12.4495 10.3933
-19.8355 -12.4947 10.4009
-19.853 -12.5398 10.4083
-19.8719 -12.5846 10.4135
-19.8912 -12.6292 10.4181
-19.91 -12.674 10.4226
-19.9289 -12.7185 10.4271
-19.948 -12.7629 10.432
-19.967 -12.807 10.4385
-19.986 -12.8511 10.4451
-20.0054 -12.8949 10.4518
-20.0252 -12.9385 10.4586
-20.0463 -12.9818 10.4628
-20.0675 -13.025 10.4663
-20.0886 -13.0682 10.4713
-20.1097 -13.1113 10.4763
-20.131 -13.1543 10.4813
-20.1525 -13.1971 10.4864
-20.1736 -13.2402 10.4914
-20.1945 -13.2836 10.4963
-20.2135 -13.3277 10.5045
-20.2331 -13.3729 10.5033
-20.2519 -13.4177 10.5095
-20.2702 -13.4627 10.5155
-20.2884 -13.5077 10.5215
-20.3068 -13.5525 10.5274
-20.3255 -13.5969 10.5333
-20.3444 -13.6408 10.5392
-20.3638 -13.6844 10.5451
-20.3828 -13.728 10.5531
-20.4025 -13.7709 10.5616
-20.4228 -13.8132 10.5702
-20.4442 -13.8544 10.5786
-20.4656 -13.8955 10.587
-20.4879 -13.9357 10.5953
-20.5109 -13.9753 10.6027
-20.5339 -14.0148 10.6094
-20.5559 -14.0553 10.6164
-20.5781 -14.0955 10.6233
-20.6012 -14.135 10.63
-20.6254 -14.1733 10.6365
-20.6497 -14.2118 10.6409
-20.6754 -14.2491 10.6447
-20.7022 -14.2855 10.6483
-20.73 -14.321 10.6518
-20.7571 -14.3567 10.6553
-20.7851 -14.3918 10.6588
-20.8136 -14.4266 10.6622
-20.8438 -14.4603 10.6655
-20.8752 -14.4936 10.6668
-20.9076 -14.5267 10.6672
-20.9402 -14.5601 10.6676
-20.9657 -14.6008 10.6377
-21.0011 -14.6308 10.6699
-21.0292 -14.6682 10.6719
-21.0573 -14.7059 10.6753
-21.0857 -14.7433 10.6789
-21.1144 -14.7809 10.6824
-21.1442 -14.8175 10.6854
-21.1747 -14.8534 10.688
-21.2063 -14.8881 10.69
-21.2373 -14.9234 10.692
-21.2698 -14.9568 10.6945
-21.3038 -14.9885 10.6982
-21.3395 -15.0181 10.7012
-21.3751 -15.0474 10.7042
-21.4122 -15.0752 10.7066
-21.4503 -15.1019 10.7086
-21.489 -15.1286 10.7106
-21.5266 -15.1572 10.7131
-21.5646 -15.1857 10.7156
-21.6035 -15.213 10.7177
-21.6427 -15.2393 10.7151
-21.6806 -15.2655 10.7088
-21.7201 -15.2897 10.7016
-21.7608 -15.3125 10.6939
-21.8035 -15.3351 10.6856
-21.8465 -15.3599 10.6776
-21.8906 -15.3839 10.6692
-21.9338 -15.4062 10.6577
-21.9762 -15.4272 10.6417
-22.0184 -15.4483 10.6239
-22.0609 -15.469 10.606
-22.1029 -15.4889 10.5883
-22.1081 -15.5079 10.4809
-22.1913 -15.5315 10.5456
-22.2273 -15.5545 10.5268
-22.2629 -15.5769 10.5082
-22.2976 -15.5981 10.4901
-22.3329 -15.6191 10.4716
-22.3686 -15.6381 10.453
-22.4044 -15.6557 10.4344
-22.4409 -15.6716 10.4154
-22.4769 -15.6882 10.3954
-22.5137 -15.703 10.3742
-22.5512 -15.7163 10.3529
-22.5899 -15.7277 10.3315
-22.6284 -15.739 10.3102
-22.668 -15.749 10.2893
-22.709 -15.7586 10.2702
-22.7504 -15.7679 10.2513
-22.7906 -15.7782 10.2314
-22.8314 -15.7887 10.2126
-22.8728 -15.7985 10.1938
-22.9153 -15.8066 10.1754
-22.9581 -15.8135 10.1562
-23.0014 -15.8189 10.1365
-23.0457 -15.825 10.1189
-23.0897 -15.8315 10.1015
-23.1322 -15.839 10.0836
-23.1744 -15.8469 10.0656
-23.2174 -15.854 10.0479
-23.262 -15.8629 10.0324
-23.3066 -15.8727 10.0167
-23.352 -15.8804 9.99837
-23.3974 -15.8847 9.98489
-23.4338 -15.8428 9.90998
-23.4938 -15.9003 9.95573
-23.5436 -15.9128 9.93729
-23.5908 -15.9203 9.91397
-23.6384 -15.9265 9.88758
-23.6823 -15.9321 9.86329
-23.7246 -15.9373 9.84077
-23.7677 -15.9429 9.81975
-23.8082 -15.943 9.79365
-23.8485 -15.9427 9.76752
-23.8899 -15.9442 9.74421
-23.9312 -15.9453 9.7214
-23.9728 -15.9465 9.69953
-24.0143 -15.9481 9.67767
-24.056 -15.9495 9.6561
-24.0979 -15.9505 9.63486
-24.1394 -15.9497 9.61246
-24.1805 -15.9482 9.58883
-24.222 -15.9464 9.56528
-24.2639 -15.9442 9.54201
-24.3061 -15.9415 9.51911
-24.3481 -15.939 9.49623
-24.3903 -15.9359 9.47383
-24.4329 -15.9325 9.45182
-24.4761 -15.9285 9.43026
-24.5204 -15.9252 9.40962
-24.5631 -15.9183 9.38639
-24.6031 -15.9078 9.36005
-24.643 -15.8974 9.33372
-24.6842 -15.8901 9.30885
-24.7248 -15.8833 9.28379
-24.7652 -15.8766 9.25874
-24.7872 -15.8385 9.21277
-24.8459 -15.863 9.20902
-24.8863 -15.8559 9.18461
-24.9263 -15.8485 9.16046
-24.9659 -15.8409 9.13629
-25.0052 -15.8339 9.11158
-25.0438 -15.8258 9.08693
-25.0839 -15.819 9.06519
-25.1239 -15.8124 9.0434
-25.1642 -15.8066 9.02075
-25.2044 -15.8011 8.99793
-25.2455 -15.7963 8.97682
-25.2866 -15.791 8.95621
-25.3276 -15.7853 8.93583
-25.3677 -15.778 8.91482
-25.407 -15.7694 8.89304
-25.4463 -15.7605 8.8714
-25.4859 -15.7522 8.8492
-25.5255 -15.7438 8.82741
-25.5671 -15.737 8.80928
-25.6086 -15.7295 8.79162
-25.65 -15.7221 8.77403
-25.6912 -15.7137 8.75665
-25.7324 -15.7046 8.73927
-25.7737 -15.695 8.72211
-25.8149 -15.6855 8.70435
-25.8549 -15.6744 8.68445
-25.8961 -15.6637 8.66648
-25.9356 -15.6509 8.64596
-25.975 -15.6381 8.6254
-26.0146 -15.6254 8.60474
-26.0537 -15.612 8.58535
-26.0762 -15.5851 8.53857
-26.1366 -15.5859 8.54381
-26.1761 -15.5725 8.51817
-26.2116 -15.5608 8.49329
-26.2495 -15.5516 8.47443
-26.29 -15.542 8.45416
-26.3314 -15.5318 8.43361
-26.3715 -15.5208 8.41233
-26.41 -15.5082 8.3897
-26.4484 -15.4955 8.36722
-26.4867 -15.482 8.34537
-26.5249 -15.4679 8.32384
-26.5631 -15.4531 8.30282
-26.6013 -15.4383 8.28182
-26.6398 -15.4233 8.26137
-26.6785 -15.4081 8.24129
-26.7173 -15.3933 8.22091
-26.7553 -15.3784 8.19843
-26.7905 -15.3619 8.17301
-26.8283 -15.3467 8.15044
-26.8646 -15.3297 8.12692
-26.9009 -15.3122 8.10376
-26.9371 -15.2938 8.08121
-26.9734 -15.275 8.05888
-27.0083 -15.2552 8.03528
-27.0426 -15.2354 8.01092
-27.0769 -15.2159 7.98623
-27.1113 -15.1961 7.96171
-27.1459 -15.1761 7.93715
-27.1801 -15.1559 7.91203
-27.2144 -15.1346 7.88718
-27.2484 -15.114 7.86198
-27.2259 -15.0365 7.8032
-27.3232 -15.0418 7.82591
-27.3558 -15.017 7.79677
-27.385 -14.9949 7.76905
-27.4139 -14.9737 7.74155
-27.4434 -14.9516 7.71375
-27.4731 -14.929 7.68613
-27.5025 -14.9065 7.65881
-27.5318 -14.8834 7.63194
-27.5612 -14.8601 7.60511
-27.5899 -14.8358 7.57835
-27.6162 -14.81 7.55043
-27.6425 -14.7838 7.52245
-27.6688 -14.7577 7.49429
-27.6953 -14.7312 7.46637
-27.7218 -14.7043 7.43876
-27.7483 -14.677 7.41164
-27.7751 -14.6502 7.38475
-27.8014 -14.6228 7.3582
-27.8278 -14.5949 7.332
-27.8542 -14.5665 7.30626
-27.8806 -14.5382 7.28045
-27.9072 -14.5094 7.25486
-27.9338 -14.4804 7.22943
-27.9607 -14.4508 7.20404
-27.9877 -14.4211 7.17849
-28.0149 -14.3913 7.15281
-28.0416 -14.3613 7.12692
-28.0655 -14.33 7.09972
-28.0895 -14.2985 7.07256
-28.1136 -14.2672 7.04493
-28.1377 -14.2363 7.01688
-28.1217 -14.1881 6.97343
-28.1859 -14.1748 6.96074
-28.2115 -14.1451 6.93221
-28.2351 -14.116 6.90239
-28.2587 -14.0873 6.87233
-28.2823 -14.0583 6.84241
-28.3058 -14.0292 6.81274
-28.3293 -14 6.78328
-28.3511 -13.9702 6.7535
-28.3737 -13.941 6.72393
-28.3977 -13.9119 6.69553
-28.4181 -13.8809 6.66632
-28.4376 -13.8487 6.63756
-28.4582 -13.8167 6.60894
-28.483 -13.7857 6.58297
-28.5076 -13.7543 6.55753
-28.5318 -13.7227 6.53206
-28.5536 -13.6911 6.50477
-28.5753 -13.6595 6.47758
-28.597 -13.6274 6.45101
-28.6166 -13.5938 6.42462
-28.6339 -13.5602 6.39739
-28.6619 -13.5277 6.37546
-28.6815 -13.4921 6.35067
-28.7037 -13.4569 6.32819
-28.7258 -13.422 6.30589
-28.7476 -13.3868 6.28442
-28.7666 -13.3506 6.26222
-28.7867 -13.314 6.2407
-28.8085 -13.278 6.21969
-28.8286 -13.2413 6.1976
-28.8487 -13.2049 6.17548
-28.8308 -13.1566 6.13636
-28.8808 -13.1233 6.12791
-28.8975 -13.0885 6.09781
-28.9116 -13.0526 6.07178
-28.9256 -13.0167 6.04608
-28.9409 -12.9802 6.02062
-28.9596 -12.9437 5.99763
-28.9779 -12.907 5.97553
-28.996 -12.8699 5.95419
-29.0085 -12.8319 5.92955
-29.0177 -12.7924 5.90454
-29.0266 -12.7524 5.88055
-29.0395 -12.7116 5.8599
-29.0543 -12.6714 5.84061
-29.0685 -12.6305 5.82262
-29.0825 -12.5891 5.80545
-29.0964 -12.5478 5.78843
-29.1108 -12.5072 5.77008
-29.1227 -12.4664 5.75072
-29.1339 -12.4252 5.73205
-29.1446 -12.3835 5.71459
-29.1551 -12.3418 5.69729
-29.165 -12.2994 5.6815
-29.1744 -12.2563 5.66668
-29.1834 -12.2122 5.65289
-29.1926 -12.1678 5.63854
-29.2022 -12.1228 5.62527
-29.2142 -12.0778 5.61399
-29.2293 -12.0329 5.60557
-29.2447 -11.988 5.59773
-29.2604 -11.9431 5.59019
-29.2755 -11.8995 5.58309
-29.312 -11.8587 5.58479
-29.2997 -11.8092 5.55804
-29.3146 -11.7648 5.54633
-29.3293 -11.7206 5.53472
-29.3467 -11.6775 5.52491
-29.3679 -11.6356 5.51708
-29.3844 -11.5929 5.50792
-29.3949 -11.5497 5.49756
-29.4051 -11.5061 5.48776
-29.4173 -11.4621 5.47744
-29.4323 -11.418 5.46947
-29.4468 -11.3736 5.46247
-29.4606 -11.3286 5.45671
-29.474 -11.2838 5.45082
-29.4866 -11.2385 5.44599
-29.4987 -11.193 5.44193
-29.5107 -11.1473 5.43824
-29.5232 -11.1018 5.43359
-29.5355 -11.0563 5.42928
-29.5477 -11.0106 5.42594
-29.56 -10.965 5.4241
-29.5724 -10.9193 5.42239
-29.584 -10.8735 5.42184
-29.5954 -10.8277 5.42213
-29.6061 -10.7815 5.42307
-29.6167 -10.7352 5.42351
-29.6271 -10.6888 5.42438
-29.6372 -10.6425 5.42549
-29.6445 -10.5959 5.42562
-29.6517 -10.5492 5.42601
-29.6589 -10.5029 5.42623
-29.6662 -10.4569 5.42627
-29.6659 -10.4101 5.42031
-29.6842 -10.3668 5.42344
-29.6952 -10.3218 5.42245
-29.7052 -10.277 5.42072
-29.7152 -10.2324 5.41869
-29.727 -10.1883 5.41773
-29.7387 -10.1444 5.41698
-29.7502 -10.1007 5.41652
-29.7614 -10.0572 5.4164
-29.7708 -10.0131 5.41493
-29.7792 -9.96873 5.41378
-29.7869 -9.92438 5.41311
-29.7942 -9.87995 5.41336
-29.8014 -9.83544 5.41362
-29.8083 -9.79093 5.41479
-29.8174 -9.74699 5.41814
-29.8264 -9.70302 5.42179
-29.8357 -9.65915 5.42473
-29.8422 -9.61454 5.42633
-29.8482 -9.56988 5.42845
-29.8537 -9.52495 5.43141
-29.8592 -9.47993 5.43433
-29.8651 -9.43484 5.43893
-29.8716 -9.38986 5.44508
-29.8772 -9.3447 5.45155
-29.8806 -9.29932 5.456
-29.8838 -9.25372 5.46085
-29.8867 -9.2079 5.46605
-29.8894 -9.16175 5.47176
-29.8919 -9.11561 5.47771
-29.8946 -9.06917 5.48373
-29.8975 -9.02139 5.48868
-29.8788 -8.97234 5.47908
-29.8988 -8.92744 5.49586
-29.9018 -8.88071 5.49884
-29.9049 -8.83379 5.50169
-29.9081 -8.78667 5.5045
-29.9111 -8.73949 5.50751
-29.9138 -8.69207 5.51097
-29.9163 -8.64452 5.51472
-29.9187 -8.59686 5.51901
-29.9214 -8.54929 5.52313
-29.9236 -8.50166 5.52787
-29.9253 -8.45396 5.53315
-29.9265 -8.40619 5.53927
-29.9276 -8.3584 5.54545
-29.9294 -8.31074 5.55317
-29.9313 -8.26317 5.56172
-29.9332 -8.21558 5.57044
-29.9355 -8.16795 5.57844
-29.9378 -8.12041 5.58669
-29.94 -8.07297 5.59557
-29.9417 -8.02574 5.60521
-29.9432 -7.97864 5.61499
-29.9442 -7.9317 5.62559
-29.9447 -7.88503 5.6368
-29.9453 -7.83778 5.64833
-29.9583 -7.7929 5.66575
-29.9591 -7.74272 5.67774
-29.9535 -7.69524 5.68607
-29.9474 -7.64868 5.69533
-29.9447 -7.60306 5.70736
-29.9448 -7.55852 5.72182
-29.9447 -7.51448 5.73639
-29.9208 -7.46343 5.73188
-29.9484 -7.42332 5.76367
-29.9512 -7.37559 5.77681
-29.9511 -7.32907 5.78728
-29.9508 -7.28285 5.7977
-29.9499 -7.23682 5.8081
-29.9485 -7.19133 5.81891
-29.947 -7.14607 5.82991
-29.9453 -7.10112 5.84121
-29.9416 -7.05575 5.85078
-29.9369 -7.01048 5.86046
-29.9301 -6.96534 5.86922
-29.9221 -6.92035 5.87813
-29.9142 -6.87534 5.88708
-29.9058 -6.83052 5.89657
-29.8972 -6.78588 5.90644
-29.8892 -6.74139 5.91703
-29.8817 -6.6968 5.92717
-29.8738 -6.65243 5.93727
-29.8656 -6.60828 5.94764
-29.8571 -6.56433 5.9585
-29.8485 -6.5202 5.96946
-29.8395 -6.47634 5.98092
-29.8304 -6.4327 5.99268
-29.821 -6.3896 6.00469
-29.8169 -6.34682 6.01982
-29.8129 -6.30404 6.0355
-29.8088 -6.26149 6.05146
-29.8048 -6.21836 6.06731
-29.7991 -6.17396 6.08139
-29.7894 -6.12898 6.09298
-29.7815 -6.08455 6.10518
-29.7547 -6.04136 6.11027
-29.769 -5.99548 6.13032
-29.761 -5.9519 6.1406
-29.7557 -5.9077 6.15373
-29.7559 -5.8636 6.16674
-29.7543 -5.81881 6.18169
-29.7466 -5.77404 6.19503
-29.7356 -5.72984 6.20753
-29.7247 -5.68581 6.22002
-29.714 -5.64213 6.23193
-29.7035 -5.59875 6.24361
-29.6929 -5.55541 6.25539
-29.6829 -5.51202 6.26769
-29.6727 -5.46853 6.28038
-29.6594 -5.42534 6.29211
-29.6451 -5.38238 6.30328
-29.6309 -5.3392 6.31418
-29.6169 -5.29585 6.32461
-29.603 -5.25241 6.33482
-29.5935 -5.20825 6.34748
-29.585 -5.16384 6.36087
-29.5766 -5.11964 6.37466
-29.5686 -5.07566 6.38923
-29.5605 -5.03169 6.40401
-29.5523 -4.98817 6.41903
-29.5442 -4.94507 6.43388
-29.5363 -4.90229 6.44928
-29.5298 -4.85907 6.46594
-29.5283 -4.81671 6.48639
-29.5254 -4.77388 6.5062
-29.5191 -4.73043 6.52446
-29.5127 -4.68693 6.54297
-29.4871 -4.6408 6.54896
-29.4994 -4.60008 6.58047
-29.4928 -4.5569 6.59923
-29.486 -4.51382 6.61812
-29.4771 -4.47065 6.63546
-29.4683 -4.42749 6.65246
-29.4594 -4.38449 6.66948
-29.4503 -4.34156 6.68669
-29.4403 -4.29866 6.70325
-29.4298 -4.2557 6.71909
-29.4189 -4.21275 6.73475
-29.4079 -4.16985 6.75048
-29.3968 -4.12696 6.76634
-29.3856 -4.08403 6.78223
-29.3744 -4.04109 6.79821
-29.3632 -3.99816 6.81425
-29.3519 -3.95529 6.8303
-29.3401 -3.91246 6.84582
-29.3271 -3.8696 6.8603
-29.3146 -3.82669 6.87518
-29.3023 -3.78366 6.89021
-29.2898 -3.74057 6.90504
-29.2773 -3.69733 6.91982
-29.2649 -3.65398 6.93455
-29.2524 -3.61062 6.94927
-29.24 -3.56746 6.96406
-29.2275 -3.52421 6.97877
-29.2152 -3.48069 6.99341
-29.203 -3.437 7.00788
-29.191 -3.39361 7.02233
-29.1791 -3.34973 7.03665
-29.1673 -3.30545 7.05087
-29.1157 -3.25871 7.028
-29.1436 -3.21384 7.07951
-29.1317 -3.16704 7.0939
-29.1219 -3.12006 7.10984
-29.1082 -3.07424 7.12189
-29.0913 -3.02958 7.13093
-29.0799 -2.98503 7.14464
-29.0703 -2.94161 7.15912
-29.057 -2.89799 7.17029
-29.0424 -2.85381 7.18091
-29.0277 -2.80899 7.19142
-29.0137 -2.76416 7.20204
-29.0006 -2.71925 7.21282
-28.9857 -2.67468 7.22185
-28.9708 -2.63026 7.23025
-28.9565 -2.58585 7.23871
-28.9419 -2.54167 7.24649
-28.9266 -2.49765 7.25399
-28.9114 -2.45375 7.26136
-28.8964 -2.40993 7.26839
-28.8809 -2.36622 7.27462
-28.8655 -2.32242 7.28089
-28.8502 -2.27858 7.28691
-28.8352 -2.2347 7.29293
-28.8207 -2.1909 7.29884
-28.8064 -2.14728 7.30462
-28.792 -2.10369 7.31016
-28.7769 -2.06002 7.3154
-28.7618 -2.01617 7.32082
-28.7469 -1.97253 7.32609
-28.7314 -1.92835 7.33187
-28.7155 -1.884 7.33804
-28.7515 -1.8264 7.39795
-28.6824 -1.78721 7.35682
-28.6668 -1.74187 7.36655
-28.6505 -1.69583 7.37689
-28.6341 -1.64981 7.38728
-28.6181 -1.60382 7.39722
-28.6054 -1.55752 7.40981
-28.5937 -1.51109 7.42384
-28.5822 -1.46486 7.43743
-28.5708 -1.41878 7.44983
-28.5593 -1.37331 7.46051
-28.5493 -1.32803 7.47147
-28.5408 -1.2831 7.48262
-28.5329 -1.23807 7.49465
-28.5261 -1.19328 7.50679
-28.5196 -1.14872 7.51845
-28.5157 -1.10424 7.53102
-28.5118 -1.05947 7.5438
-28.508 -1.01477 7.55621
-28.5046 -0.970229 7.56885
-28.5062 -0.926528 7.58258
-28.5078 -0.882932 7.59632
-28.5094 -0.839719 7.61011
-28.511 -0.79676 7.62392
-28.5125 -0.753929 7.63786
-28.5109 -0.710462 7.65124
-28.5094 -0.667115 7.66467
-28.5085 -0.624207 7.67826
-28.5077 -0.581894 7.69181
-28.5068 -0.539635 7.70529
-28.5059 -0.498109 7.71869
-28.505 -0.457086 7.73205
-28.5022 -0.416479 7.74513
-28.502 -0.375637 7.75897
-28.5002 -0.335173 7.77245
-28.4985 -0.29512 7.78572
-28.4968 -0.255609 7.79867
-28.4951 -0.216136 7.81161
-28.4934 -0.176986 7.82405
-28.4919 -0.13801 7.83612
-28.4904 -0.0990405 7.84778
-28.4889 -0.0598475 7.85962
-28.4875 -0.0204565 7.87105
-28.4862 0.0189405 7.88209
-28.4849 0.0584796 7.89272
-28.4801 0.0981755 7.90261
-28.4739 0.137953 7.91225
-28.4667 0.177812 7.9212
-28.4597 0.217234 7.9298
-28.458 0.255913 7.94108
-28.4565 0.294763 7.95203
-28.4549 0.333989 7.9628
-28.452 0.373962 7.97247
-28.4493 0.414035 7.98188
-28.4466 0.455036 7.99128
-28.4439 0.496818 8.00079
-28.4408 0.538947 8.01097
-28.4355 0.580017 8.02089
-28.4278 0.62201 8.03031
-28.4203 0.665644 8.0394
-28.413 0.710648 8.04926
-28.4061 0.754651 8.06073
-28.3997 0.800501 8.07145
-28.3938 0.847857 8.08147
-28.3087 0.900069 8.03241
-28.3884 0.950209 8.09254
-28.3879 1.00374 8.09488
-28.3875 1.05768 8.09732
-28.3771 1.10998 8.09716
-28.3643 1.15779 8.10303
-28.3558 1.20512 8.11366
-28.3449 1.25303 8.12227
-28.3322 1.30128 8.12955
-28.3198 1.34973 8.13614
-28.3076 1.39925 8.14173
-28.2955 1.44939 8.14698
-28.2833 1.50041 8.15185
-28.2721 1.55155 8.15749
-28.2614 1.60334 8.16328
-28.2508 1.65552 8.16883
-28.2402 1.70786 8.17424
-28.229 1.75975 8.17957
-28.2179 1.81152 8.18479
-28.2065 1.86333 8.18975
-28.1934 1.91477 8.19369
-28.1804 1.96618 8.19759
-28.1674 2.01759 8.20132
-28.1545 2.06893 8.20496
-28.1416 2.12044 8.20858
-28.1285 2.17234 8.21234
-28.1154 2.22409 8.21612
-28.103 2.27545 8.21985
-28.0909 2.32651 8.22407
-28.0763 2.37759 8.22799
-28.0607 2.42759 8.2313
-28.0447 2.47715 8.23478
-27.9631 2.50746 8.20302
-28.013 2.57559 8.24161
-27.9975 2.62421 8.24476
-27.9821 2.67211 8.24791
-27.9671 2.71898 8.25098
-27.9521 2.76585 8.25395
-27.9372 2.81176 8.25683
-27.9225 2.85697 8.25981
-27.9079 2.90174 8.26268
-27.8933 2.94716 8.26543
-27.8794 2.99246 8.2683
-27.8664 3.03744 8.27148
-27.8538 3.08164 8.27448
-27.837 3.12444 8.275
-27.8202 3.16686 8.27546
-27.8035 3.20907 8.27588
-27.7868 3.25134 8.27623
-27.77 3.29395 8.27654
-27.753 3.33664 8.27658
-27.7357 3.37922 8.27645
-27.7172 3.42127 8.2754
-27.6986 3.46325 8.27423
-27.68 3.5051 8.2731
-27.6614 3.54691 8.27198
-27.6429 3.58843 8.27095
-27.6245 3.62972 8.26999
-27.606 3.67088 8.2691
-27.5878 3.7124 8.26839
-27.5712 3.75461 8.26893
-27.5545 3.79663 8.26942
-27.5378 3.83884 8.26994
-27.5197 3.88128 8.27057
-27.4693 3.91061 8.24434
-27.4837 3.96653 8.27128
-27.4661 4.00925 8.2711
-27.4484 4.05219 8.27093
-27.4307 4.09538 8.27067
-27.413 4.13858 8.27048
-27.3952 4.1819 8.27025
-27.3779 4.22546 8.27031
-27.3598 4.26864 8.26969
-27.3409 4.31131 8.26835
-27.3221 4.35389 8.26702
-27.3033 4.39647 8.26572
-27.2845 4.43912 8.26452
-27.2657 4.48184 8.26332
-27.246 4.5242 8.26147
-27.2261 4.56648 8.25954
-27.2062 4.60872 8.25766
-27.1863 4.65094 8.25577
-27.1667 4.69322 8.25412
-27.1465 4.73525 8.25213
-27.1263 4.77727 8.25017
-27.1062 4.8193 8.24822
-27.086 4.86134 8.24627
-27.0658 4.90338 8.24434
-27.0454 4.94534 8.24225
-27.0247 4.98711 8.23988
-27.0041 5.02891 8.23748
-26.9834 5.07078 8.23507
-26.9628 5.11263 8.23263
-26.9422 5.15431 8.23018
-26.9216 5.19612 8.22773
-26.8991 5.23788 8.22503
-26.8429 5.26033 8.19207
-26.8475 5.32368 8.21383
-26.823 5.3626 8.2078
-26.7984 5.40166 8.20174
-26.774 5.44054 8.19566
-26.7495 5.47968 8.18964
-26.7251 5.51882 8.1836
-26.7007 5.55786 8.17757
-26.6764 5.59684 8.17152
-26.6521 5.63586 8.16545
-26.6278 5.67488 8.15934
-26.6035 5.71392 8.15323
-26.5792 5.75297 8.14711
-26.5549 5.79198 8.14099
-26.5311 5.83147 8.13538
-26.5081 5.87163 8.13055
-26.4849 5.91199 8.12574
-26.4616 5.95242 8.12095
-26.4389 5.99349 8.11682
-26.4173 6.03533 8.1137
-26.3956 6.07729 8.11056
-26.3739 6.11925 8.10738
-26.3523 6.16117 8.10419
-26.3307 6.20308 8.10101
-26.3101 6.24536 8.09874
-26.2909 6.28814 8.09756
-26.2716 6.33081 8.09644
-26.2523 6.37358 8.09528
-26.2326 6.41602 8.09381
-26.212 6.45784 8.09171
-26.1914 6.49962 8.08968
-26.1708 6.54136 8.08765
-26.1848 6.60193 8.11205
-26.1293 6.62759 8.0853
-26.1098 6.67016 8.08407
-26.0903 6.71273 8.08285
-26.0708 6.75517 8.08157
-26.0514 6.79761 8.08034
-26.0326 6.84019 8.07947
-26.0146 6.88307 8.07907
-25.9975 6.92617 8.07917
-25.9802 6.96909 8.07906
-25.963 7.01186 8.0789
-25.9458 7.05458 8.07873
-25.9286 7.09724 8.07856
-25.9114 7.13995 8.07837
-25.8941 7.18262 8.07816
-25.8767 7.22529 8.07792
-25.8584 7.26763 8.07732
-25.8408 7.31039 8.07743
-25.8249 7.35384 8.07861
-25.809 7.39731 8.07978
-25.7902 7.43969 8.07902
-25.771 7.4818 8.07766
-25.7518 7.52395 8.07631
-25.7326 7.56614 8.07496
-25.7134 7.60834 8.07357
-25.6943 7.65048 8.07216
-25.6752 7.69264 8.07071
-25.656 7.73487 8.06925
-25.6372 7.77727 8.06806
-25.6194 7.82 8.06766
-25.6026 7.86325 8.06818
-25.5858 7.90658 8.06871
-25.5609 7.94707 8.06273
-25.5516 7.99363 8.07006
-25.534 8.03696 8.07015
-25.5164 8.08037 8.07028
-25.4987 8.12389 8.07044
-25.4811 8.16744 8.07067
-25.4636 8.21111 8.07108
-25.4461 8.25482 8.07153
-25.4286 8.29852 8.07198
-25.4112 8.34219 8.0724
-25.3937 8.38581 8.07283
-25.3763 8.4294 8.07328
-25.3588 8.47301 8.07376
-25.3424 8.51719 8.07528
-25.3262 8.56135 8.07693
-25.3069 8.60407 8.07587
-25.2869 8.64656 8.07438
-25.2674 8.68927 8.07327
-25.248 8.73202 8.07229
-25.23 8.77543 8.07268
-25.2123 8.81899 8.07331
-25.1928 8.86176 8.07211
-25.1728 8.90424 8.07048
-25.1523 8.94643 8.06853
-25.1318 8.98833 8.0668
-25.1127 9.03074 8.06661
-25.0937 9.07303 8.0666
-25.0747 9.11541 8.06639
-25.0554 9.15747 8.06584
-25.0359 9.19898 8.0658
-25.0165 9.2412 8.0652
-24.9971 9.28293 8.06499
-24.9064 9.29484 7.99422
-24.9629 9.38188 8.05152
-24.9434 9.43316 8.04087
-24.9198 9.47318 8.03659
-24.8961 9.51273 8.03284
-24.8725 9.55278 8.02855
-24.8488 9.59286 8.02423
-24.8252 9.63274 8.02013
-24.8015 9.67261 8.01604
-24.7777 9.71246 8.01167
-24.7537 9.75229 8.00711
-24.7298 9.79211 8.00257
-24.7058 9.83195 7.99804
-24.6818 9.87178 7.99354
-24.6578 9.91162 7.98906
-24.6337 9.95147 7.98458
-24.6097 9.99133 7.9801
-24.5857 10.0312 7.97563
-24.5617 10.071 7.97114
-24.5376 10.1109 7.96666
-24.513 10.1505 7.96181
-24.4883 10.1899 7.95681
-24.4635 10.2295 7.95182
-24.4387 10.269 7.94685
-24.4141 10.3087 7.94208
-24.3896 10.3485 7.93742
-24.3651 10.3883 7.93281
-24.3405 10.4281 7.92821
-24.316 10.4679 7.92362
-24.2914 10.5077 7.91902
-24.2669 10.5475 7.91441
-24.2424 10.5873 7.90979
-24.1749 10.5972 7.87343
-24.1924 10.6675 7.9003
-24.1676 10.7069 7.89533
-24.1428 10.7463 7.89034
-24.1181 10.7856 7.88531
-24.0933 10.8251 7.88029
-24.0685 10.8645 7.87523
-24.0437 10.904 7.87015
-24.0191 10.9435 7.86515
-23.9939 10.9828 7.85981
-23.9678 11.0213 7.85375
-23.942 11.0602 7.8479
-23.9161 11.0991 7.84201
-23.8901 11.138 7.83606
-23.864 11.1769 7.83008
-23.838 11.2158 7.82409
-23.8123 11.255 7.8183
-23.787 11.2944 7.8128
-23.7613 11.3334 7.80695
-23.7355 11.3723 7.80112
-23.7098 11.4113 7.79531
-23.684 11.4503 7.78951
-23.6582 11.4893 7.78376
-23.6324 11.5283 7.77803
-23.6065 11.5673 7.7723
-23.5806 11.6064 7.76651
-23.5547 11.6456 7.76076
-23.5285 11.6845 7.75484
-23.5012 11.7225 7.74826
-23.4724 11.7592 7.74039
-23.4432 11.7956 7.73247
-23.4139 11.8321 7.72459
-23.3831 11.8672 7.71574
-23.3549 11.9048 7.70903
-23.3254 11.9412 7.70137
-23.2958 11.9775 7.69377
-23.2662 12.0137 7.68626
-23.2366 12.05 7.67874
-23.207 12.0863 7.67124
-23.178 12.123 7.66418
-23.1502 12.1607 7.65798
-23.1225 12.1984 7.65177
-23.0948 12.236 7.64546
-23.0672 12.2736 7.6391
-23.0397 12.3112 7.63264
-23.0122 12.3487 7.62618
-22.9844 12.386 7.61936
-22.9566 12.4231 7.61241
-22.9292 12.4605 7.60562
-22.9034 12.4994 7.6001
-22.8775 12.5384 7.59462
-22.8519 12.5776 7.58927
-22.8269 12.6171 7.5842
-22.802 12.6567 7.57903
-22.7772 12.6962 7.57383
-22.7523 12.7357 7.56865
-22.7273 12.7754 7.56358
-22.7025 12.8152 7.55882
-22.6786 12.8557 7.55471
-22.6554 12.8966 7.55102
-22.6318 12.9378 7.54713
-22.6078 12.9798 7.54311
-22.5865 13.0238 7.54033
-22.5652 13.0679 7.53747
-22.6015 13.1415 7.56354
-22.5232 13.1557 7.53104
-22.5027 13.1989 7.52766
-22.4823 13.2418 7.52427
-22.4625 13.2841 7.52141
-22.4439 13.3267 7.51963
-22.4254 13.3688 7.51806
-22.407 13.4108 7.51628
-22.3887 13.4528 7.51441
-22.3703 13.4949 7.5126
-22.3519 13.5371 7.51065
-22.3336 13.5792 7.50859
-22.3155 13.6214 7.50635
-22.2974 13.6634 7.50409
-22.2793 13.7055 7.50169
-22.2613 13.7476 7.49918
-22.2431 13.7901 7.49664
-22.2248 13.8327 7.49429
-22.204 13.8743 7.49054
-22.1821 13.9154 7.48585
-22.1619 13.9574 7.48218
-22.1439 14.0002 7.4798
-22.1261 14.043 7.47718
-22.1027 14.083 7.47107
-22.0791 14.1227 7.46429
-22.0591 14.1639 7.4595
-22.0397 14.205 7.45471
-22.0206 14.246 7.4493
-22.0012 14.2872 7.44435
-21.9783 14.3275 7.43919
-21.9537 14.3675 7.4342
-21.9291 14.4077 7.42908
-21.8803 14.4294 7.40325
-21.8856 14.486 7.41827
-21.8647 14.527 7.41283
-21.8445 14.5684 7.40712
-21.8256 14.6106 7.40207
-21.8052 14.6523 7.3958
-21.7842 14.6939 7.38875
-21.7623 14.7351 7.38087
-21.7405 14.7761 7.37311
-21.7208 14.8183 7.36734
-21.7011 14.8602 7.36181
-21.6815 14.9021 7.35627
-21.6609 14.9432 7.34992
-21.6389 14.9836 7.34261
-21.6172 15.024 7.33506
-21.5954 15.0644 7.32746
-21.5732 15.1044 7.31968
-21.5504 15.1439 7.31195
-21.5271 15.1832 7.30399
-21.5022 15.2212 7.29522
-21.4777 15.2595 7.28618
-21.4532 15.2978 7.27718
-21.4288 15.3362 7.26767
-21.4044 15.3748 7.25779
-21.38 15.4135 7.24739
-21.3555 15.4521 7.23697
-21.3287 15.4892 7.22554
-21.3018 15.5264 7.2139
-21.2748 15.5638 7.20185
-21.2478 15.6012 7.18956
-21.2207 15.6387 7.17742
-21.1936 15.6762 7.16517
-21.1203 15.6776 7.1429
-21.1369 15.7527 7.1461
-21.1075 15.7905 7.13773
-21.0792 15.8275 7.12659
-21.0511 15.8645 7.11533
-21.0229 15.9016 7.10414
-20.9951 15.9388 7.09294
-20.9667 15.975 7.08119
-20.9372 16.01 7.06892
-20.9076 16.0449 7.05687
-20.8783 16.0796 7.04466
-20.8491 16.1143 7.03221
-20.8201 16.1488 7.01937
-20.791 16.1833 7.00643
-20.762 16.2178 6.99312
-20.7332 16.2523 6.97957
-20.7042 16.2869 6.9659
-20.6749 16.3217 6.95254
-20.6455 16.3567 6.93908
-20.6163 16.3915 6.92541
-20.5873 16.4263 6.91141
-20.5584 16.4609 6.89735
-20.5299 16.4953 6.88297
-20.5016 16.5295 6.86836
-20.4736 16.5635 6.85363
-20.4492 16.601 6.84047
-20.4256 16.6389 6.82719
-20.4017 16.6762 6.81356
-20.3783 16.713 6.79971
-20.3548 16.7499 6.78583
-20.331 16.7855 6.77161
-20.3072 16.8208 6.75741
-20.2809 16.8535 6.74223
-20.2597 16.8911 6.72986
-20.2358 16.9261 6.71653
-20.2121 16.9607 6.70332
-20.1888 16.995 6.69023
-20.1647 17.0285 6.67666
-20.1407 17.0615 6.66295
-20.117 17.0943 6.64921
-20.0934 17.1271 6.63533
-20.0697 17.16 6.62139
-20.0462 17.1929 6.6072
-20.025 17.2279 6.59419
-20.0043 17.2631 6.58113
-19.9837 17.2981 6.56795
-19.9628 17.3326 6.55431
-19.941 17.3664 6.5401
-19.918 17.3989 6.52535
-19.895 17.4312 6.51093
-19.872 17.4636 6.49647
-19.8489 17.4961 6.4818
-19.8258 17.5289 6.46679
-19.8026 17.5617 6.45169
-19.7788 17.5944 6.43599
-19.7549 17.6275 6.41996
-19.7309 17.6607 6.40369
-19.7071 17.6935 6.38779
-19.6832 17.7267 6.37158
-19.659 17.7602 6.35504
-19.6345 17.7944 6.33777
-19.6099 17.829 6.32008
-19.5835 17.8628 6.30144
-19.5566 17.8968 6.28227
-19.505 17.9072 6.25502
-19.5065 17.9666 6.24442
-19.4797 18.0021 6.2245
-19.4521 18.0355 6.20531
-19.4235 18.0687 6.18577
-19.395 18.1019 6.16609
-19.366 18.1356 6.14618
-19.3367 18.1697 6.12617
-19.3071 18.204 6.1061
-19.2771 18.2373 6.08593
-19.2467 18.2707 6.06578
-19.2161 18.3043 6.04564
-19.1851 18.3383 6.02558
-19.157 18.3752 6.0062
-19.1288 18.4128 5.98695
-19.1005 18.4506 5.96782
-19.0722 18.4885 5.94867
-19.0442 18.5261 5.92924
-19.0163 18.5636 5.90998
-18.9883 18.601 5.89101
-18.9599 18.6382 5.87244
-18.9307 18.6746 5.85373
-18.9013 18.711 5.83562
-18.872 18.7474 5.81795
-18.8425 18.7838 5.80071
-18.8133 18.8206 5.78321
-18.7847 18.8579 5.76626
-18.7562 18.895 5.74973
-18.7278 18.932 5.73388
-18.6994 18.9689 5.71822
-18.6711 19.0055 5.70296
-18.643 19.0419 5.68793
-18.6159 19.0789 5.67274
-18.5892 19.1166 5.65685
-18.5628 19.1541 5.64075
-18.5365 19.1913 5.62495
-18.5104 19.2281 5.60972
-18.4842 19.265 5.59466
-18.4582 19.3014 5.58055
-18.4323 19.3376 5.56709
-18.4068 19.3738 5.55432
-18.3799 19.4092 5.54081
-18.3527 19.4443 5.52792
-18.3255 19.4791 5.51576
-18.2985 19.5138 5.50468
-18.2715 19.5484 5.49371
-18.2445 19.5829 5.48361
-18.2175 19.6173 5.47405
-18.1911 19.6523 5.46472
-18.1648 19.6876 5.4546
-18.1384 19.7229 5.44453
-18.112 19.7582 5.43491
-18.0854 19.7934 5.42591
-18.0586 19.8283 5.41695
-18.0317 19.863 5.40875
-18.0048 19.8978 5.40103
-17.9779 19.9326 5.39389
-17.9509 19.9674 5.38663
-17.9232 20.0015 5.3796
-17.8953 20.0355 5.37288
-17.8673 20.0696 5.36606
-17.8391 20.1041 5.3586
-17.81 20.1377 5.35111
-17.7809 20.1714 5.34308
-17.7003 20.1595 5.33255
-17.7239 20.2375 5.3271
-17.6956 20.2713 5.31817
-17.6674 20.3052 5.30912
-17.6392 20.3389 5.29992
-17.611 20.3726 5.29077
-17.5819 20.4056 5.2818
-17.5521 20.4382 5.27307
-17.5224 20.4707 5.26457
-17.4929 20.503 5.25581
-17.4634 20.5352 5.24751
-17.4339 20.5674 5.23967
-17.4042 20.5998 5.23257
-17.3745 20.6322 5.22554
-17.3445 20.6647 5.2192
-17.3145 20.6973 5.21334
-17.2845 20.7299 5.20767
-17.2544 20.7621 5.20131
-17.2241 20.7943 5.19519
-17.1927 20.8258 5.1895
-17.1594 20.8557 5.18445
-17.1261 20.8856 5.17947
-17.0925 20.916 5.17542
-17.0589 20.9468 5.17196
-17.0245 20.9771 5.16911
-16.9904 21.0074 5.16598
-16.956 21.0378 5.16324
-16.9213 21.0685 5.16076
-16.8864 21.0993 5.15884
-16.8518 21.1302 5.15732
-16.8173 21.1615 5.15578
-16.7807 21.1928 5.15117
-16.6936 21.1646 5.14754
-16.7079 21.2542 5.1417
-16.6726 21.284 5.13837
-16.6371 21.314 5.13491
-16.6015 21.344 5.13177
-16.5659 21.3743 5.12862
-16.5302 21.4048 5.12606
-16.4944 21.4354 5.12397
-16.4583 21.4658 5.12238
-16.4218 21.4958 5.12046
-16.385 21.5256 5.11915
-16.3481 21.5556 5.1184
-16.3109 21.5858 5.1185
-16.2736 21.6161 5.11871
-16.2363 21.6465 5.11956
-16.1973 21.675 5.12094
-16.1581 21.7032 5.1223
-16.1193 21.7312 5.12289
-16.0802 21.7588 5.1235
-16.0408 21.786 5.12459
-16.0012 21.8134 5.12638
-15.9615 21.8408 5.12826
-15.9216 21.8684 5.13109
-15.8819 21.8967 5.13452
-15.8424 21.9256 5.13863
-15.8029 21.9545 5.14239
-15.7633 21.9834 5.14671
-15.7236 22.0125 5.15149
-15.6836 22.0415 5.15701
-15.643 22.0697 5.16267
-15.6022 22.098 5.16881
-15.5607 22.1261 5.17533
-15.5018 22.1274 5.18091
-15.4799 22.1811 5.18758
-15.4398 22.2103 5.19287
-15.3998 22.2395 5.19826
-15.3597 22.2687 5.20381
-15.3196 22.2979 5.20952
-15.2796 22.327 5.21561
-15.2393 22.3558 5.22188
-15.199 22.3845 5.22838
-15.1587 22.4132 5.23472
-15.1185 22.4419 5.2413
-15.0783 22.4705 5.24812
-15.0378 22.4985 5.25523
-14.9966 22.5253 5.26227
-14.9553 22.552 5.26956
-14.914 22.5787 5.27702
-14.8725 22.6052 5.28459
-14.8303 22.6311 5.29202
-14.7882 22.657 5.29944
-14.7462 22.6829 5.30687
-14.7043 22.7086 5.31431
-14.6624 22.7343 5.32181
-14.6208 22.7599 5.3292
-14.5794 22.7854 5.33646
-14.5383 22.8107 5.34352
-14.4983 22.838 5.35072
-14.4593 22.8665 5.35774
-14.4196 22.8932 5.36452
-14.3801 22.9197 5.37098
-14.3409 22.946 5.37741
-14.3019 22.9722 5.38357
-14.263 22.9983 5.3896
-14.2056 22.9978 5.39512
-14.1838 23.0515 5.40141
-14.1437 23.0783 5.40739
-14.1037 23.1043 5.4138
-14.0625 23.1274 5.41963
-14.0214 23.1493 5.42526
-13.9808 23.1704 5.43036
-13.9402 23.1914 5.43527
-13.8999 23.2124 5.43969
-13.8594 23.2335 5.44413
-13.8191 23.2545 5.44787
-13.7791 23.2755 5.45113
-13.7393 23.2963 5.45369
-13.6995 23.3172 5.45628
-13.6599 23.338 5.4584
-13.6204 23.3587 5.46018
-13.5809 23.3795 5.46188
-13.5413 23.4003 5.46406
-13.5017 23.4211 5.46624
-13.462 23.4419 5.46816
-13.4233 23.4647 5.4699
-13.3848 23.4877 5.47165
-13.3463 23.5107 5.47294
-13.3077 23.5337 5.47395
-13.2691 23.5568 5.47452
-13.2306 23.5799 5.47505
-13.1921 23.6029 5.47536
-13.1536 23.6265 5.47564
-13.1153 23.6506 5.4759
-13.0759 23.6726 5.47597
-13.0358 23.6938 5.47641
-12.9954 23.7152 5.47717
-12.9625 23.7514 5.4791
-12.9141 23.7583 5.48068
-12.8732 23.78 5.48331
-12.832 23.8018 5.48616
-12.7904 23.8238 5.48915
-12.7488 23.8457 5.492
-12.707 23.8679 5.49447
-12.6659 23.8915 5.49669
-12.6251 23.9159 5.49848
-12.584 23.9397 5.50047
-12.5424 23.9623 5.50184
-12.5014 23.9868 5.50278
-12.4637 24.0161 5.50221
-12.4259 24.0453 5.50143
-12.3881 24.0743 5.50005
-12.3484 24.1007 5.49885
-12.3088 24.1269 5.49746
-12.2692 24.1532 5.49669
-12.2303 24.1802 5.49543
-12.1914 24.207 5.49359
-12.1527 24.2335 5.49093
-12.114 24.2601 5.48823
-12.0744 24.2851 5.48489
-12.0349 24.31 5.48092
-11.9953 24.3346 5.47629
-11.9556 24.3594 5.47205
-11.9159 24.3841 5.46731
-11.8763 24.4087 5.46216
-11.8363 24.4326 5.45639
-11.7961 24.4564 5.45032
-11.7556 24.4795 5.44411
-11.7145 24.5018 5.43796
-11.6589 24.4992 5.43928
-11.6327 24.5469 5.42724
-11.5919 24.5698 5.42281
-11.5513 24.5926 5.41828
-11.5105 24.6147 5.41367
-11.4697 24.6366 5.40891
-11.4291 24.6583 5.40348
-11.3886 24.6798 5.39755
-11.3483 24.7013 5.39109
-11.3079 24.723 5.38501
-11.2676 24.7444 5.37829
-11.2273 24.7655 5.37098
-11.1866 24.7855 5.36299
-11.146 24.8054 5.35495
-11.1055 24.8251 5.34612
-11.065 24.8446 5.33676
-11.0245 24.8642 5.32716
-10.9839 24.8839 5.31817
-10.9432 24.9036 5.30905
-10.9026 24.9232 5.29949
-10.8621 24.9426 5.2894
-10.8217 24.9619 5.27932
-10.7814 24.981 5.26862
-10.7411 24.9998 5.2576
-10.7004 25.0182 5.24606
-10.6588 25.0355 5.23469
-10.6165 25.0518 5.2234
-10.5745 25.0682 5.21221
-10.5318 25.0832 5.2014
-10.4885 25.0968 5.1907
-10.4453 25.1106 5.18052
-10.4022 25.1244 5.17082
-10.347 25.1057 5.17096
-10.3169 25.1522 5.15383
-10.2746 25.1663 5.14653
-10.2327 25.1818 5.1393
-10.1915 25.1982 5.13239
-10.1494 25.2133 5.12557
-10.1066 25.2271 5.11895
-10.0638 25.241 5.11237
-10.021 25.2548 5.10538
-9.97813 25.2685 5.09813
-9.93624 25.2843 5.08966
-9.89468 25.3006 5.08069
-9.8535 25.317 5.071
-9.81376 25.3362 5.06095
-9.77411 25.3552 5.05045
-9.73448 25.3742 5.03957
-9.69382 25.3911 5.02903
-9.65243 25.4068 5.01938
-9.61089 25.4226 5.00971
-9.56935 25.4383 4.99952
-9.52789 25.4539 4.98851
-9.48657 25.4694 4.97739
-9.44538 25.4848 4.96511
-9.40422 25.5002 4.95199
-9.36303 25.5155 4.93813
-9.32033 25.5273 4.92532
-9.27731 25.5386 4.91156
-9.23438 25.5497 4.89691
-9.19145 25.5604 4.88097
-9.14841 25.5709 4.86495
-9.10564 25.5811 4.8481
-9.063 25.5913 4.83075
-9.01265 25.574 4.81796
-8.98016 25.6122 4.79709
-8.93896 25.6237 4.78037
-8.8976 25.6355 4.76379
-8.85639 25.6471 4.74662
-8.8152 25.6587 4.72922
-8.77407 25.6701 4.71093
-8.73297 25.6814 4.6921
-8.69169 25.6922 4.6728
-8.65032 25.703 4.65393
-8.60883 25.7137 4.63456
-8.56701 25.7234 4.61484
-8.52473 25.7322 4.5946
-8.48236 25.7407 4.57436
-8.43977 25.7488 4.55371
-8.39713 25.7568 4.53279
-8.35461 25.7648 4.51178
-8.31235 25.7727 4.49109
-8.27013 25.7807 4.47057
-8.22777 25.7888 4.45002
-8.18485 25.7958 4.42972
-8.14182 25.8027 4.40939
-8.0984 25.8096 4.38909
-8.05492 25.8176 4.3687
-8.01129 25.8257 4.34827
-7.968 25.8338 4.32764
-7.92441 25.8419 4.30716
-7.88041 25.8502 4.28691
-7.83587 25.8588 4.26709
-7.79137 25.8672 4.2474
-7.74623 25.8759 4.22819
-7.70085 25.8847 4.20933
-7.66296 25.924 4.18429
-7.6072 25.9031 4.17133
-7.56074 25.9152 4.15174
-7.51637 25.9286 4.13232
-7.47164 25.9423 4.1136
-7.42674 25.956 4.09496
-7.38146 25.9701 4.07707
-7.33601 25.9844 4.05969
-7.29115 26.0004 4.04227
-7.24656 26.0161 4.02433
-7.2019 26.0318 4.00675
-7.15698 26.0476 3.98971
-7.11202 26.064 3.97332
-7.06768 26.0818 3.95672
-7.02308 26.1 3.94072
-6.97836 26.1183 3.92505
-6.93341 26.1368 3.90935
-6.88836 26.1551 3.89305
-6.84245 26.1717 3.87717
-6.79615 26.1874 3.86187
-6.75002 26.2032 3.84688
-6.70395 26.219 3.83199
-6.65751 26.2332 3.81813
-6.61076 26.246 3.80498
-6.56411 26.2589 3.7923
-6.51717 26.2718 3.77948
-6.47029 26.284 3.76715
-6.42331 26.2947 3.75542
-6.37691 26.3052 3.74394
-6.33054 26.3158 3.73258
-6.28483 26.3262 3.72115
-6.23959 26.3363 3.70961
-6.19238 26.3384 3.69988
-6.14946 26.3562 3.68515
-6.10457 26.3659 3.67225
-6.0603 26.3759 3.65913
-6.01677 26.3858 3.64593
-5.97351 26.3966 3.63261
-5.93135 26.4087 3.61917
-5.88959 26.4208 3.60594
-5.84738 26.4311 3.59355
-5.80465 26.4411 3.58115
-5.762 26.4513 3.56916
-5.71961 26.4615 3.55756
-5.67773 26.4724 3.54635
-5.6363 26.4843 3.53475
-5.59515 26.4964 3.5237
-5.55414 26.5086 3.51303
-5.51345 26.521 3.50243
-5.47296 26.5336 3.49121
-5.43257 26.5466 3.48003
-5.39214 26.5598 3.46921
-5.3515 26.5734 3.45891
-5.31081 26.587 3.44861
-5.26977 26.6009 3.4389
-5.22846 26.6152 3.42958
-5.18697 26.6297 3.42073
-5.14587 26.644 3.41178
-5.10442 26.6586 3.40308
-5.06238 26.6732 3.39461
-5.01917 26.6872 3.38679
-4.97589 26.7013 3.37921
-4.93169 26.7156 3.37142
-4.88685 26.7302 3.36339
-4.83231 26.7216 3.36379
-4.79653 26.7585 3.34493
-4.75111 26.7724 3.33465
-4.70508 26.7864 3.3244
-4.65816 26.8003 3.31422
-4.61109 26.8141 3.30487
-4.56345 26.8284 3.29606
-4.51541 26.8429 3.28737
-4.46714 26.8576 3.27899
-4.41921 26.8722 3.27042
-4.37131 26.8869 3.26234
-4.32304 26.9013 3.25501
-4.27445 26.9155 3.24865
-4.22584 26.9298 3.24239
-4.17721 26.9443 3.23667
-4.12863 26.959 3.23133
-4.08001 26.9737 3.22598
-4.03078 26.987 3.22047
-3.98147 26.9995 3.21539
-3.93235 27.0117 3.2109
-3.88351 27.0232 3.2075
-3.83474 27.0348 3.20423
-3.78665 27.0467 3.20178
-3.73909 27.0587 3.19988
-3.69191 27.0709 3.1985
-3.64418 27.083 3.19668
-3.59697 27.0952 3.19535
-3.55082 27.109 3.19372
-3.50568 27.123 3.19282
-3.46079 27.1369 3.19205
-3.41679 27.1509 3.19184
-3.37337 27.1649 3.19197
-3.32791 27.1722 3.19557
-3.28564 27.1928 3.19174
-3.24141 27.2067 3.19126
-3.19783 27.2205 3.191
-3.15513 27.2334 3.19137
-3.11211 27.2444 3.19267
-3.06956 27.2523 3.19595
-3.02766 27.2605 3.19932
-2.98639 27.2686 3.20315
-2.9447 27.2765 3.20706
-2.90357 27.2845 3.21133
-2.86298 27.2926 3.21586
-2.82313 27.3007 3.22074
-2.78336 27.3091 3.22543
-2.74406 27.3177 3.23021
-2.70501 27.3263 3.23513
-2.66595 27.335 3.24015
-2.62652 27.3438 3.24508
-2.58686 27.3525 3.24996
-2.54722 27.3612 3.25482
-2.50759 27.3698 3.25962
-2.46802 27.3785 3.26442
-2.42851 27.3871 3.2691
-2.38895 27.3954 3.27376
-2.34944 27.4032 3.27864
-2.3101 27.411 3.28369
-2.27073 27.4188 3.28856
-2.2313 27.4272 3.2928
-2.19176 27.4364 3.29613
-2.15188 27.4439 3.30037
-2.11157 27.4509 3.30448
-2.07102 27.4579 3.30834
-2.02961 27.4593 3.31508
-1.98939 27.4692 3.31812
-1.94862 27.4745 3.32299
-1.9075 27.4796 3.32756
-1.86585 27.4846 3.33164
-1.82413 27.4896 3.33566
-1.78188 27.4943 3.33912
-1.73944 27.501 3.3413
-1.69674 27.5075 3.34311
-1.65446 27.5142 3.34527
-1.61199 27.5207 3.34712
-1.56917 27.5271 3.34861
-1.52588 27.5333 3.34956
-1.48258 27.5399 3.35024
-1.43888 27.5466 3.35046
-1.39493 27.5531 3.35045
-1.35083 27.5598 3.35047
-1.30697 27.5665 3.3509
-1.26309 27.5733 3.35143
-1.21907 27.5801 3.35181
-1.17488 27.5868 3.35194
-1.13052 27.5933 3.35195
-1.08535 27.5939 3.35426
-1.04016 27.594 3.35646
-0.994721 27.594 3.35839
-0.949418 27.594 3.36044
-0.904054 27.5939 3.36228
-0.858656 27.5938 3.36395
-0.813113 27.5936 3.36539
-0.767323 27.5933 3.36682
-0.721723 27.5929 3.36823
-0.676291 27.5914 3.37014
-0.632052 27.5757 3.37865
-0.586565 27.5887 3.37448
-0.542294 27.5875 3.37696
-0.498201 27.5864 3.37946
-0.454248 27.5852 3.38197
-0.410136 27.5841 3.38444
-0.365934 27.5828 3.38681
-0.321758 27.5802 3.38964
-0.277578 27.5771 3.39257
-0.233481 27.5735 3.39585
-0.18995 27.5648 3.40109
-0.145898 27.5559 3.40631
-0.10108 27.5468 3.41146
-0.0563262 27.5377 3.41657
-0.0108621 27.5284 3.42162
0.0350458 27.5187 3.42673
0.0814259 27.5089 3.43191
0.127531 27.4992 3.43728
0.173876 27.4895 3.44262
0.221549 27.4847 3.44584
0.26991 27.4797 3.44885
0.318464 27.4746 3.45184
0.367029 27.4692 3.45459
0.415615 27.4633 3.45731
0.464113 27.465 3.45647
0.511639 27.4702 3.45416
0.559557 27.4735 3.4524
0.607466 27.4812 3.44874
0.656091 27.4895 3.44427
0.704894 27.4976 3.43909
0.754162 27.5056 3.43426
0.804071 27.5118 3.4303
0.856337 27.5056 3.43451
0.904609 27.5241 3.42353
0.954168 27.5287 3.42141
1.00385 27.5329 3.41944
1.05355 27.5374 3.41788
1.10337 27.539 3.41795
1.15345 27.5406 3.41803
1.20377 27.5421 3.41824
1.25431 27.5434 3.41839
1.30473 27.5447 3.4185
1.35528 27.5473 3.41766
1.406 27.5502 3.41654
1.45686 27.554 3.41478
1.50737 27.5604 3.41172
1.55821 27.5666 3.40866
1.6092 27.5728 3.40546
1.66035 27.5789 3.40216
1.71152 27.5844 3.39925
1.76271 27.5897 3.39633
1.81391 27.5949 3.39328
1.865 27.6 3.39003
1.916 27.6051 3.38674
1.96689 27.6098 3.38342
2.01773 27.6137 3.38049
2.06872 27.6175 3.37756
2.12022 27.6215 3.37482
2.17143 27.6266 3.37145
2.22191 27.6321 3.36765
2.27207 27.637 3.36378
2.32309 27.6382 3.36151
2.37375 27.6389 3.3596
2.42429 27.6383 3.35818
2.47473 27.601 3.37801
2.52507 27.6374 3.35598
2.5751 27.6371 3.35525
2.62472 27.6369 3.3545
2.67373 27.6366 3.35367
2.72277 27.6362 3.35275
2.77121 27.6358 3.35162
2.81922 27.6352 3.35036
2.86687 27.634 3.34926
2.91485 27.6322 3.34858
2.96258 27.6308 3.34751
3.00996 27.6292 3.34628
3.05688 27.6275 3.34482
3.10374 27.6259 3.34334
3.15026 27.6234 3.34211
3.19655 27.6202 3.34113
3.24287 27.617 3.34015
3.28952 27.6142 3.33917
3.33631 27.6124 3.33764
3.383 27.6106 3.33603
3.42954 27.6088 3.33429
3.476 27.6069 3.33253
3.52222 27.604 3.33114
3.56831 27.6001 3.33006
3.61427 27.5962 3.32885
3.66018 27.5923 3.3277
3.7061 27.588 3.32659
3.75213 27.5835 3.32552
3.79822 27.5789 3.32434
3.84403 27.5743 3.32317
3.89023 27.5697 3.32195
3.93928 27.5648 3.32136
3.97949 27.5041 3.34924
4.03623 27.5487 3.3227
4.0832 27.5408 3.32291
4.13012 27.5324 3.32359
4.17701 27.5225 3.32494
4.22338 27.5129 3.3267
4.26962 27.5035 3.32861
4.3159 27.4934 3.3307
4.36232 27.4838 3.33249
4.4087 27.4741 3.33427
4.45511 27.4644 3.33597
4.50168 27.4551 3.33732
4.54812 27.4448 3.3392
4.59452 27.4343 3.34124
4.64098 27.4237 3.34324
4.68744 27.4131 3.34518
4.73385 27.4025 3.34707
4.78018 27.3919 3.34898
4.8257 27.3783 3.35236
4.87113 27.3646 3.35578
4.91661 27.3508 3.35914
4.96228 27.3375 3.36226
5.00829 27.3251 3.36479
5.05376 27.3109 3.36829
5.09929 27.2966 3.37176
5.14483 27.2824 3.37522
5.19042 27.2681 3.37869
5.23603 27.2538 3.3822
5.28164 27.2396 3.38572
5.32723 27.2252 3.38919
5.3728 27.2108 3.39276
5.41913 27.1953 3.39835
5.45121 27.1469 3.4205
5.50882 27.1631 3.40969
5.55257 27.1476 3.41409
5.59808 27.1333 3.41767
5.64346 27.1192 3.42126
5.68827 27.1037 3.42567
5.73294 27.0881 3.43022
5.7776 27.0725 3.43471
5.82221 27.057 3.43925
5.8668 27.0415 3.44385
5.91128 27.0261 3.44855
5.95569 27.0107 3.4533
5.99952 26.9942 3.45877
6.04301 26.9768 3.46466
6.0863 26.9591 3.47081
6.12954 26.9414 3.477
6.1727 26.9237 3.48322
6.21583 26.9061 3.48942
6.2589 26.8885 3.49564
6.30108 26.8692 3.50282
6.34304 26.8493 3.51027
6.385 26.8295 3.51771
6.427 26.8097 3.52515
6.46904 26.7898 3.53259
6.51108 26.77 3.54006
6.55305 26.7502 3.54758
6.59506 26.7304 3.5551
6.63716 26.7105 3.56257
6.67936 26.6905 3.56996
6.7215 26.6706 3.57736
6.76381 26.6504 3.58464
6.80614 26.6302 3.59177
6.85668 26.6231 3.5912
6.89201 26.5887 3.60682
6.93619 26.5689 3.6136
6.98042 26.5512 3.61839
7.02469 26.5335 3.62314
7.0691 26.5159 3.62806
7.11289 26.4971 3.63372
7.15596 26.4772 3.63997
7.19872 26.4572 3.64649
7.24326 26.4407 3.6514
7.28716 26.4232 3.65703
7.33052 26.4049 3.66312
7.37367 26.3869 3.66934
7.41672 26.3687 3.67558
7.45953 26.3504 3.68199
7.50226 26.3322 3.68848
7.54509 26.3139 3.69495
7.58819 26.2953 3.70125
7.63134 26.2768 3.70757
7.67436 26.2584 3.714
7.71713 26.2402 3.7206
7.7594 26.2211 3.72758
7.80103 26.2018 3.73499
7.84338 26.1845 3.74191
7.88574 26.1678 3.74876
7.92807 26.1506 3.75557
7.96997 26.1333 3.76264
8.01146 26.1164 3.76992
8.05313 26.1002 3.77723
8.09482 26.0824 3.78506
8.13528 26.0632 3.79361
8.1739 26.0416 3.80369
8.20326 26.007 3.81934
8.25125 26.0006 3.82092
8.29024 25.9811 3.83082
8.32886 25.9619 3.84091
8.36708 25.9432 3.85138
8.40539 25.9244 3.86177
8.44327 25.9061 3.8724
8.48173 25.8887 3.88275
8.52244 25.8773 3.89031
8.56322 25.8658 3.89771
8.60406 25.8543 3.90513
8.6449 25.8428 3.91263
8.68569 25.8314 3.92021
8.72639 25.8201 3.92779
8.76706 25.8087 3.9354
8.80752 25.7965 3.94352
8.8475 25.7831 3.95204
8.88838 25.7723 3.95975
8.92957 25.7617 3.96703
8.97087 25.7509 3.9741
9.01246 25.74 3.98077
9.05418 25.729 3.98746
9.09607 25.7179 3.9937
9.13811 25.7067 3.99959
9.18069 25.6983 4.00446
9.22368 25.6949 4.00851
9.26718 25.6914 4.0122
9.31106 25.6877 4.01549
9.35563 25.6839 4.01826
9.40039 25.68 4.02108
9.44542 25.6738 4.02392
9.4907 25.6675 4.0265
9.53518 25.6545 4.03009
9.58121 25.6541 4.03195
9.626 25.6467 4.03534
9.67111 25.6392 4.03846
9.71668 25.6315 4.04117
9.76239 25.6239 4.04372
9.80868 25.6166 4.04562
9.85526 25.6092 4.04716
9.90209 25.6015 4.04841
9.94843 25.5925 4.0503
9.99501 25.5836 4.05178
10.0418 25.5746 4.05287
10.0885 25.5639 4.05375
10.1349 25.5516 4.05497
10.1808 25.5362 4.05639
10.2268 25.5207 4.05758
10.2728 25.5052 4.05865
10.3184 25.4898 4.05991
10.3638 25.4745 4.06115
10.4093 25.4592 4.06228
10.4548 25.4438 4.06329
10.5004 25.4282 4.06435
10.546 25.4123 4.06532
10.5916 25.3965 4.06624
10.6372 25.3806 4.06703
10.6834 25.3668 4.06736
10.7297 25.3531 4.06766
10.7758 25.3396 4.06814
10.8221 25.326 4.06854
10.8692 25.3121 4.06839
10.9159 25.2983 4.06872
10.9616 25.2817 4.06987
10.9929 25.2265 4.08054
11.0526 25.2477 4.07028
11.0971 25.2314 4.07286
11.1414 25.2153 4.07573
11.1857 25.1999 4.07899
11.2307 25.1856 4.08174
11.276 25.1724 4.08444
11.3209 25.1593 4.08723
11.3658 25.1462 4.09018
11.4108 25.133 4.09319
11.4558 25.1195 4.09627
11.5007 25.106 4.09938
11.5453 25.0921 4.10261
11.5899 25.0781 4.10583
11.6345 25.0641 4.1089
11.6791 25.0501 4.11184
11.7237 25.0359 4.11465
11.7684 25.0219 4.11762
11.8131 25.0075 4.12044
11.8576 24.9921 4.12343
11.9009 24.9736 4.12703
11.9446 24.9561 4.13031
11.9883 24.9384 4.13321
12.0321 24.9206 4.13585
12.0759 24.9026 4.13827
12.1197 24.8848 4.14089
12.1634 24.8666 4.14349
12.2066 24.8479 4.14614
12.2505 24.8287 4.14846
12.2948 24.8075 4.15114
12.3386 24.7835 4.15457
12.3824 24.7596 4.15802
12.3903 24.6748 4.18599
12.4701 24.7118 4.166
12.51 24.6905 4.16889
12.5515 24.6684 4.17346
12.5926 24.6464 4.17773
12.6342 24.6244 4.18134
12.6758 24.6026 4.1844
12.7172 24.5809 4.18764
12.7587 24.5591 4.19035
12.8003 24.537 4.19274
12.8421 24.5147 4.19431
12.8837 24.4923 4.1955
12.9253 24.4698 4.19617
12.9668 24.4474 4.19696
13.0083 24.4251 4.19748
13.0484 24.4005 4.19848
13.0884 24.3757 4.19954
13.1285 24.3509 4.20096
13.1683 24.3258 4.20258
13.2079 24.3005 4.20415
13.2474 24.2748 4.20558
13.2868 24.2492 4.20695
13.3262 24.2235 4.20803
13.3656 24.1978 4.20893
13.4049 24.1721 4.20964
13.4443 24.1464 4.21045
13.4836 24.1206 4.2111
13.523 24.0948 4.2116
13.5622 24.069 4.21189
13.6018 24.0436 4.21203
13.6414 24.0185 4.212
13.6811 23.9933 4.21192
13.7223 23.9707 4.21124
13.7604 23.9431 4.21203
13.8001 23.9179 4.2123
13.8395 23.8923 4.21263
13.8796 23.8681 4.21264
13.9208 23.8457 4.21228
13.9607 23.8214 4.21224
14.0006 23.7972 4.21214
14.0407 23.7728 4.21195
14.0809 23.7484 4.21176
14.1212 23.7239 4.21149
14.1621 23.6998 4.21105
14.2058 23.6826 4.20917
14.2493 23.6655 4.20729
14.2928 23.6484 4.20542
14.3363 23.6313 4.20356
14.3789 23.6125 4.20207
