BEGIN_Polyline
-30.4602 -8.46806 8.27499
-30.4555 -8.42145 8.269
-30.4499 -8.37517 8.26255
-30.4441 -8.32912 8.25622
-30.4497 -8.27642 8.28886
-30.4333 -8.23622 8.24485
-30.4281 -8.1911 8.24014
-30.4225 -8.14612 8.23387
-30.4165 -8.10164 8.22688
-30.411 -8.05659 8.21981
-30.4053 -8.0116 8.21207
-30.3994 -7.96676 8.20443
-30.3939 -7.92172 8.1981
-30.3885 -7.87662 8.19202
-30.3831 -7.83143 8.18655
-30.3769 -7.78658 8.17923
-30.3704 -7.74182 8.17156
-30.3637 -7.69706 8.16438
-30.3573 -7.65213 8.1581
-30.3508 -7.60717 8.15187
-30.3437 -7.56236 8.14483
-30.3358 -7.51778 8.13672
-30.3289 -7.47265 8.13035
-30.322 -7.42746 8.12435
-30.315 -7.38221 8.11842
-30.3072 -7.33715 8.1114
-30.2985 -7.2923 8.10344
-30.289 -7.24772 8.09471
-30.2814 -7.20219 8.08869
-30.2737 -7.15677 8.08284
-30.2659 -7.11129 8.0771
-30.257 -7.06601 8.07048
-30.2488 -7.02026 8.06485
-30.2415 -6.97389 8.06013
-30.2331 -6.92768 8.05452
-30.2237 -6.88171 8.04804
-30.2058 -6.8384 8.03315
-30.2046 -6.78893 8.03538
-30.1947 -6.74228 8.02921
-30.185 -6.69522 8.02361
-30.1751 -6.64801 8.01807
-30.165 -6.60078 8.01238
-30.155 -6.55337 8.00701
-30.1443 -6.5061 8.00105
-30.1331 -6.45887 7.99495
-30.122 -6.41157 7.98909
-30.1115 -6.36402 7.984
-30.1002 -6.31664 7.97842
-30.089 -6.2692 7.97297
-30.0773 -6.22179 7.96731
-30.0644 -6.17484 7.96058
-30.0514 -6.12788 7.95392
-30.0383 -6.08093 7.94733
-30.0252 -6.034 7.9409
-30.0116 -5.98732 7.93407
-29.9979 -5.94065 7.9273
-29.9844 -5.89394 7.9207
-29.9708 -5.84721 7.91425
-29.9573 -5.80046 7.90794
-29.9438 -5.75371 7.90166
-29.9315 -5.70644 7.89644
-29.9186 -5.65929 7.89072
-29.9048 -5.61253 7.88427
-29.8913 -5.5657 7.87811
-29.8773 -5.51911 7.87165
-29.863 -5.47272 7.86502
-29.8488 -5.42644 7.85845
-29.8342 -5.38028 7.85174
-29.8023 -5.34184 7.83173
-29.8048 -5.28892 7.83829
-29.7902 -5.24372 7.83162
-29.7756 -5.19869 7.82499
-29.7608 -5.15391 7.81823
-29.7461 -5.1093 7.81147
-29.7313 -5.06478 7.80475
-29.7166 -5.02029 7.79814
-29.7026 -4.97551 7.79207
-29.6886 -4.93055 7.78608
-29.6746 -4.88559 7.78012
-29.661 -4.84041 7.77458
-29.6508 -4.7941 7.77165
-29.6414 -4.74796 7.76939
-29.632 -4.70181 7.76714
-29.6219 -4.65572 7.76438
-29.6118 -4.60943 7.76154
-29.603 -4.56232 7.75974
-29.5936 -4.51515 7.75742
-29.5834 -4.4682 7.75445
-29.5736 -4.42125 7.75201
-29.5641 -4.37464 7.74987
-29.5511 -4.32913 7.74482
-29.5368 -4.28433 7.73883
-29.5224 -4.23925 7.73275
-29.5068 -4.19387 7.72553
-29.49 -4.14887 7.71736
-29.4732 -4.10419 7.70935
-29.4538 -4.0609 7.69974
-29.4334 -4.01798 7.69078
-29.4131 -3.9754 7.68168
-29.3943 -3.93261 7.67123
-29.3255 -3.9229 7.62359
-29.3579 -3.85003 7.6482
-29.3377 -3.81058 7.64123
-29.3176 -3.77173 7.63441
-29.2969 -3.73366 7.6276
-29.2766 -3.6961 7.62065
-29.2564 -3.65883 7.61381
-29.2362 -3.62174 7.60718
-29.2173 -3.58388 7.60141
-29.1978 -3.5462 7.59517
-29.1782 -3.50867 7.58875
-29.1592 -3.47077 7.5828
-29.1403 -3.43295 7.57688
-29.1219 -3.39498 7.57136
-29.1035 -3.35706 7.56584
-29.0852 -3.31913 7.56029
-29.0668 -3.28113 7.55469
-29.0494 -3.24236 7.54974
-29.0321 -3.20348 7.54474
-29.0142 -3.16486 7.53929
-28.9971 -3.12582 7.53426
-28.9801 -3.08676 7.52916
-28.9631 -3.04771 7.52397
-28.9463 -3.0086 7.51875
-28.93 -2.96931 7.51376
-28.9147 -2.92957 7.50951
-28.8995 -2.88984 7.50515
-28.884 -2.85028 7.50037
-28.8687 -2.81066 7.49547
-28.8537 -2.7709 7.4905
-28.8388 -2.73108 7.4853
-28.8243 -2.69133 7.47952
-28.822 -2.6455 7.48273
-28.7951 -2.61153 7.46679
-28.781 -2.57144 7.46004
-28.767 -2.53126 7.45301
-28.7536 -2.49083 7.44594
-28.7399 -2.45051 7.43825
-28.7264 -2.41011 7.43032
-28.7129 -2.36961 7.42222
-28.6993 -2.3291 7.41387
-28.6852 -2.28876 7.40505
-28.671 -2.24842 7.39599
-28.6568 -2.208 7.3868
-28.6449 -2.1663 7.37902
-28.6322 -2.12499 7.37053
-28.6188 -2.08391 7.3615
-28.6049 -2.04301 7.35206
-28.5912 -2.00196 7.34274
-28.5784 -1.96053 7.334
-28.5651 -1.91926 7.32492
-28.5516 -1.87804 7.31563
-28.538 -1.83668 7.30627
-28.5239 -1.79534 7.29655
-28.5103 -1.75356 7.28717
-28.4978 -1.71116 7.27841
-28.4844 -1.66902 7.26906
-28.4705 -1.62701 7.25926
-28.4563 -1.58492 7.24921
-28.4423 -1.54239 7.23935
-28.4281 -1.49966 7.22936
-28.4136 -1.4568 7.21915
-28.3989 -1.41357 7.20889
-28.3844 -1.36994 7.1986
-28.3842 -1.31808 7.19839
-28.3552 -1.27894 7.17963
-28.3408 -1.2328 7.16991
-28.3263 -1.18623 7.1602
-28.3116 -1.13932 7.15047
-28.2968 -1.09216 7.14074
-28.2819 -1.04478 7.13102
-28.2678 -0.996762 7.12189
-28.254 -0.948477 7.11299
-28.2399 -0.900261 7.10403
-28.2245 -0.852534 7.09425
-28.2091 -0.804732 7.08444
-28.1938 -0.756687 7.07492
-28.179 -0.708333 7.06577
-28.1641 -0.659942 7.05661
-28.1491 -0.611511 7.04747
-28.1337 -0.563206 7.03813
-28.1184 -0.51472 7.02898
-28.103 -0.466264 7.01982
-28.0875 -0.417836 7.01069
-28.0698 -0.370507 7.00021
-28.0517 -0.323463 6.98965
-28.0335 -0.276547 6.97913
-28.0154 -0.229659 6.9688
-27.9983 -0.182358 6.95922
-27.9813 -0.135252 6.94961
-27.9641 -0.0884012 6.93999
-27.9469 -0.0417169 6.9306
-27.9312 0.00558821 6.92239
-27.9159 0.0529246 6.91452
-27.8995 0.0995539 6.90636
-27.8829 0.14593 6.89828
-27.849 0.183706 6.8816
-27.849 0.236183 6.88257
-27.8321 0.280183 6.87529
-27.8151 0.323772 6.86853
-27.7981 0.367025 6.86205
-27.7812 0.410059 6.85578
-27.7642 0.452859 6.84973
-27.747 0.495285 6.84374
-27.73 0.537663 6.83803
-27.7129 0.57993 6.8324
-27.6958 0.622032 6.82687
-27.6774 0.663344 6.82085
-27.6589 0.704503 6.81494
-27.6403 0.745535 6.80918
-27.6215 0.786355 6.80345
-27.6026 0.827048 6.79781
-27.5837 0.867694 6.79231
-27.5648 0.908426 6.78708
-27.546 0.949159 6.782
-27.5274 0.989933 6.77709
-27.509 1.03084 6.77242
-27.4906 1.07173 6.76781
-27.4707 1.11182 6.76241
-27.4511 1.15203 6.75723
-27.4315 1.19226 6.75217
-27.4108 1.23182 6.74654
-27.39 1.27141 6.741
-27.3696 1.31134 6.73572
-27.3492 1.35127 6.73044
-27.3274 1.38999 6.72405
-27.3058 1.42923 6.71792
-27.2889 1.47054 6.71489
-27.2547 1.50433 6.69944
-27.2404 1.55086 6.69993
-27.2163 1.58833 6.69002
-27.1944 1.62847 6.68196
-27.1725 1.66871 6.6738
-27.1514 1.70996 6.66621
-27.1259 1.7471 6.65455
-27.1021 1.78623 6.64447
-27.0802 1.82677 6.63625
-27.0582 1.86713 6.62824
-27.0358 1.90728 6.62007
-27.0134 1.94763 6.61153
-26.9942 1.99001 6.6074
-26.9747 2.0323 6.60297
-26.9531 2.07336 6.59622
-26.9312 2.11411 6.58901
-26.9093 2.15491 6.58184
-26.8879 2.1963 6.57554
-26.8673 2.23834 6.57055
-26.8466 2.28037 6.56562
-26.8259 2.32234 6.56076
-26.805 2.36416 6.55582
-26.7851 2.40652 6.55247
-26.7652 2.4488 6.5491
-26.7452 2.49105 6.54576
-26.7256 2.53356 6.54309
-26.7061 2.5761 6.54068
-26.6867 2.61842 6.53835
-26.6672 2.66075 6.53603
-26.6477 2.70355 6.53341
-26.6295 2.74659 6.53308
-26.6113 2.78945 6.53264
-26.6149 2.84126 6.56458
-26.5752 2.87286 6.5323
-26.5572 2.91337 6.53237
-26.5391 2.95357 6.53239
-26.521 2.99347 6.5325
-26.5029 3.03323 6.53266
-26.4847 3.07282 6.53288
-26.4664 3.11211 6.53291
-26.4487 3.15161 6.53376
-26.4309 3.191 6.53443
-26.413 3.23033 6.53513
-26.3951 3.26959 6.53588
-26.3772 3.30878 6.53668
-26.3588 3.34774 6.53696
-26.3402 3.38659 6.53714
-26.3215 3.42543 6.53738
-26.3026 3.46426 6.5377
-26.2837 3.50313 6.53826
-26.2644 3.54188 6.53847
-26.2455 3.58091 6.53952
-26.2263 3.61988 6.54036
-26.207 3.65892 6.54129
-26.1875 3.69801 6.54229
-26.1678 3.73713 6.54322
-26.1478 3.77626 6.54404
-26.1279 3.81543 6.54488
-26.1078 3.85471 6.54577
-26.0878 3.89432 6.5473
-26.0671 3.93378 6.54807
-26.0463 3.97344 6.54898
-26.0252 4.01337 6.54995
-26.0011 4.05391 6.54823
-25.9714 4.0889 6.53698
-25.9612 4.13548 6.55169
-25.9398 4.17802 6.5547
-25.9174 4.22048 6.55691
-25.8937 4.26272 6.55801
-25.8701 4.3049 6.55905
-25.8465 4.34724 6.56032
-25.8226 4.3897 6.56153
-25.797 4.43134 6.56096
-25.7727 4.47365 6.56227
-25.7494 4.51654 6.56485
-25.7258 4.5594 6.56735
-25.7015 4.60206 6.56934
-25.6766 4.64443 6.57069
-25.6515 4.6869 6.57206
-25.6265 4.72952 6.57363
-25.6017 4.77239 6.57547
-25.5752 4.8145 6.57568
-25.5496 4.85728 6.57661
-25.5231 4.89958 6.57683
-25.4965 4.94191 6.57708
-25.4699 4.9842 6.57726
-25.4427 5.02619 6.57709
-25.4136 5.06671 6.57507
-25.385 5.10777 6.57368
-25.3563 5.14869 6.57248
-25.3278 5.18963 6.57147
-25.3002 5.23111 6.57119
-25.2733 5.27303 6.57145
-25.245 5.31452 6.57071
-25.2158 5.35506 6.56912
-25.1872 5.3945 6.56687
-25.1363 5.41832 6.54606
-25.1324 5.47531 6.56449
-25.105 5.51367 6.56326
-25.0774 5.55202 6.56227
-25.0503 5.59093 6.56177
-25.0253 5.63242 6.56355
-24.9952 5.67053 6.56088
-24.9658 5.70902 6.55901
-24.9369 5.74766 6.55759
-24.9079 5.78516 6.55572
-24.88 5.82323 6.55467
-24.8519 5.86104 6.55356
-24.8208 5.89631 6.5499
-24.7905 5.93225 6.54698
-24.7611 5.96896 6.5448
-24.7311 6.00502 6.54211
-24.7025 6.04244 6.54066
-24.6745 6.08022 6.53967
-24.6444 6.11629 6.53713
-24.6149 6.15287 6.53514
-24.5869 6.19053 6.53421
-24.5583 6.22775 6.53294
-24.5308 6.26576 6.53241
-24.5033 6.30378 6.53195
-24.4752 6.34123 6.53105
-24.4466 6.3783 6.52988
-24.418 6.41535 6.52873
-24.3902 6.45294 6.52814
-24.3623 6.49045 6.52751
-24.3342 6.52798 6.52694
-24.3066 6.56578 6.52665
-24.2795 6.60461 6.52677
-24.2714 6.65615 6.53966
-24.2238 6.67918 6.52713
-24.1945 6.71718 6.52652
-24.1684 6.75578 6.5271
-24.1419 6.79415 6.52748
-24.1161 6.83304 6.52828
-24.091 6.87238 6.52949
-24.0653 6.9113 6.53041
-24.0399 6.95047 6.53168
-24.0147 6.98961 6.53309
-23.9897 7.0288 6.53465
-23.9653 7.06829 6.53659
-23.9414 7.10804 6.53883
-23.9172 7.14758 6.54085
-23.8924 7.18672 6.54246
-23.8707 7.22777 6.54609
-23.8492 7.2687 6.54976
-23.8222 7.30633 6.5498
-23.7959 7.34452 6.55049
-23.7715 7.38367 6.55251
-23.7444 7.4211 6.55262
-23.7165 7.45815 6.55233
-23.6874 7.49432 6.55119
-23.6576 7.52996 6.54958
-23.6259 7.56368 6.54645
-23.5944 7.59735 6.54387
-23.5658 7.63307 6.54331
-23.5354 7.66756 6.54155
-23.5043 7.70153 6.53924
-23.4722 7.73535 6.53655
-23.4407 7.7698 6.53429
-23.4104 7.80556 6.53277
-23.4039 7.86276 6.54663
-23.3487 7.87849 6.52897
-23.3183 7.91542 6.52752
-23.2879 7.95237 6.52596
-23.2593 7.99053 6.5255
-23.232 8.02899 6.52587
-23.2044 8.06696 6.52598
-23.1768 8.10508 6.52616
-23.1499 8.14361 6.52677
-23.1226 8.18193 6.52727
-23.0953 8.22022 6.52783
-23.07 8.25978 6.52975
-23.0438 8.29879 6.53109
-23.0174 8.33773 6.53233
-22.9914 8.37695 6.53388
-22.966 8.41645 6.53576
-22.9406 8.456 6.53778
-22.9154 8.49551 6.5399
-22.8902 8.53497 6.54206
-22.8649 8.57437 6.54421
-22.8398 8.61381 6.54645
-22.8138 8.65288 6.54828
-22.788 8.69197 6.55019
-22.7632 8.73161 6.55274
-22.7384 8.77116 6.55531
-22.7126 8.80991 6.55719
-22.6865 8.84839 6.55887
-22.6604 8.88681 6.56053
-22.6339 8.92515 6.56219
-22.607 8.96361 6.56403
-22.5812 9.00275 6.56659
-22.5553 9.04182 6.56931
-22.5653 9.1039 6.59434
-22.5021 9.12124 6.57537
-22.4761 9.16123 6.57831
-22.4503 9.20122 6.58142
-22.4261 9.24223 6.58552
-22.4019 9.28264 6.58963
-22.3776 9.32276 6.59365
-22.354 9.36325 6.59809
-22.3312 9.40405 6.60293
-22.3085 9.44481 6.60774
-22.287 9.48607 6.61315
-22.2655 9.52729 6.61857
-22.244 9.56853 6.62405
-22.2225 9.60983 6.6296
-22.2008 9.65105 6.63512
-22.1793 9.69234 6.64077
-22.1579 9.7336 6.64645
-22.1363 9.77477 6.65213
-22.1148 9.81591 6.65784
-22.0939 9.85733 6.66393
-22.0729 9.89865 6.66998
-22.0517 9.93985 6.67592
-22.03 9.98083 6.68167
-22.0074 10.0213 6.68693
-21.9854 10.0621 6.69259
-21.9632 10.1029 6.69815
-21.941 10.1435 6.70373
-21.9188 10.1842 6.70927
-21.8962 10.2247 6.71481
-21.8765 10.2668 6.7227
-21.8562 10.3084 6.73006
-21.8307 10.348 6.73426
-21.7901 10.3788 6.72845
-21.7819 10.4266 6.74278
-21.7586 10.4671 6.74865
-21.7344 10.5066 6.75395
-21.7095 10.5456 6.75889
-21.6844 10.5847 6.76364
-21.6615 10.6248 6.76968
-21.6396 10.6653 6.77641
-21.615 10.7042 6.78121
-21.5878 10.7417 6.78447
-21.5627 10.7807 6.78915
-21.5393 10.8204 6.79468
-21.5153 10.8597 6.79975
-21.4891 10.8978 6.80353
-21.4628 10.9359 6.80731
-21.4366 10.974 6.81106
-21.4124 11.0133 6.81601
-21.3863 11.0514 6.81978
-21.3606 11.0898 6.82382
-21.3356 11.1286 6.82829
-21.3102 11.167 6.83243
-21.2832 11.2045 6.83548
-21.2559 11.2418 6.83836
-21.2283 11.279 6.84098
-21.1995 11.3152 6.84268
-21.1737 11.3535 6.84617
-21.1479 11.3918 6.84968
-21.1216 11.4297 6.85277
-21.0963 11.4684 6.8566
-21.0705 11.5068 6.86
-21.0447 11.5451 6.86338
-21.0177 11.5822 6.86682
-20.978 11.6126 6.86241
-20.9637 11.6581 6.87196
-20.9391 11.6981 6.87598
-20.9136 11.7376 6.87955
-20.8858 11.7755 6.88189
-20.8572 11.8123 6.88393
-20.8287 11.8489 6.88598
-20.8005 11.8859 6.88807
-20.7733 11.9237 6.89057
-20.7462 11.9616 6.89279
-20.7197 12 6.89528
-20.6928 12.0383 6.89742
-20.6645 12.0755 6.89883
-20.6335 12.1108 6.89902
-20.6029 12.1464 6.8994
-20.5755 12.1841 6.90137
-20.547 12.221 6.90285
-20.5189 12.2582 6.90463
-20.4912 12.2957 6.90664
-20.4632 12.333 6.90854
-20.4339 12.3692 6.9098
-20.4044 12.4053 6.91079
-20.3771 12.4431 6.91294
-20.3489 12.4802 6.91454
-20.3205 12.517 6.91601
-20.292 12.5539 6.91748
-20.2636 12.5908 6.91895
-20.2353 12.6278 6.92042
-20.2069 12.6648 6.92183
-20.1785 12.7018 6.92321
-20.1501 12.7387 6.92452
-20.1216 12.7757 6.92581
-20.1252 12.8368 6.94083
-20.065 12.8504 6.92767
-20.0369 12.8876 6.92865
-20.0086 12.9248 6.92967
-19.9803 12.9621 6.93067
-19.9524 12.9996 6.93182
-19.9246 13.0371 6.93298
-19.8965 13.0745 6.93402
-19.8683 13.1117 6.93502
-19.8407 13.1494 6.93645
-19.8136 13.1873 6.93814
-19.7857 13.2247 6.93944
-19.7578 13.2619 6.94067
-19.7303 13.2995 6.9421
-19.7029 13.3371 6.94351
-19.6755 13.3747 6.94495
-19.6503 13.4137 6.94743
-19.6256 13.4528 6.95014
-19.6009 13.4918 6.95282
-19.5766 13.5312 6.95573
-19.5528 13.5707 6.95882
-19.529 13.6104 6.96202
-19.5054 13.6501 6.96525
-19.4812 13.6896 6.96816
-19.457 13.7291 6.97097
-19.4327 13.7687 6.97359
-19.4079 13.8082 6.9759
-19.383 13.8475 6.97812
-19.359 13.8874 6.98076
-19.3352 13.9273 6.98335
-19.3112 13.9671 6.98575
-19.2868 14.0081 6.98848
-19.3166 14.0778 7.02185
-19.2396 14.0919 6.99531
-19.2174 14.1329 6.9987
-19.1948 14.174 7.00213
-19.1722 14.2151 7.00554
-19.1497 14.2563 7.00894
-19.1278 14.2978 7.0127
-19.1065 14.3397 7.01684
-19.0846 14.3814 7.02068
-19.0625 14.4228 7.0244
-19.0405 14.4643 7.02817
-19.0181 14.5056 7.03166
-18.9959 14.547 7.03525
-18.9736 14.5885 7.0388
-18.9514 14.63 7.0423
-18.9293 14.6715 7.0458
-18.907 14.713 7.04917
-18.8848 14.7545 7.0525
-18.8626 14.7961 7.05585
-18.8405 14.8377 7.05916
-18.8183 14.8793 7.06233
-18.7963 14.9211 7.06561
-18.7742 14.9628 7.06873
-18.7521 15.0045 7.0718
-18.7304 15.0465 7.07512
-18.7096 15.0888 7.07881
-18.6885 15.131 7.08226
-18.6668 15.173 7.08534
-18.6448 15.2149 7.08821
-18.6227 15.2568 7.09086
-18.6012 15.2991 7.09383
-18.5797 15.3414 7.09667
-18.5712 15.3899 7.10711
-18.5366 15.427 7.10305
-18.5168 15.4701 7.10641
-18.4968 15.5133 7.10968
-18.4762 15.5562 7.11257
-18.4542 15.5987 7.11474
-18.4324 15.6414 7.11698
-18.4112 15.6843 7.11942
-18.3892 15.7269 7.12136
-18.3673 15.7694 7.12323
-18.346 15.8122 7.12533
-18.3259 15.8555 7.12792
-18.3055 15.8986 7.13023
-18.2851 15.9417 7.13252
-18.2643 15.9846 7.13457
-18.243 16.0272 7.13612
-18.2216 16.0697 7.13758
-18.1995 16.1119 7.13857
-18.1779 16.1542 7.13975
-18.1583 16.1972 7.14187
-18.1388 16.2403 7.1439
-18.1189 16.283 7.14562
-18.0979 16.3252 7.14662
-18.0763 16.3669 7.14714
-18.0556 16.4089 7.14804
-18.0375 16.4521 7.15041
-18.0164 16.4939 7.15093
-17.9946 16.535 7.15069
-17.9732 16.5761 7.15061
-17.9533 16.6177 7.15124
-17.9333 16.6591 7.15168
-17.9129 16.7001 7.15185
-17.8855 16.7369 7.14716
-17.8713 16.7797 7.1507
-17.8527 16.8197 7.15107
-17.8351 16.8602 7.152
-17.8153 16.8993 7.15112
-17.795 16.9378 7.14964
-17.7752 16.9763 7.14837
-17.7571 17.0153 7.14796
-17.7387 17.0541 7.14725
-17.7194 17.0924 7.14583
-17.6999 17.1304 7.14412
-17.6803 17.1684 7.14233
-17.6616 17.2067 7.14094
-17.6452 17.2459 7.14101
-17.6277 17.2847 7.1403
-17.6079 17.3221 7.13781
-17.5879 17.3596 7.13523
-17.5692 17.3979 7.13372
-17.5518 17.4368 7.13299
-17.5328 17.475 7.13126
-17.5133 17.513 7.12912
-17.4933 17.5505 7.12633
-17.4732 17.588 7.12337
-17.4595 17.6283 7.12418
-17.44 17.667 7.1215
-17.4182 17.703 7.1168
-17.3967 17.7393 7.11222
-17.3765 17.7767 7.10839
-17.3566 17.814 7.1044
-17.3382 17.8509 7.10077
-17.3221 17.8888 7.09813
-17.3056 17.9305 7.09199
-17.2337 17.9413 7.05719
-17.2603 18.0131 7.076
-17.238 18.0521 7.06917
-17.2147 18.0911 7.06193
-17.1918 18.1308 7.0547
-17.1687 18.1705 7.04782
-17.1454 18.2103 7.0409
-17.1208 18.2494 7.03328
-17.0962 18.2886 7.02558
-17.0719 18.3276 7.01781
-17.0475 18.3664 7.00989
-17.0217 18.4043 7.0012
-16.9957 18.4423 6.99233
-16.9696 18.4804 6.98337
-16.9432 18.5186 6.97414
-16.9164 18.5565 6.96447
-16.8896 18.5948 6.95455
-16.8642 18.6347 6.94487
-16.8358 18.6725 6.93339
-16.8051 18.7078 6.92056
-16.7753 18.744 6.90816
-16.7465 18.7813 6.89648
-16.7183 18.8193 6.88516
-16.689 18.8568 6.87334
-16.6568 18.8919 6.86025
-16.624 18.9275 6.84653
-16.5904 18.9628 6.83262
-16.5576 18.9988 6.8197
-16.5235 19.0336 6.80635
-16.4878 19.0674 6.79175
-16.4518 19.1012 6.7774
-16.4147 19.1347 6.76301
-16.3145 19.0875 6.72577
-16.3399 19.2007 6.73752
-16.3012 19.2343 6.72528
-16.2636 19.2667 6.71303
-16.2252 19.2974 6.70083
-16.1857 19.3254 6.68851
-16.1467 19.3539 6.67671
-16.1082 19.3834 6.66541
-16.0696 19.4125 6.65396
-16.0312 19.4418 6.64207
-15.9931 19.4711 6.63004
-15.9527 19.4962 6.61675
-15.9123 19.5213 6.60343
-15.8715 19.5464 6.59014
-15.8307 19.5716 6.57681
-15.7898 19.5968 6.56338
-15.7491 19.6226 6.54995
-15.7093 19.6499 6.53684
-15.6686 19.6755 6.52305
-15.6271 19.7 6.50876
-15.5843 19.7212 6.49343
-15.5433 19.7457 6.47906
-15.5024 19.7702 6.4646
-15.4612 19.7937 6.44976
-15.42 19.817 6.43477
-15.379 19.841 6.42007
-15.3378 19.8641 6.40498
-15.2967 19.8865 6.38958
-15.2559 19.9087 6.37407
-15.2151 19.9301 6.35817
-15.1748 19.9512 6.3421
-15.1357 19.973 6.32632
-15.0931 19.9837 6.3063
-15.0602 20.0149 6.29385
-15.0244 20.0351 6.27721
-14.9896 20.0563 6.26067
-14.9549 20.0766 6.24366
-14.9208 20.097 6.22669
-14.8869 20.1173 6.20961
-14.8537 20.1381 6.19266
-14.8207 20.159 6.17563
-14.7877 20.18 6.15847
-14.7548 20.2009 6.1412
-14.7224 20.2227 6.12419
-14.6901 20.2446 6.10717
-14.658 20.2666 6.09011
-14.626 20.2885 6.07291
-14.5937 20.3099 6.05551
-14.5618 20.3319 6.03835
-14.5298 20.3539 6.02127
-14.4975 20.3754 6.00398
-14.4652 20.397 5.98665
-14.4326 20.4185 5.96915
-14.3998 20.44 5.9515
-14.3666 20.461 5.93345
-14.3333 20.4825 5.91547
-14.2995 20.5033 5.89709
-14.2652 20.5231 5.87819
-14.2306 20.5426 5.85904
-14.1957 20.5629 5.83987
-14.1604 20.5834 5.82057
-14.1242 20.6038 5.80109
-14.0874 20.6245 5.78144
-14.0502 20.6464 5.76179
-14.0213 20.6928 5.75001
-13.9713 20.6934 5.72091
-13.9306 20.7188 5.69991
-13.8896 20.745 5.67912
-13.8483 20.772 5.65824
-13.8066 20.7993 5.6373
-13.7645 20.8268 5.61625
-13.7222 20.855 5.59532
-13.6798 20.8836 5.57441
-13.6374 20.9121 5.55348
-13.5944 20.9399 5.53229
-13.551 20.9673 5.51101
-13.5074 20.9948 5.48979
-13.464 21.023 5.46888
-13.4207 21.0518 5.44829
-13.3771 21.0803 5.4277
-13.3351 21.1119 5.40837
-13.2924 21.1424 5.38892
-13.2495 21.1725 5.36967
-13.2068 21.2029 5.35073
-13.164 21.233 5.33202
-13.1224 21.2648 5.31406
-13.0822 21.2985 5.29691
-13.0422 21.3324 5.28017
-13.0024 21.3666 5.26386
-12.961 21.3987 5.2474
-12.9217 21.4336 5.23194
-12.8828 21.4683 5.21691
-12.8439 21.5024 5.20229
-12.8051 21.5364 5.18818
-12.7672 21.5707 5.17478
-12.7296 21.6046 5.16215
-12.7146 21.6629 5.15475
-12.6582 21.67 5.13938
-12.6241 21.7011 5.12912
-12.5906 21.7317 5.11946
-12.5575 21.7618 5.11032
-12.5244 21.7914 5.10159
-12.4919 21.821 5.09336
-12.4597 21.8503 5.0856
-12.4277 21.8793 5.07825
-12.3956 21.9081 5.07121
-12.3634 21.9364 5.06449
-12.3315 21.9647 5.05817
-12.3 21.9931 5.05223
-12.2686 22.0214 5.04665
-12.2371 22.0495 5.04137
-12.2054 22.077 5.03632
-12.1736 22.1044 5.03152
-12.1417 22.1317 5.02688
-12.1097 22.159 5.02246
-12.0778 22.1865 5.0183
-12.0461 22.2141 5.0144
-12.014 22.2413 5.01067
-11.9818 22.2685 5.00717
-11.9497 22.2957 5.00391
-11.9175 22.323 5.00088
-11.8852 22.35 4.99806
-11.8529 22.3771 4.99547
-11.8206 22.4044 4.99317
-11.7881 22.4316 4.99102
-11.7553 22.4589 4.98896
-11.722 22.4863 4.98696
-11.6885 22.5138 4.98504
-11.618 22.497 4.97867
-11.6201 22.5698 4.98066
-11.5849 22.599 4.97887
-11.5496 22.628 4.97679
-11.5139 22.6567 4.97477
-11.478 22.6851 4.97292
-11.4418 22.7134 4.97118
-11.4052 22.7414 4.9695
-11.3684 22.7692 4.96795
-11.3315 22.7969 4.96665
-11.2941 22.8239 4.96547
-11.2565 22.8507 4.96444
-11.2188 22.8775 4.96358
-11.1807 22.9041 4.96287
-11.142 22.9298 4.96223
-11.1033 22.9556 4.96173
-11.0645 22.9812 4.96135
-11.0258 23.0066 4.961
-10.9872 23.0319 4.96079
-10.9484 23.0571 4.96073
-10.9093 23.0818 4.9608
-10.8697 23.1058 4.96104
-10.8299 23.1297 4.96149
-10.7901 23.1538 4.96217
-10.7502 23.178 4.96312
-10.7098 23.2023 4.96433
-10.6684 23.2252 4.9657
-10.6268 23.2482 4.96735
-10.5849 23.2712 4.96921
-10.5422 23.294 4.97104
-10.4991 23.3167 4.9732
-10.4555 23.3392 4.97545
-10.3731 23.2882 4.97146
-10.368 23.3854 4.98355
-10.3226 23.4082 4.98862
-10.2784 23.4307 4.99175
-10.2335 23.4524 4.99481
-10.1887 23.4739 4.99916
-10.144 23.4953 5.00403
-10.0991 23.5167 5.00899
-10.0542 23.5378 5.01414
-10.009 23.5579 5.01938
-9.96339 23.5771 5.02472
-9.91783 23.5964 5.03025
-9.87249 23.616 5.03603
-9.82743 23.6363 5.04208
-9.78172 23.655 5.0481
-9.73572 23.6728 5.0542
-9.68958 23.6902 5.06035
-9.64318 23.7069 5.06648
-9.59641 23.7225 5.07254
-9.54969 23.7381 5.07868
-9.50309 23.7536 5.08488
-9.45663 23.769 5.0911
-9.41022 23.784 5.09734
-9.3638 23.7987 5.10356
-9.31731 23.813 5.10978
-9.27072 23.8274 5.11608
-9.2244 23.8423 5.1224
-9.17839 23.8569 5.12865
-9.13222 23.8701 5.13463
-9.08593 23.8822 5.1403
-9.03994 23.8942 5.14573
-8.99318 23.9048 5.15078
-8.93705 23.8716 5.15243
-8.90258 23.925 5.16021
-8.85882 23.9348 5.16427
-8.81594 23.9436 5.16806
-8.77355 23.9524 5.17168
-8.73144 23.9611 5.1752
-8.68952 23.9692 5.17857
-8.64784 23.9768 5.1818
-8.60635 23.9842 5.18496
-8.56505 23.9915 5.1882
-8.52394 23.9988 5.19144
-8.48303 24.0063 5.19466
-8.44226 24.0137 5.19786
-8.40163 24.0211 5.20102
-8.36109 24.0285 5.20417
-8.3206 24.0358 5.20731
-8.28006 24.043 5.21044
-8.23943 24.0504 5.2136
-8.19874 24.0578 5.21677
-8.15805 24.0652 5.21998
-8.11739 24.0728 5.22324
-8.07678 24.0804 5.22656
-8.03612 24.0878 5.22992
-7.99554 24.0954 5.23337
-7.95499 24.1031 5.23689
-7.91448 24.1108 5.24044
-7.87399 24.1184 5.24409
-7.8335 24.1262 5.24786
-7.79301 24.134 5.25176
-7.75248 24.1418 5.2558
-7.71191 24.1496 5.26001
-7.67128 24.1573 5.26444
-7.63053 24.1649 5.26913
-7.58972 24.1726 5.27428
-7.5488 24.1802 5.27971
-7.5078 24.1878 5.28535
-7.46671 24.1954 5.29116
-7.42555 24.203 5.29709
-7.38426 24.2104 5.30311
-7.34284 24.2176 5.30922
-7.30132 24.2249 5.31541
-7.25969 24.2322 5.32161
-7.218 24.2397 5.32789
-7.1762 24.2473 5.3342
-7.13425 24.2546 5.34053
-7.09225 24.2623 5.34694
-7.05015 24.27 5.35338
-7.00802 24.2781 5.35987
-6.96596 24.2868 5.36642
-6.9239 24.2955 5.37299
-6.88149 24.303 5.37941
-6.83925 24.3118 5.38593
-6.79685 24.3208 5.39241
-6.75424 24.3298 5.39884
-6.71144 24.3388 5.40522
-6.66827 24.3471 5.41151
-6.62508 24.3563 5.41776
-6.58171 24.3655 5.42399
-6.53809 24.3748 5.43013
-6.49418 24.3842 5.43616
-6.44997 24.3938 5.44205
-6.40545 24.4034 5.44779
-6.36052 24.4131 5.45334
-6.31511 24.423 5.45865
-6.26832 24.4295 5.46364
-6.22235 24.444 5.46822
-6.17494 24.4554 5.47244
-6.12669 24.4651 5.47642
-6.07772 24.4732 5.48016
-6.02852 24.4809 5.48372
-5.97885 24.4873 5.4871
-5.9289 24.4941 5.49036
-5.87874 24.501 5.49351
-5.82848 24.5081 5.49659
-5.77814 24.5157 5.49962
-5.7277 24.5238 5.5026
-5.6771 24.5319 5.50551
-5.62651 24.541 5.50841
-5.57581 24.5503 5.51128
-5.52501 24.5597 5.51411
-5.47415 24.569 5.51692
-5.42359 24.58 5.51981
-5.37297 24.591 5.52271
-5.32217 24.6013 5.52557
-5.27135 24.6116 5.52844
-5.22065 24.6227 5.53134
-5.16993 24.6337 5.53425
-5.11913 24.6444 5.53716
-5.0685 24.6559 5.54008
-5.01787 24.6676 5.54298
-4.96733 24.6795 5.54591
-4.91694 24.6917 5.54889
-4.86652 24.7034 5.55191
-4.81629 24.7155 5.55499
-4.76626 24.7278 5.55816
-4.7163 24.7398 5.56139
-4.66484 24.7442 5.56479
-4.6173 24.7634 5.56843
-4.56827 24.7753 5.57226
-4.51942 24.787 5.57619
-4.47066 24.7984 5.58022
-4.42207 24.8098 5.58432
-4.37364 24.8212 5.58849
-4.32532 24.8325 5.5927
-4.2772 24.844 5.59693
-4.22913 24.8552 5.60116
-4.18114 24.8663 5.60539
-4.13314 24.8767 5.60965
-4.08515 24.8868 5.61393
-4.03725 24.8968 5.61821
-3.9892 24.9056 5.62254
-3.94118 24.9143 5.62686
-3.89317 24.923 5.63118
-3.84494 24.9308 5.63551
-3.79659 24.9379 5.63983
-3.74827 24.945 5.64415
-3.70002 24.9521 5.64844
-3.6518 24.9585 5.6527
-3.60355 24.9641 5.65693
-3.55534 24.9697 5.66111
-3.50717 24.9753 5.66527
-3.45897 24.9805 5.6694
-3.4107 24.9847 5.67347
-3.3625 24.9889 5.67747
-3.31429 24.993 5.68139
-3.26593 24.9971 5.68526
-3.21746 25.0002 5.689
-3.16877 25.0029 5.6923
-3.11682 24.9481 5.69568
-3.07012 25.0084 5.69842
-3.02227 25.0097 5.70134
-2.97459 25.0108 5.70416
-2.92705 25.0117 5.70684
-2.87976 25.0126 5.70957
-2.83261 25.0122 5.71226
-2.78551 25.0115 5.71485
-2.73856 25.0105 5.71737
-2.69184 25.0096 5.71984
-2.64531 25.0075 5.72227
-2.59894 25.0045 5.72464
-2.5526 25.0017 5.72692
-2.50624 24.999 5.72911
-2.45997 24.9957 5.73121
-2.41392 24.9909 5.73325
-2.36793 24.9861 5.7352
-2.32199 24.9818 5.73704
-2.27612 24.9776 5.73879
-2.23041 24.9723 5.74045
-2.18478 24.967 5.74204
-2.13922 24.962 5.74354
-2.0937 24.9572 5.74496
-2.0482 24.9528 5.7463
-2.00268 24.9487 5.74756
-1.95711 24.9445 5.74871
-1.91151 24.941 5.74978
-1.86599 24.9377 5.75077
-1.82047 24.9357 5.75169
-1.77501 24.9337 5.75248
-1.72965 24.9319 5.75319
-1.68442 24.9302 5.7538
-1.63867 24.9454 5.75481
-1.59365 24.9308 5.75494
-1.54912 24.9314 5.75541
-1.5046 24.9315 5.75568
-1.46021 24.9317 5.75585
-1.41593 24.9326 5.75594
-1.37173 24.9335 5.75594
-1.32756 24.9344 5.75584
-1.28341 24.9353 5.75566
-1.23919 24.935 5.75536
-1.19495 24.9343 5.75497
-1.15071 24.9336 5.7545
-1.10647 24.9333 5.75394
-1.06221 24.9325 5.75328
-1.01806 24.9297 5.7525
-0.973896 24.9268 5.75165
-0.929721 24.9242 5.75075
-0.885566 24.9218 5.74982
-0.841452 24.9186 5.74881
-0.797341 24.915 5.74771
-0.753178 24.9113 5.74653
-0.70896 24.9071 5.74523
-0.664652 24.9032 5.74385
-0.620175 24.9007 5.7424
-0.57561 24.8982 5.74086
-0.531012 24.8948 5.73926
-0.486323 24.8911 5.73755
-0.441348 24.8891 5.73572
-0.396192 24.8881 5.73378
-0.35096 24.8865 5.73175
-0.305552 24.8842 5.7296
-0.259895 24.882 5.72729
-0.213356 24.8897 5.72447
-0.166732 24.8812 5.72184
-0.119757 24.8809 5.71868
-0.072517 24.8805 5.71535
-0.0250544 24.8802 5.71189
0.0225716 24.8802 5.70832
0.0703581 24.8805 5.70464
0.118299 24.8807 5.70088
0.166348 24.8809 5.69705
0.214451 24.8807 5.69319
0.262628 24.8804 5.68931
0.310887 24.8801 5.68537
0.359219 24.8798 5.68141
0.407632 24.8791 5.6774
0.456084 24.8776 5.67341
0.504576 24.8761 5.66941
0.553091 24.8746 5.6654
0.601604 24.8731 5.6614
0.650111 24.8713 5.65745
0.698584 24.8682 5.65358
0.747053 24.8649 5.64975
0.7955 24.8614 5.64593
0.843969 24.8584 5.64211
0.892429 24.8554 5.63831
0.940887 24.8524 5.63452
0.989344 24.8493 5.6307
1.03777 24.8462 5.62691
1.08615 24.843 5.62316
1.13445 24.8397 5.61949
1.18269 24.8364 5.6159
1.23083 24.833 5.61239
1.27886 24.8296 5.60898
1.3261 24.8158 5.607
1.37448 24.8223 5.6027
1.4219 24.8185 5.59987
1.4692 24.8146 5.59715
1.51639 24.8109 5.59453
1.56345 24.8066 5.59206
1.61041 24.8021 5.58971
1.65729 24.7976 5.58747
1.70411 24.7933 5.5853
1.75084 24.7887 5.58328
1.79744 24.7835 5.58142
1.84397 24.7784 5.57964
1.89049 24.7736 5.5779
1.93699 24.769 5.57625
1.98322 24.7628 5.57482
2.02939 24.7566 5.57343
2.07557 24.7507 5.572
2.12191 24.7464 5.57036
2.16807 24.7408 5.56878
2.21413 24.7349 5.56727
2.26011 24.729 5.56587
2.30623 24.7254 5.56458
2.35226 24.7213 5.5634
2.39817 24.7166 5.56233
2.44404 24.712 5.56135
2.49005 24.7086 5.5604
2.53599 24.7049 5.55957
2.5818 24.701 5.55894
2.62757 24.6979 5.55855
2.67324 24.6961 5.55841
2.71881 24.6938 5.55852
2.7642 24.6912 5.55893
2.81047 24.7051 5.561
2.85514 24.6863 5.56104
2.90014 24.6848 5.56328
2.94496 24.6835 5.56582
2.98966 24.6821 5.56864
3.03427 24.6807 5.57162
3.0788 24.6792 5.57478
3.12324 24.6782 5.57812
3.1676 24.677 5.58153
3.21191 24.6757 5.58492
3.25615 24.6743 5.58832
3.3003 24.6724 5.59174
3.3444 24.6705 5.59519
3.38843 24.6686 5.5987
3.43241 24.6667 5.60223
3.47635 24.6648 5.60575
3.52027 24.6629 5.60927
3.56417 24.6603 5.61274
3.60804 24.6573 5.61613
3.65189 24.6544 5.61946
3.6957 24.6515 5.62268
3.73946 24.6487 5.62575
3.78316 24.6453 5.62867
3.8268 24.6418 5.63142
3.87039 24.6383 5.63402
3.91395 24.6348 5.6365
3.95748 24.6315 5.63877
4.00096 24.6282 5.64076
4.04437 24.6249 5.64244
4.08766 24.6216 5.64382
4.13091 24.6183 5.64478
4.1742 24.616 5.64517
4.21693 24.6053 5.64514
4.26044 24.611 5.64381
4.30339 24.6085 5.64208
4.34633 24.6064 5.63987
4.38923 24.6045 5.63721
4.43215 24.6026 5.63427
4.47506 24.6008 5.63102
4.51795 24.5991 5.62747
4.56084 24.5974 5.62368
4.60376 24.5958 5.61972
4.64668 24.5942 5.61555
4.68961 24.5926 5.6112
4.73254 24.5903 5.60667
4.77546 24.5874 5.60198
4.81842 24.5846 5.59713
4.86142 24.5817 5.59216
4.90444 24.5786 5.58712
4.94742 24.5746 5.5821
4.99038 24.5696 5.57706
5.03343 24.5647 5.57193
5.07661 24.5599 5.56672
5.11993 24.5556 5.5614
5.1632 24.5494 5.55607
5.20655 24.5427 5.55069
5.25009 24.536 5.54525
5.29378 24.5293 5.53975
5.33769 24.5223 5.5342
5.38177 24.5144 5.52861
5.42632 24.5066 5.52301
5.47161 24.4989 5.51744
5.51717 24.4905 5.51188
5.56326 24.4814 5.50636
5.59755 24.407 5.50249
5.65859 24.4609 5.49388
5.70713 24.4508 5.48832
5.75592 24.4402 5.48294
5.80468 24.4278 5.47761
5.85293 24.415 5.4727
5.90117 24.4019 5.46798
5.94976 24.3888 5.46338
5.99832 24.3753 5.45872
6.04672 24.3617 5.45368
6.09513 24.348 5.44848
6.14345 24.3338 5.44327
6.19172 24.3191 5.43807
6.24001 24.3039 5.43297
6.28842 24.2888 5.42785
6.33652 24.2728 5.42275
6.38448 24.2563 5.41763
6.43168 24.2378 5.41251
6.47876 24.219 5.40734
6.52584 24.2002 5.40214
6.57295 24.1817 5.39691
6.61994 24.1632 5.39166
6.66687 24.1448 5.3864
6.71378 24.1264 5.38113
6.76052 24.1076 5.3759
6.80743 24.0886 5.3707
6.85393 24.0688 5.36557
6.89966 24.0478 5.36057
6.94527 24.0269 5.35549
6.99091 24.0059 5.35006
7.03601 23.9848 5.34476
7.0804 23.963 5.33949
7.10224 23.8955 5.3384
7.16747 23.9206 5.3289
7.21022 23.8998 5.32377
7.25168 23.8787 5.31931
7.29238 23.857 5.315
7.33256 23.8355 5.31068
7.37237 23.8142 5.3064
7.4112 23.7915 5.30238
7.44972 23.7687 5.29841
7.48805 23.7461 5.29439
7.5264 23.7238 5.29035
7.56471 23.7017 5.28633
7.60295 23.6798 5.28234
7.64101 23.6577 5.27844
7.67881 23.6353 5.2746
7.71658 23.6129 5.27077
7.75461 23.5909 5.26686
7.79249 23.5684 5.26288
7.83035 23.5458 5.25888
7.868 23.5228 5.25493
7.90613 23.5004 5.251
7.94471 23.4787 5.24713
7.98334 23.457 5.24332
8.02245 23.4359 5.23955
8.06207 23.4159 5.23584
8.10172 23.3964 5.23221
8.14096 23.3759 5.22864
8.18014 23.3551 5.22518
8.21987 23.334 5.22169
8.26201 23.3146 5.21798
8.30573 23.2963 5.21427
8.3493 23.2777 5.20975
8.41922 23.316 5.20978
8.44387 23.2391 5.20187
8.49057 23.2222 5.19965
8.53768 23.2052 5.19759
8.5852 23.1883 5.19574
8.63299 23.1713 5.19389
8.68097 23.1543 5.19213
8.7298 23.1393 5.19066
8.77877 23.1247 5.18932
8.82747 23.1101 5.18805
8.87637 23.0964 5.18691
8.92553 23.0837 5.18592
8.97467 23.0708 5.18494
9.02415 23.0589 5.18409
9.07366 23.0469 5.18326
9.12302 23.0347 5.18243
9.17274 23.0242 5.18168
9.22237 23.0142 5.18085
9.27181 23.0039 5.17999
9.32097 22.9932 5.17911
9.37005 22.9832 5.17827
9.41889 22.9733 5.17746
9.46747 22.9635 5.17668
9.51568 22.9532 5.17591
9.56394 22.9442 5.17521
9.61219 22.9358 5.1746
9.66014 22.9273 5.17404
9.70753 22.9186 5.17351
9.75447 22.9105 5.17301
9.80098 22.9029 5.17252
9.84672 22.8956 5.17207
9.89169 22.8888 5.17167
9.93666 22.8912 5.17149
9.97718 22.8766 5.17098
10.0176 22.8709 5.17069
10.0572 22.8651 5.17046
10.096 22.8594 5.17024
10.1343 22.8538 5.17002
10.172 22.848 5.16978
10.2093 22.8421 5.16951
10.2463 22.8362 5.16919
10.2833 22.8303 5.16879
10.3201 22.8245 5.16834
10.3567 22.8181 5.16783
10.3931 22.8116 5.16726
10.4293 22.8051 5.16665
10.4653 22.7987 5.16599
10.5014 22.7925 5.16532
10.5373 22.786 5.16463
10.573 22.7786 5.16396
10.6086 22.7713 5.16327
10.6444 22.7639 5.16251
10.6805 22.7568 5.16166
10.7169 22.7498 5.16067
10.7536 22.7425 5.15952
10.7905 22.7349 5.15823
10.8277 22.7273 5.15681
10.8651 22.7197 5.15531
10.9029 22.7121 5.15365
10.9415 22.7045 5.15173
10.9808 22.6968 5.14954
11.0211 22.6888 5.14706
11.0625 22.6805 5.14418
11.1052 22.6714 5.14079
11.1391 22.6116 5.13353
11.1997 22.649 5.13234
11.2485 22.6364 5.12628
11.2987 22.6237 5.11986
11.3496 22.6103 5.11307
11.4012 22.5963 5.10637
11.4535 22.5821 5.09952
11.5063 22.5677 5.09241
11.5591 22.5518 5.08508
11.6119 22.5357 5.07768
11.6649 22.5197 5.0702
11.718 22.5031 5.06263
11.7709 22.4852 5.05494
11.8241 22.4669 5.04717
11.8763 22.4456 5.03924
11.9285 22.4243 5.03133
11.9803 22.402 5.02344
12.0314 22.3787 5.0156
12.0824 22.3555 5.00787
12.1332 22.3321 5.00025
12.1838 22.3087 4.99276
12.2341 22.2847 4.98545
12.283 22.2587 4.97812
12.3318 22.2329 4.97099
12.3805 22.207 4.96404
12.4287 22.1806 4.95714
12.4763 22.1534 4.9504
12.5241 22.1274 4.94409
12.5716 22.1019 4.93814
12.6188 22.0764 4.93247
12.6645 22.0501 4.92718
12.7093 22.0242 4.9224
12.7355 21.9691 4.91601
12.7946 21.9728 4.91648
12.8341 21.9483 4.91409
12.8729 21.9245 4.9123
12.9111 21.9016 4.91105
12.9489 21.8788 4.91022
12.9861 21.8562 4.90979
13.0224 21.8331 4.90966
13.0579 21.8096 4.90976
13.093 21.7861 4.9101
13.1279 21.7626 4.9107
13.1625 21.7393 4.91159
13.1968 21.7161 4.91276
13.2309 21.6929 4.91421
13.2647 21.6697 4.91588
13.2983 21.6463 4.91776
13.3315 21.6222 4.91969
13.3646 21.598 4.92173
13.3978 21.5736 4.92392
13.4312 21.5495 4.92633
13.465 21.5259 4.92899
13.4985 21.5018 4.93175
13.5321 21.4776 4.93468
13.5654 21.4529 4.93773
13.598 21.4272 4.94078
13.6305 21.4014 4.94405
13.6629 21.3752 4.94746
13.6955 21.3488 4.95099
13.7283 21.3223 4.95467
13.7613 21.2956 4.95846
13.7946 21.2686 4.96234
13.8281 21.2408 4.96629
13.8518 21.1998 4.96726
13.8966 21.1833 4.97387
13.9319 21.154 4.97755
13.9676 21.1245 4.98131
14.0037 21.0946 4.98512
14.04 21.0645 4.98903
14.0765 21.0342 4.99304
14.1132 21.0037 4.99715
14.1501 20.9731 5.00141
14.1874 20.9429 5.00592
14.2245 20.912 5.01047
14.2616 20.8812 5.01516
14.2991 20.8504 5.02004
14.3364 20.8193 5.02501
14.3736 20.7878 5.03005
14.411 20.7565 5.03529
14.4487 20.7255 5.04072
14.4858 20.6938 5.04616
14.5225 20.6618 5.05166
14.5592 20.6297 5.05731
14.596 20.5977 5.06315
14.6328 20.5657 5.06915
14.6695 20.5336 5.07531
14.706 20.5014 5.0816
14.7425 20.4691 5.08806
14.7789 20.4366 5.09469
14.8148 20.4035 5.10137
14.8502 20.3701 5.10816
14.8855 20.3366 5.11513
14.9207 20.3032 5.12228
14.9558 20.2699 5.12965
14.9906 20.2365 5.13723
15.015 20.1921 5.14248
15.0593 20.1701 5.1531
15.0931 20.1371 5.16144
15.1265 20.104 5.16993
15.1596 20.071 5.17863
15.1926 20.0381 5.1875
15.2255 20.0052 5.19654
15.2581 19.9722 5.20571
15.2904 19.9391 5.21501
15.3226 19.906 5.22444
15.3547 19.8729 5.23402
15.3868 19.8399 5.24373
15.4187 19.8069 5.25356
15.4505 19.7739 5.26351
15.4822 19.741 5.27358
15.5139 19.7079 5.28374
15.5458 19.6752 5.29405
15.5778 19.6426 5.30445
15.6098 19.6099 5.31492
15.6417 19.5772 5.32547
15.6738 19.5447 5.33615
15.7057 19.5122 5.34691
15.7377 19.4798 5.35776
15.7695 19.4475 5.3687
15.8014 19.4152 5.37973
15.8339 19.3837 5.39098
15.8661 19.3519 5.40228
15.8985 19.3206 5.41374
15.9314 19.29 5.42538
15.9642 19.2594 5.43709
15.997 19.2288 5.4489
16.0296 19.1984 5.46079
16.0695 19.1766 5.47406
16.0947 19.1383 5.48446
16.1263 19.1076 5.4966
16.1578 19.077 5.50881
16.1892 19.0465 5.52109
16.2206 19.016 5.53341
16.2519 18.9855 5.54576
16.2829 18.9549 5.55808
16.3132 18.9234 5.57023
16.3432 18.8918 5.58231
16.3732 18.8601 5.59436
16.4031 18.8284 5.60639
16.4332 18.7969 5.61848
16.4633 18.7656 5.63055
16.4933 18.7342 5.64259
16.5249 18.7045 5.655
16.5572 18.6754 5.66755
16.5896 18.6467 5.68019
16.622 18.6179 5.69281
16.6545 18.5891 5.70535
16.6882 18.5617 5.71812
16.7226 18.5352 5.73098
16.7572 18.5087 5.74374
16.7918 18.4822 5.75638
16.8268 18.456 5.76896
16.8625 18.4309 5.7816
16.8984 18.4057 5.79409
16.9344 18.3804 5.8064
16.9704 18.3547 5.81848
17.0068 18.3293 5.83041
17.0437 18.3042 5.84214
17.0803 18.2783 5.85348
17.1187 18.2541 5.86467
17.1539 18.2243 5.8747
17.1916 18.1973 5.8847
17.2299 18.1709 5.89436
17.2683 18.1442 5.90371
17.3068 18.1171 5.91281
17.345 18.0896 5.92165
17.3833 18.0617 5.93024
17.4216 18.0338 5.93865
17.4601 18.006 5.94692
17.4987 17.9783 5.95503
17.5371 17.9502 5.96295
17.5754 17.9219 5.9707
17.6139 17.8936 5.97828
17.6517 17.8642 5.98565
17.6888 17.834 5.99285
17.7261 17.8037 5.99994
17.7632 17.7733 6.00696
17.8 17.7424 6.01385
17.8366 17.7112 6.02061
17.873 17.6797 6.02724
17.9095 17.6482 6.03373
17.9456 17.6164 6.04006
17.9816 17.5846 6.04627
18.0172 17.5522 6.0523
18.0519 17.5192 6.05808
18.0873 17.4872 6.0638
18.1227 17.4552 6.06935
18.1582 17.423 6.07496
18.1935 17.3899 6.08081
18.2282 17.3559 6.08683
18.2625 17.3215 6.09256
18.2598 17.2489 6.09266
18.3331 17.253 6.10802
18.3665 17.2181 6.1124
18.4003 17.1834 6.11673
18.4344 17.1494 6.12102
18.4694 17.1158 6.12546
18.5038 17.0819 6.12972
18.5378 17.0478 6.13372
18.5682 17.0112 6.13712
18.5938 16.9718 6.13967
18.6193 16.9328 6.14226
18.6491 16.8975 6.14581
18.6803 16.8637 6.14966
18.7095 16.8285 6.15301
18.7383 16.7931 6.15614
18.7668 16.7574 6.15894
18.7951 16.7214 6.16146
18.8233 16.6846 6.16358
18.8515 16.6476 6.16548
18.8807 16.6113 6.16742
18.9098 16.5749 6.16917
18.9367 16.5368 6.1702
18.9624 16.4977 6.17085
18.9883 16.4587 6.1715
19.0154 16.4206 6.1726
19.0434 16.3833 6.17443
19.0717 16.3461 6.17639
19.1004 16.3095 6.17829
19.1279 16.2718 6.17975
19.1554 16.2337 6.18105
19.1813 16.1945 6.18169
19.2072 16.1542 6.17969
19.2106 16.1013 6.17374
19.2585 16.079 6.1811
19.2853 16.0399 6.18305
19.3118 16.0017 6.18352
19.3382 15.9636 6.18396
19.3641 15.9253 6.18431
19.3891 15.8864 6.18431
19.4134 15.8468 6.184
19.4399 15.8088 6.18433
19.4664 15.7709 6.18495
19.4909 15.7316 6.18512
19.5149 15.6921 6.18514
19.5388 15.6525 6.18511
19.5618 15.6122 6.18478
19.5871 15.5733 6.18504
19.6124 15.5344 6.18527
19.6377 15.4955 6.18544
19.6617 15.4556 6.18514
19.6857 15.4158 6.18476
19.7097 15.376 6.18435
19.7328 15.3356 6.1837
19.755 15.2947 6.18283
19.7764 15.2534 6.18178
19.7975 15.2118 6.18064
19.8186 15.1703 6.17948
19.8397 15.1287 6.17832
19.8609 15.0872 6.17716
19.8825 15.0459 6.17603
19.9035 15.0043 6.17479
19.9245 14.9626 6.17353
19.9453 14.9209 6.17224
19.9662 14.8792 6.17096
19.9806 14.8344 6.16849
20.0078 14.796 6.16844
20.0285 14.7545 6.16721
20.0493 14.713 6.16597
20.0707 14.6718 6.16487
20.0928 14.6309 6.1639
20.1139 14.5895 6.1627
20.1344 14.5479 6.1614
20.1542 14.506 6.15994
20.1734 14.4638 6.1584
20.1929 14.4219 6.15694
20.2124 14.38 6.15549
20.232 14.3381 6.15405
20.2528 14.2968 6.15289
20.2739 14.2555 6.15177
20.2949 14.2142 6.15058
20.3152 14.1725 6.14917
20.3354 14.1306 6.14767
20.3556 14.0886 6.14615
20.376 14.0467 6.14464
20.3974 14.0053 6.14341
20.4187 13.9639 6.14218
20.4403 13.9226 6.141
20.4622 13.8815 6.13992
20.4851 13.8409 6.13909
20.5079 13.8003 6.13821
20.5304 13.7595 6.13716
20.5532 13.719 6.13623
20.5761 13.6784 6.13528
20.5997 13.6379 6.13446
20.6241 13.5978 6.1339
20.6488 13.5574 6.13309
20.7067 13.5376 6.14496
20.6997 13.4772 6.13184
20.7251 13.4375 6.13141
20.7509 13.3986 6.13149
20.7772 13.3599 6.13174
20.8033 13.3213 6.13195
20.8293 13.2828 6.13209
20.8559 13.2446 6.13249
20.8824 13.2063 6.13286
20.9088 13.168 6.13317
20.9359 13.1301 6.13373
20.9631 13.0923 6.13439
20.9904 13.0545 6.13503
21.0189 13.0177 6.13624
21.0478 12.9811 6.13756
21.077 12.9446 6.13903
21.1068 12.9088 6.14084
21.1366 12.8729 6.14269
21.1664 12.8371 6.14456
21.1959 12.8011 6.14632
21.2248 12.7645 6.14777
21.2537 12.7281 6.14922
21.2826 12.6916 6.15067
21.3102 12.6541 6.15146
21.3373 12.6162 6.15202
21.3644 12.5784 6.15259
21.3915 12.5405 6.15317
21.4186 12.5026 6.15377
21.4453 12.4645 6.15414
21.4715 12.4259 6.15434
21.4977 12.3874 6.15453
21.5234 12.3477 6.15437
21.5278 12.2951 6.14457
21.5724 12.2675 6.15239
21.5966 12.228 6.1517
21.6212 12.1885 6.15111
21.6457 12.1491 6.15051
21.6711 12.1101 6.15026
21.6961 12.071 6.14987
21.7211 12.0318 6.14951
21.745 11.992 6.14872
21.7685 11.952 6.14777
21.792 11.912 6.14688
21.8158 11.8722 6.1461
21.8395 11.8324 6.14531
21.8632 11.7925 6.14454
21.8873 11.7528 6.14391
21.9113 11.7132 6.1433
21.9354 11.6735 6.14271
21.9594 11.6337 6.14213
21.9836 11.5941 6.14165
22.0078 11.5544 6.14118
22.0318 11.5147 6.14068
22.0567 11.4754 6.14053
22.0818 11.4363 6.1405
22.1069 11.3972 6.14048
22.1321 11.3581 6.14052
22.1573 11.3191 6.14063
22.1824 11.2801 6.14072
22.2076 11.241 6.14086
22.2329 11.202 6.14104
22.2582 11.163 6.14122
22.2842 11.1244 6.14166
22.31 11.0856 6.142
22.3434 11.0519 6.14572
22.3604 11.0076 6.14261
22.3853 10.9681 6.14251
22.4103 10.9286 6.14241
22.435 10.8889 6.14225
22.4599 10.8494 6.14219
22.4849 10.8099 6.14217
22.51 10.7704 6.14222
22.5372 10.7324 6.14317
22.5639 10.6941 6.14394
22.5903 10.6558 6.14476
22.6168 10.6174 6.14562
22.6432 10.579 6.14655
22.6691 10.5403 6.14743
22.6962 10.5023 6.14872
22.7233 10.4645 6.15013
22.7505 10.4266 6.15158
22.7776 10.3887 6.15302
22.8046 10.3507 6.15452
22.8315 10.3126 6.15606
22.8582 10.2744 6.15767
22.8849 10.2362 6.15941
22.9116 10.198 6.16127
22.9382 10.1597 6.16324
22.9647 10.1214 6.16532
22.9911 10.0829 6.16752
23.0172 10.0443 6.16981
23.044 10.0061 6.17245
23.0708 9.96793 6.17527
23.0976 9.9298 6.1783
23.1249 9.89195 6.18165
23.1521 9.85407 6.18525
23.1811 9.81751 6.18959
23.2059 9.77794 6.19316
23.2321 9.73927 6.19747
23.2587 9.70093 6.20217
23.2859 9.66297 6.20729
23.313 9.62506 6.2126
23.3401 9.58713 6.21811
23.366 9.54831 6.22344
23.3918 9.50938 6.22889
23.4171 9.46996 6.23415
23.4427 9.43083 6.23974
23.4708 9.39391 6.2468
23.4989 9.35695 6.25398
23.5254 9.31842 6.26033
23.5498 9.27846 6.26608
23.5743 9.2385 6.27196
23.5973 9.19763 6.27753
23.6208 9.15728 6.28342
23.6447 9.11721 6.28957
23.6694 9.07776 6.29615
23.6943 9.03836 6.3029
23.7193 8.99886 6.30977
23.7425 8.95822 6.31617
23.7642 8.91676 6.3222
23.7859 8.87527 6.32835
23.8079 8.83395 6.33472
23.8301 8.79273 6.34129
23.8523 8.75145 6.34796
23.8758 8.71089 6.35523
23.8996 8.6705 6.3629
23.9232 8.62992 6.3706
23.9454 8.5881 6.3777
23.9609 8.54228 6.38223
23.9877 8.50291 6.39128
24.0099 8.46095 6.3991
24.032 8.41864 6.40682
24.0538 8.37612 6.41457
24.0756 8.33357 6.42229
24.0972 8.29083 6.42998
24.1185 8.2479 6.43763
24.1398 8.20494 6.44533
24.1605 8.16174 6.4529
24.1812 8.11852 6.4605
24.2016 8.0752 6.46809
24.2224 8.03204 6.47584
24.2435 7.98908 6.4838
24.2649 7.94633 6.49194
24.2866 7.90372 6.50023
24.3087 7.86136 6.50874
24.3299 7.81844 6.51689
24.3504 7.77518 6.5248
24.3708 7.7319 6.53269
24.3922 7.68924 6.54099
24.4133 7.6465 6.54917
24.4343 7.60377 6.55728
24.4552 7.56112 6.56537
24.4768 7.51896 6.57374
24.4989 7.47723 6.58239
24.5205 7.43524 6.59069
24.5417 7.39323 6.59875
24.5629 7.35134 6.60669
24.584 7.30955 6.61449
24.6052 7.26799 6.62216
24.6266 7.22684 6.62984
24.6589 7.19273 6.64318
24.6694 7.14549 6.64441
24.6912 7.10563 6.65158
24.7128 7.06606 6.65858
24.7343 7.02662 6.66539
24.7558 6.98733 6.67209
24.7777 6.94838 6.67887
24.7994 6.90955 6.68556
24.8206 6.87045 6.69192
24.8423 6.83176 6.69856
24.864 6.79312 6.70517
24.8856 6.75454 6.71173
24.9078 6.71639 6.71858
24.9305 6.67866 6.72567
24.9523 6.64036 6.7322
24.9744 6.60226 6.73887
24.9964 6.56418 6.74552
25.0185 6.52609 6.75216
25.0406 6.488 6.7588
25.0628 6.44999 6.76549
25.0849 6.41191 6.77212
25.107 6.3738 6.77875
25.1281 6.33494 6.78479
25.1491 6.29604 6.79079
25.1702 6.25713 6.79681
25.1906 6.21782 6.80246
25.2108 6.1784 6.80806
25.2311 6.13888 6.81367
25.2514 6.09925 6.81929
25.2716 6.05948 6.8249
25.2919 6.0196 6.83058
25.3123 5.97956 6.83634
25.3324 5.93918 6.84206
25.3514 5.89774 6.8472
25.371 5.85635 6.85271
25.391 5.81505 6.85854
25.4112 5.77367 6.86449
25.4314 5.7322 6.87048
25.4517 5.69073 6.87661
25.4727 5.64949 6.88309
25.4943 5.60858 6.88999
25.516 5.56765 6.89692
25.5381 5.52696 6.90415
25.5607 5.48645 6.91159
25.5829 5.44569 6.91891
25.6055 5.40506 6.9264
25.6283 5.36455 6.93404
25.6511 5.32399 6.94165
25.6737 5.28329 6.94915
25.6961 5.24254 6.95654
25.718 5.20146 6.96363
25.74 5.16036 6.97072
25.762 5.11928 6.97781
25.784 5.07817 6.9849
25.8058 5.03686 6.99182
25.8276 4.99553 6.99874
25.8494 4.95419 7.00566
25.8712 4.91285 7.01262
25.894 4.87203 7.02003
25.9166 4.83114 7.02739
25.9393 4.79021 7.03472
25.9617 4.74903 7.04178
25.9843 4.70789 7.04887
26.0071 4.66678 7.05598
26.0225 4.62079 7.05883
26.0532 4.58472 7.07032
26.0768 4.54383 7.07764
26.1002 4.50258 7.08456
26.1227 4.46068 7.09088
26.1454 4.41901 7.09736
26.168 4.37738 7.10383
26.1905 4.33562 7.11016
26.2121 4.29331 7.11593
26.2324 4.25044 7.12104
26.2528 4.2076 7.12614
26.2753 4.16599 7.13248
26.2977 4.12424 7.13869
26.3191 4.08186 7.14422
26.3403 4.03948 7.14979
26.3588 3.99564 7.15383
26.3771 3.95175 7.15785
26.3963 3.90845 7.1625
26.4158 3.86529 7.16732
26.4347 3.82187 7.17186
26.4535 3.77846 7.17642
26.4734 3.73553 7.18156
26.4937 3.69287 7.18702
26.5134 3.64983 7.19204
26.5328 3.60667 7.19698
26.551 3.56291 7.20123
26.5692 3.51913 7.20553
26.5872 3.47524 7.20974
26.6049 3.43121 7.2138
26.6227 3.38717 7.21789
26.6404 3.34308 7.22201
26.6575 3.29903 7.2267
26.6546 3.24461 7.21582
26.6952 3.21091 7.23588
26.7139 3.16616 7.24055
26.731 3.12105 7.24435
26.7474 3.07552 7.24765
26.764 3.03052 7.25111
26.7814 2.98593 7.25502
26.7971 2.94062 7.25792
26.8119 2.89502 7.26011
26.8286 2.85016 7.26363
26.8474 2.80644 7.26909
26.8643 2.7618 7.27289
26.88 2.71674 7.27574
26.8942 2.67134 7.27765
26.9097 2.62642 7.28072
26.9223 2.58041 7.28149
26.9347 2.53434 7.28217
26.9471 2.48845 7.28274
26.9624 2.44348 7.28611
26.9783 2.39886 7.29042
26.9916 2.35349 7.29202
27.0048 2.30807 7.29372
27.0182 2.26278 7.29588
27.0325 2.21802 7.29955
27.0457 2.17287 7.30197
27.0579 2.12748 7.30347
27.0699 2.0821 7.30507
27.0815 2.03673 7.3065
27.0927 1.99133 7.30754
27.1034 1.94594 7.30842
27.114 1.90065 7.30941
27.1246 1.85548 7.31076
27.1371 1.81116 7.31481
27.1469 1.76632 7.3159
27.1575 1.72202 7.31851
27.168 1.67783 7.32122
27.1783 1.63374 7.32406
27.1885 1.58976 7.32715
27.199 1.54599 7.33088
27.2094 1.50227 7.33471
27.2196 1.4586 7.33864
27.2296 1.41496 7.3427
27.2396 1.37135 7.34691
27.2494 1.32777 7.35121
27.2591 1.2842 7.35557
27.2689 1.24075 7.36042
27.279 1.19748 7.36592
27.2886 1.15409 7.3711
27.2981 1.11071 7.37637
27.3075 1.06733 7.38175
27.3169 1.02397 7.38731
27.3262 0.980594 7.39298
27.3354 0.937212 7.39878
27.3444 0.893807 7.40471
27.3534 0.850357 7.41069
27.3621 0.806851 7.41669
27.3706 0.763275 7.42266
27.3791 0.719701 7.42883
27.3876 0.67618 7.43542
27.396 0.632536 7.44193
27.4042 0.588823 7.44855
27.4123 0.545047 7.45531
27.4203 0.501178 7.46221
27.4285 0.457265 7.46949
27.4386 0.413983 7.47934
27.4446 0.368926 7.48434
27.4522 0.324403 7.49174
27.4598 0.279764 7.49925
27.4673 0.23504 7.50694
27.4744 0.190113 7.51433
27.4815 0.145106 7.52182
27.4884 0.100026 7.52942
27.4952 0.054893 7.53711
27.5027 0.00997975 7.54572
27.5102 -0.0349029 7.55468
27.5177 -0.0798278 7.56373
27.525 -0.1248 7.57287
27.5324 -0.169896 7.5821
27.5378 -0.215598 7.5894
27.5431 -0.261319 7.59682
27.5487 -0.306947 7.6046
27.5536 -0.352672 7.61189
27.5584 -0.398409 7.61915
27.5639 -0.443943 7.62731
27.5697 -0.489393 7.63587
27.5753 -0.53487 7.64444
27.5808 -0.580383 7.65305
27.5864 -0.62594 7.66174
27.5927 -0.671296 7.67119
27.599 -0.716736 7.68059
27.6041 -0.76266 7.6888
27.6087 -0.808694 7.69675
27.6134 -0.854805 7.70482
27.6186 -0.901059 7.71316
27.6235 -0.947357 7.72137
27.6276 -0.993913 7.729
27.6072 -1.04595 7.71697
27.6356 -1.08735 7.74457
27.6395 -1.13409 7.75228
27.643 -1.18069 7.75971
27.6462 -1.22728 7.76707
27.6487 -1.27385 7.7742
27.6512 -1.32037 7.78149
27.6539 -1.36689 7.78889
27.6565 -1.41344 7.79633
27.6585 -1.46017 7.80341
27.6597 -1.50705 7.8099
