BEGIN_Polyline
-24.8018 9.55476 7.96351
-24.7789 9.59533 7.95892
-24.7559 9.63595 7.95426
-24.733 9.6766 7.94958
-24.71 9.71728 7.94499
-24.6869 9.75793 7.94058
-24.6635 9.79844 7.93608
-24.6397 9.83879 7.93134
-24.616 9.87914 7.92649
-24.5922 9.91944 7.92159
-24.5685 9.95983 7.91655
-24.5451 10.0008 7.91045
-24.4764 10.0106 7.87453
-24.4962 10.0818 7.89968
-24.4714 10.1218 7.89508
-24.4473 10.1617 7.88906
-24.4234 10.2015 7.88286
-24.3994 10.2414 7.87667
-24.3755 10.2813 7.87038
-24.3516 10.3212 7.86401
-24.3278 10.3611 7.85762
-24.3039 10.401 7.85131
-24.28 10.4409 7.84504
-24.256 10.4808 7.83874
-24.2324 10.5209 7.83259
-24.2087 10.5609 7.82643
-24.1846 10.6006 7.81986
-24.1604 10.6402 7.81329
-24.1363 10.6799 7.80668
-24.1122 10.7196 7.80002
-24.0881 10.7593 7.79337
-24.064 10.799 7.78676
-24.0398 10.8386 7.78024
-24.0156 10.8783 7.77374
-23.9913 10.9179 7.76737
-23.967 10.9575 7.7611
-23.9427 10.9971 7.75489
-23.9184 11.0367 7.74856
-23.894 11.0763 7.74234
-23.869 11.1154 7.73579
-23.8436 11.1544 7.72932
-23.8172 11.1927 7.72219
-23.7879 11.2288 7.71322
-23.7598 11.266 7.70544
-23.7279 11.2999 7.69477
-23.7033 11.3405 7.69001
-23.6751 11.3777 7.68238
-23.6469 11.4148 7.67488
-23.6185 11.4519 7.66758
-23.5901 11.4891 7.6603
-23.5617 11.5261 7.65316
-23.5332 11.5631 7.64612
-23.5048 11.6 7.63911
-23.4764 11.6369 7.63203
-23.4482 11.6737 7.62491
-23.4199 11.7105 7.61782
-23.3928 11.748 7.61154
-23.3664 11.7861 7.60579
-23.34 11.8243 7.60013
-23.3143 11.8629 7.59499
-23.2892 11.9023 7.59043
-23.264 11.9417 7.5859
-23.2388 11.9813 7.58141
-23.2135 12.0208 7.57692
-23.1883 12.0603 7.57235
-23.1631 12.0998 7.56772
-23.1383 12.1394 7.56311
-23.1141 12.1792 7.55878
-23.0906 12.2194 7.5548
-23.0676 12.2599 7.55121
-23.0447 12.3003 7.54761
-23.0219 12.3404 7.54406
-22.9987 12.3812 7.54031
-22.9748 12.4237 7.53613
-22.954 12.4677 7.53369
-22.934 12.5126 7.53159
-22.9737 12.585 7.56025
-22.8944 12.6009 7.52799
-22.875 12.6439 7.52649
-22.8558 12.6866 7.52493
-22.8367 12.7289 7.52327
-22.8176 12.7715 7.5216
-22.7987 12.8139 7.51963
-22.7799 12.8562 7.51747
-22.7617 12.8983 7.5151
-22.7448 12.9411 7.51342
-22.7281 12.9838 7.51145
-22.7116 13.0264 7.50931
-22.6951 13.0689 7.50693
-22.6787 13.1114 7.50448
-22.6624 13.1538 7.50203
-22.646 13.1963 7.49958
-22.6294 13.2388 7.49748
-22.6126 13.2814 7.49577
-22.5946 13.3236 7.49378
-22.5753 13.3652 7.49093
-22.557 13.4073 7.48865
-22.5372 13.4487 7.48531
-22.5156 13.4885 7.47988
-22.4975 13.5304 7.47672
-22.4796 13.5723 7.47313
-22.4616 13.6144 7.46922
-22.4399 13.6543 7.46249
-22.4187 13.6948 7.45564
-22.3992 13.7363 7.44913
-22.3798 13.7776 7.44257
-22.3604 13.8189 7.43593
-22.3412 13.8602 7.42917
-22.2861 13.882 7.40404
-22.3001 13.9431 7.41845
-22.2799 13.9839 7.41232
-22.2597 14.0246 7.40626
-22.2396 14.0653 7.40012
-22.2194 14.1058 7.39376
-22.1981 14.1456 7.38653
-22.1768 14.1855 7.37927
-22.1568 14.2262 7.37262
-22.1378 14.2674 7.36672
-22.1196 14.309 7.361
-22.1015 14.3506 7.3551
-22.083 14.3919 7.34882
-22.0616 14.4314 7.341
-22.0403 14.471 7.33264
-22.0191 14.5106 7.32399
-21.998 14.5502 7.31507
-21.9771 14.59 7.30649
-21.9564 14.6298 7.29779
-21.9352 14.6694 7.2886
-21.9135 14.7087 7.279
-21.8917 14.7479 7.26953
-21.87 14.7872 7.25983
-21.8483 14.8267 7.24991
-21.8236 14.864 7.23849
-21.7984 14.9009 7.22704
-21.7732 14.938 7.21519
-21.7479 14.9752 7.20308
-21.7223 15.0129 7.19092
-21.6964 15.051 7.17915
-21.6697 15.0888 7.16723
-21.6425 15.1268 7.15552
-21.5681 15.1273 7.13119
-21.5878 15.2028 7.13284
-21.5605 15.2406 7.12181
-21.5331 15.2786 7.1109
-21.5056 15.3166 7.10008
-21.478 15.3548 7.08919
-21.4504 15.3931 7.0782
-21.4227 15.4313 7.06714
-21.3952 15.4694 7.05598
-21.3658 15.5058 7.04437
-21.3356 15.5413 7.03226
-21.3055 15.5768 7.0199
-21.2756 15.6123 7.00716
-21.2456 15.6478 6.99445
-21.2157 15.6834 6.98132
-21.1859 15.7189 6.96789
-21.156 15.7546 6.95417
-21.1258 15.7906 6.94064
-21.0957 15.8266 6.92689
-21.0658 15.8624 6.91285
-21.0369 15.8981 6.89871
-21.0104 15.936 6.88558
-20.9832 15.9719 6.87143
-20.9564 16.0075 6.8571
-20.9299 16.0427 6.84262
-20.9029 16.0785 6.82823
-20.8773 16.1149 6.81434
-20.8526 16.1509 6.80066
-20.8288 16.1862 6.78692
-20.805 16.2213 6.77307
-20.7821 16.2555 6.75932
-20.7596 16.2891 6.7457
-20.736 16.3209 6.73158
-20.7146 16.3559 6.71926
-20.692 16.3891 6.70644
-20.6698 16.4218 6.69373
-20.6483 16.4537 6.68112
-20.6269 16.4856 6.66843
-20.606 16.5169 6.65563
-20.5846 16.5471 6.64228
-20.5619 16.5751 6.62771
-20.5426 16.607 6.61539
-20.5249 16.6404 6.60366
-20.5074 16.6735 6.59175
-20.4902 16.7065 6.57951
-20.4712 16.7381 6.56606
-20.45 16.7676 6.55112
-20.4289 16.7971 6.53601
-20.408 16.8263 6.52107
-20.3879 16.8558 6.50706
-20.3679 16.8853 6.49322
-20.3478 16.915 6.47912
-20.3275 16.9451 6.46454
-20.3072 16.9755 6.44981
-20.2853 17.0055 6.43386
-20.2629 17.0358 6.41733
-20.2404 17.0665 6.40039
-20.2188 17.0971 6.38421
-20.1972 17.1285 6.36761
-20.1745 17.1601 6.35008
-20.151 17.193 6.3316
-20.1275 17.226 6.31317
-20.1033 17.2602 6.29378
-20.0785 17.2952 6.27375
-20.0304 17.3105 6.24576
-20.0288 17.3658 6.23279
-20.0039 17.4011 6.21215
-19.9776 17.4363 6.19094
-19.9491 17.4715 6.16866
-19.9206 17.5065 6.14681
-19.8907 17.5419 6.12449
-19.86 17.578 6.10179
-19.8286 17.6143 6.07879
-19.7979 17.65 6.05599
-19.7668 17.6859 6.03321
-19.7353 17.7224 6.01033
-19.7031 17.7594 5.98748
-19.6737 17.7993 5.96542
-19.6443 17.8403 5.94354
-19.6146 17.8815 5.92174
-19.5848 17.9228 5.8998
-19.5555 17.9639 5.87742
-19.5263 18.0048 5.85521
-19.4972 18.0456 5.83338
-19.467 18.0853 5.81205
-19.4359 18.1243 5.79069
-19.4049 18.1631 5.77028
-19.3748 18.2026 5.75071
-19.3457 18.2428 5.7319
-19.3164 18.2833 5.71249
-19.2872 18.3235 5.69375
-19.2593 18.3642 5.67594
-19.232 18.4045 5.65934
-19.2046 18.4446 5.64298
-19.1777 18.484 5.6275
-19.1503 18.5222 5.61247
-19.1224 18.5596 5.59712
-19.0955 18.5986 5.58078
-19.0689 18.6371 5.56431
-19.0443 18.6762 5.5488
-19.0202 18.7144 5.53431
-18.9946 18.7514 5.51979
-18.9685 18.7868 5.50654
-18.9429 18.8217 5.49425
-18.9175 18.8561 5.48284
-18.8918 18.8909 5.47064
-18.8663 18.9255 5.45934
-18.8411 18.9597 5.44903
-18.8168 18.9936 5.44016
-18.7925 19.0275 5.43146
-18.768 19.0606 5.42379
-18.7433 19.0933 5.41676
-18.7185 19.126 5.40988
-18.6935 19.1592 5.40208
-18.6683 19.1925 5.39421
-18.6431 19.2258 5.3868
-18.6179 19.2591 5.37998
-18.5927 19.2923 5.37327
-18.5676 19.3254 5.36731
-18.5425 19.3583 5.36176
-18.5179 19.3915 5.35687
-18.4933 19.4246 5.35202
-18.4689 19.4576 5.34739
-18.4444 19.4906 5.34275
-18.4199 19.5236 5.3381
-18.3954 19.5565 5.33364
-18.3709 19.5897 5.32854
-18.3461 19.6231 5.32295
-18.2703 19.6184 5.31246
-18.299 19.6896 5.30812
-18.2746 19.7254 5.30038
-18.2483 19.7594 5.29193
-18.2206 19.7934 5.28285
-18.194 19.8262 5.27385
-18.1676 19.8586 5.26473
-18.1409 19.8914 5.25559
-18.1141 19.9244 5.24657
-18.0874 19.9572 5.23756
-18.0605 19.9901 5.22906
-18.0335 20.0232 5.22097
-18.0063 20.0566 5.21352
-17.9789 20.09 5.20603
-17.9514 20.1237 5.19921
-17.9229 20.1567 5.19292
-17.8943 20.1895 5.18692
-17.8645 20.2206 5.18042
-17.8342 20.2513 5.17426
-17.8039 20.2824 5.16863
-17.7726 20.3132 5.16378
-17.7409 20.3437 5.1589
-17.7088 20.3747 5.15493
-17.6763 20.4059 5.15156
-17.6435 20.4375 5.149
-17.6106 20.4689 5.14636
-17.5775 20.5005 5.14417
-17.5441 20.5324 5.14208
-17.51 20.5642 5.14052
-17.4758 20.5961 5.13946
-17.4413 20.6281 5.13833
-17.4068 20.6603 5.137
-17.3197 20.6356 5.13178
-17.34 20.7237 5.13003
-17.3063 20.7566 5.1255
-17.2728 20.7892 5.12121
-17.2375 20.8204 5.11676
-17.2028 20.851 5.11348
-17.1681 20.8816 5.11124
-17.1332 20.9126 5.10921
-17.0979 20.9438 5.1077
-17.0627 20.9749 5.1059
-17.0272 21.0063 5.10476
-16.9915 21.038 5.1042
-16.9554 21.07 5.10455
-16.9191 21.1018 5.10503
-16.8823 21.1337 5.10616
-16.8445 21.1647 5.10774
-16.8056 21.194 5.10925
-16.7672 21.223 5.1099
-16.7288 21.2519 5.11051
-16.6901 21.2809 5.11158
-16.6511 21.3102 5.11339
-16.612 21.3395 5.11537
-16.5724 21.3693 5.11837
-16.5325 21.3993 5.12205
-16.4923 21.4297 5.12635
-16.4523 21.4598 5.13012
-16.4118 21.4899 5.1345
-16.3709 21.5204 5.13954
-16.3296 21.5511 5.14551
-16.2886 21.5819 5.15155
-16.2473 21.6132 5.15831
-16.2063 21.6453 5.16535
-16.1409 21.6467 5.17316
-16.1224 21.7091 5.1819
-16.0805 21.74 5.18796
-16.0385 21.771 5.19428
-15.9963 21.8021 5.20085
-15.954 21.8333 5.20765
-15.9115 21.8645 5.21495
-15.869 21.8958 5.22251
-15.8264 21.9271 5.23034
-15.7839 21.9584 5.23798
-15.7414 21.9897 5.24586
-15.6989 22.0209 5.25401
-15.6555 22.0508 5.26241
-15.6112 22.0795 5.2707
-15.567 22.1082 5.27925
-15.5226 22.1368 5.28794
-15.4781 22.1654 5.29682
-15.4334 22.1942 5.30571
-15.3887 22.223 5.31458
-15.3442 22.2517 5.32339
-15.3 22.2801 5.33207
-15.2558 22.3085 5.34078
-15.212 22.3364 5.34915
-15.1686 22.364 5.35725
-15.1269 22.3936 5.3652
-15.0854 22.4244 5.37336
-15.0442 22.4546 5.38109
-15.0019 22.4823 5.3884
-14.9604 22.5096 5.39502
-14.9192 22.5367 5.40147
-14.8785 22.5634 5.4074
-14.8382 22.5899 5.41299
-14.7775 22.5861 5.41819
-14.756 22.6439 5.42543
-14.7143 22.6713 5.43209
-14.6728 22.6973 5.43814
-14.6295 22.719 5.44332
-14.5875 22.7405 5.44788
-14.547 22.7617 5.45138
-14.5069 22.7826 5.45441
-14.4672 22.8035 5.45692
-14.427 22.8245 5.45993
-14.3871 22.8455 5.46245
-14.3476 22.8662 5.46441
-14.3087 22.8867 5.46557
-14.2699 22.9072 5.46663
-14.2316 22.9275 5.4671
-14.1935 22.9477 5.46719
-14.1554 22.9678 5.46722
-14.117 22.9881 5.46775
-14.0785 23.0085 5.46836
-14.0396 23.0281 5.46866
-14.0016 23.0494 5.46885
-13.9641 23.0715 5.46911
-13.9254 23.0915 5.46878
-13.8867 23.1115 5.46828
-13.8498 23.1344 5.46748
-13.8132 23.1571 5.46654
-13.7764 23.1799 5.46548
-13.7394 23.2029 5.46447
-13.7022 23.226 5.46371
-13.6652 23.2489 5.46303
-13.6261 23.2699 5.4628
-13.5868 23.2909 5.46316
-13.5565 23.3305 5.46419
-13.507 23.3335 5.46563
-13.4666 23.3551 5.46763
-13.4257 23.377 5.47006
-13.3842 23.3992 5.47286
-13.3435 23.4226 5.47543
-13.3027 23.4469 5.478
-13.2615 23.4715 5.48066
-13.2202 23.4962 5.48318
-13.1791 23.5206 5.48562
-13.1379 23.5445 5.48755
-13.0963 23.5681 5.48917
-13.0556 23.593 5.49
-13.0157 23.6196 5.49062
-12.9766 23.6474 5.49053
-12.9374 23.6751 5.49002
-12.8983 23.7027 5.48931
-12.8592 23.7304 5.48913
-12.8203 23.758 5.48857
-12.7815 23.7853 5.48745
-12.7429 23.8122 5.48549
-12.7043 23.8392 5.48348
-12.6659 23.8657 5.48054
-12.6275 23.8918 5.47696
-12.5878 23.9156 5.47331
-12.5484 23.9406 5.46997
-12.509 23.9654 5.46613
-12.4694 23.9891 5.46194
-12.4296 24.0117 5.45707
-12.3899 24.0343 5.45199
-12.3504 24.0566 5.44641
-12.3112 24.0787 5.44055
-12.2588 24.0786 5.44076
-12.2325 24.1227 5.43027
-12.1938 24.1455 5.4257
-12.155 24.1685 5.42083
-12.1159 24.1899 5.41574
-12.077 24.2112 5.41061
-12.0385 24.2321 5.4047
-12.0002 24.2527 5.3982
-11.962 24.273 5.39116
-11.9237 24.2936 5.3846
-11.8854 24.314 5.3774
-11.8474 24.3343 5.36947
-11.809 24.3534 5.36083
-11.7706 24.3722 5.3522
-11.7322 24.3907 5.34275
-11.694 24.4091 5.33276
-11.6558 24.4273 5.32248
-11.6176 24.4455 5.3128
-11.5793 24.4638 5.303
-11.541 24.4819 5.29281
-11.5027 24.4999 5.28218
-11.4644 24.5179 5.27158
-11.4261 24.5361 5.26047
-11.3876 24.5542 5.24906
-11.3487 24.5725 5.23714
-11.3097 24.5908 5.22501
-11.2703 24.6092 5.21277
-11.2303 24.6266 5.20098
-11.1886 24.641 5.19025
-11.1468 24.6553 5.17932
-11.1046 24.67 5.1691
-11.063 24.685 5.15935
-11.0045 24.6633 5.16113
-10.9763 24.715 5.14476
-10.9341 24.7294 5.13724
-10.8918 24.744 5.1303
-10.8493 24.7588 5.12396
-10.8067 24.7737 5.11761
-10.7638 24.7887 5.11137
-10.7214 24.8054 5.1048
-10.6786 24.8217 5.09801
-10.6359 24.8379 5.09107
-10.5931 24.8541 5.08355
-10.5501 24.8704 5.07572
-10.507 24.8868 5.06733
-10.4648 24.9048 5.05871
-10.4223 24.9228 5.04974
-10.3797 24.9408 5.04046
-10.3368 24.959 5.0313
-10.2937 24.9773 5.02287
-10.2505 24.9957 5.01431
-10.2074 25.0141 5.00523
-10.1647 25.0328 4.9952
-10.1222 25.052 4.98512
-10.0782 25.0661 4.97441
-10.0345 25.0801 4.9629
-9.99058 25.094 4.95052
-9.94618 25.1081 4.93861
-9.90196 25.122 4.9259
-9.85698 25.1322 4.91292
-9.81242 25.1412 4.89883
-9.76876 25.1523 4.88414
-9.72598 25.163 4.86861
-9.68488 25.174 4.85208
-9.63276 25.1547 4.84217
-9.60074 25.1981 4.82211
-9.5591 25.2086 4.80727
-9.51796 25.2189 4.79198
-9.47748 25.2288 4.77589
-9.43719 25.2392 4.75954
-9.39738 25.2493 4.74214
-9.35785 25.2593 4.72412
-9.31839 25.2691 4.70548
-9.27843 25.2786 4.6874
-9.23826 25.2879 4.6688
-9.19813 25.297 4.64963
-9.15797 25.306 4.62965
-9.11779 25.3151 4.60959
-9.07727 25.3228 4.58922
-9.03665 25.3304 4.56861
-8.99612 25.3373 4.54803
-8.95591 25.3439 4.5279
-8.91564 25.3505 4.50797
-8.87508 25.3573 4.48802
-8.83395 25.3642 4.4681
-8.79268 25.3711 4.44813
-8.7505 25.3778 4.42825
-8.7078 25.385 4.40836
-8.66491 25.3932 4.3883
-8.62266 25.4008 4.36806
-8.5798 25.4086 4.34793
-8.53611 25.4167 4.328
-8.49125 25.4252 4.30845
-8.4464 25.4337 4.28899
-8.40029 25.4426 4.26999
-8.3536 25.4517 4.25132
-8.31593 25.5002 4.22559
-8.25623 25.471 4.2138
-8.2075 25.4825 4.19478
-8.162 25.497 4.17562
-8.11562 25.5121 4.15715
-8.06895 25.5273 4.13877
-8.02119 25.543 4.12109
-7.97281 25.5591 4.1039
-7.92346 25.5745 4.08719
-7.87469 25.5901 4.06994
-7.82732 25.6097 4.05209
-7.77947 25.6296 4.03469
-7.73098 25.6501 4.01803
-7.68246 25.6707 4.00159
-7.63355 25.6915 3.98573
-7.58444 25.7125 3.97022
-7.53516 25.7336 3.95466
-7.48585 25.7545 3.93842
-7.43684 25.7752 3.92211
-7.38807 25.7959 3.9061
-7.3372 25.8109 3.89197
-7.28612 25.8244 3.87826
-7.23546 25.838 3.86522
-7.18518 25.8515 3.8526
-7.13514 25.8651 3.84049
-7.08464 25.8787 3.8282
-7.0346 25.8924 3.81629
-6.98511 25.9059 3.80467
-6.93655 25.9192 3.79348
-6.88811 25.9324 3.78242
-6.84056 25.9454 3.77143
-6.79368 25.9585 3.76037
-6.74902 25.9772 3.7474
-6.69974 25.9852 3.73668
-6.65269 25.9984 3.72411
-6.60632 26.0113 3.7115
-6.56101 26.0239 3.69894
-6.51583 26.0365 3.68653
-6.47224 26.0499 3.67421
-6.42962 26.0638 3.66199
-6.38761 26.0774 3.65009
-6.34498 26.0913 3.63791
-6.30285 26.105 3.62618
-6.26134 26.1187 3.6149
-6.22067 26.1322 3.60432
-6.1801 26.1458 3.59382
-6.14048 26.16 3.58363
-6.10174 26.1753 3.57342
-6.06296 26.1904 3.56345
-6.02356 26.2052 3.55303
-5.98399 26.2201 3.54273
-5.94434 26.2345 3.53304
-5.90484 26.2491 3.52384
-5.86537 26.2637 3.51469
-5.82608 26.2784 3.50617
-5.78688 26.2932 3.49801
-5.74793 26.3081 3.49032
-5.70916 26.3228 3.48252
-5.6704 26.3377 3.47497
-5.63149 26.3527 3.46757
-5.59234 26.3678 3.46036
-5.55323 26.3831 3.45328
-5.51358 26.3985 3.44602
-5.47295 26.4137 3.43926
-5.42241 26.4076 3.44079
-5.39074 26.4433 3.42394
-5.34933 26.4578 3.41511
-5.30746 26.4724 3.40611
-5.26502 26.4872 3.39692
-5.2226 26.502 3.38792
-5.17981 26.5171 3.3792
-5.13664 26.532 3.37076
-5.09338 26.547 3.3626
-5.05033 26.562 3.35433
-5.00742 26.5771 3.3466
-4.96451 26.5923 3.3393
-4.92166 26.6079 3.33268
-4.87876 26.6235 3.32606
-4.83596 26.6393 3.32004
-4.79288 26.6543 3.31488
-4.74966 26.6688 3.31012
-4.7055 26.681 3.30587
-4.66159 26.6936 3.30153
-4.61796 26.7065 3.29749
-4.5747 26.7196 3.29404
-4.5315 26.7327 3.29068
-4.48874 26.746 3.28805
-4.4463 26.7596 3.28591
-4.40407 26.7733 3.28424
-4.36147 26.787 3.28221
-4.31914 26.8007 3.28056
-4.27718 26.8146 3.2793
-4.2358 26.8286 3.27862
-4.19452 26.8427 3.27804
-4.15403 26.8574 3.27742
-4.11389 26.8721 3.27695
-4.07286 26.8837 3.27785
-4.03358 26.901 3.27493
-3.99335 26.9153 3.27338
-3.95345 26.9295 3.27194
-3.91402 26.9436 3.27073
-3.87442 26.9575 3.26986
-3.83431 26.9681 3.27123
-3.79442 26.9789 3.2729
-3.75473 26.9898 3.2749
-3.7149 27.0006 3.2767
-3.67495 27.0105 3.27944
-3.63512 27.0206 3.28247
-3.59545 27.0312 3.28578
-3.5557 27.0416 3.28925
-3.51587 27.0516 3.2934
-3.47607 27.0616 3.29776
-3.43638 27.0716 3.30213
-3.39685 27.0814 3.30616
-3.35736 27.0916 3.30994
-3.31788 27.1027 3.31346
-3.27811 27.114 3.31721
-3.23812 27.1245 3.32146
-3.19759 27.1349 3.32621
-3.15671 27.1454 3.33122
-3.11558 27.1559 3.33642
-3.0748 27.1662 3.3415
-3.03365 27.1767 3.34672
-2.99207 27.1874 3.35208
-2.94979 27.1982 3.35763
-2.90742 27.2091 3.36318
-2.86441 27.2202 3.36885
-2.82083 27.2306 3.37495
-2.77654 27.2378 3.3828
-2.73377 27.251 3.38766
-2.69041 27.261 3.39398
-2.64642 27.2689 3.40106
-2.60177 27.2768 3.40807
-2.55699 27.2851 3.415
-2.51158 27.2942 3.42148
-2.46613 27.3065 3.4265
-2.42043 27.3191 3.43124
-2.37453 27.3272 3.43795
-2.32834 27.3353 3.44454
-2.2822 27.3466 3.44969
-2.23556 27.3583 3.45443
-2.18906 27.3699 3.4591
-2.14212 27.3815 3.46354
-2.09485 27.3931 3.46784
-2.04721 27.4048 3.47219
-1.9996 27.4167 3.4769
-1.95189 27.4286 3.48158
-1.90415 27.4403 3.48604
-1.85651 27.4517 3.49028
-1.80826 27.4592 3.49594
-1.75966 27.4633 3.50234
-1.71109 27.4667 3.50863
-1.66251 27.4699 3.51455
-1.61382 27.4732 3.52076
-1.56551 27.4763 3.52667
-1.51756 27.4794 3.53225
-1.47021 27.4821 3.5373
-1.42283 27.4848 3.54215
-1.37621 27.4874 3.54673
-1.33021 27.4899 3.5512
-1.2845 27.4766 3.56322
-1.23831 27.4945 3.56225
-1.19301 27.4967 3.56856
-1.1483 27.4988 3.57468
-1.10461 27.498 3.58146
-1.06119 27.4965 3.58809
-1.01834 27.4947 3.59392
-0.975715 27.4928 3.59938
-0.933161 27.4907 3.60437
-0.890296 27.4888 3.60971
-0.847403 27.485 3.61513
-0.804948 27.4781 3.62114
-0.762175 27.4709 3.62641
-0.719471 27.4636 3.63155
-0.6764 27.4561 3.63618
-0.633108 27.4479 3.64064
-0.589606 27.4393 3.64536
-0.546267 27.431 3.6507
-0.502655 27.4227 3.65619
-0.458469 27.4145 3.66128
-0.413114 27.4117 3.66375
-0.367724 27.4088 3.66609
-0.321491 27.408 3.66689
-0.274652 27.4079 3.66696
-0.227706 27.4076 3.66654
-0.181822 27.4113 3.66461
-0.135499 27.4161 3.6617
-0.0882016 27.4211 3.65856
-0.0402893 27.4276 3.65411
0.00646083 27.4387 3.64741
0.0542693 27.45 3.6405
0.102343 27.4614 3.63357
0.158521 27.4507 3.63831
0.202768 27.4836 3.61894
0.253857 27.4891 3.6147
0.302986 27.4922 3.61287
0.352569 27.4953 3.61102
0.402373 27.4984 3.60918
0.453073 27.4998 3.60813
0.504282 27.5011 3.60695
0.555886 27.5022 3.60564
0.607057 27.5032 3.60474
0.658507 27.5029 3.60439
0.710293 27.5033 3.60331
0.762738 27.5039 3.60185
0.815562 27.5056 3.59971
0.868439 27.5114 3.59501
0.921307 27.5183 3.58948
0.974147 27.5251 3.58381
1.02653 27.532 3.57835
1.07926 27.5346 3.57502
1.13195 27.5367 3.57188
1.18466 27.5386 3.56846
1.23717 27.5427 3.56367
1.28989 27.5468 3.55859
1.34263 27.5508 3.55341
1.39572 27.5554 3.54787
1.44922 27.561 3.54212
1.50274 27.5666 3.53642
1.55578 27.5721 3.53064
1.6089 27.5737 3.52693
1.66206 27.5733 3.52435
1.71506 27.5728 3.5218
1.76782 27.5724 3.51926
1.82108 27.5373 3.53428
1.87361 27.5712 3.51371
1.92642 27.5706 3.51085
1.97884 27.57 3.50808
2.03055 27.5691 3.50604
2.08209 27.568 3.50468
2.13289 27.5674 3.50335
2.1833 27.5664 3.50214
2.23334 27.5656 3.50071
2.28373 27.5636 3.49977
2.33378 27.5614 3.4988
2.38342 27.5592 3.49778
2.43247 27.5571 3.49673
2.48139 27.5549 3.49576
2.52987 27.5528 3.49477
2.57809 27.5506 3.49373
2.62636 27.5485 3.49264
2.67515 27.5463 3.49156
2.724 27.5437 3.49057
2.77263 27.541 3.48961
2.82085 27.5382 3.48859
2.86887 27.5352 3.48775
2.91639 27.532 3.48691
2.96363 27.5288 3.48605
3.01075 27.5256 3.48512
3.0583 27.5223 3.48414
3.10567 27.519 3.48317
3.15242 27.5132 3.48361
3.19885 27.5072 3.48418
3.24517 27.501 3.48462
3.29154 27.4949 3.48515
3.33765 27.4889 3.48567
3.37784 27.4313 3.51359
3.43475 27.4769 3.48948
3.48288 27.4677 3.49281
3.52872 27.4583 3.49528
3.57429 27.4504 3.49725
3.62026 27.4416 3.49942
3.66605 27.4324 3.50166
3.71156 27.4232 3.5038
3.75681 27.4141 3.50595
3.80216 27.405 3.50825
3.84719 27.396 3.51065
3.89169 27.386 3.51353
3.9359 27.3764 3.51628
3.9802 27.3672 3.5188
4.0241 27.3575 3.52152
4.06781 27.3478 3.5242
4.11139 27.3382 3.52688
4.15466 27.3266 3.53053
4.19759 27.3137 3.53477
4.24043 27.3008 3.53896
4.28317 27.2879 3.54308
4.32589 27.275 3.5472
4.36864 27.2627 3.55095
4.41164 27.2512 3.55414
4.45444 27.2399 3.55735
4.49553 27.2241 3.56319
4.53674 27.208 3.56893
4.57884 27.1934 3.57342
4.62119 27.1793 3.57741
4.66332 27.1654 3.58162
4.70531 27.1516 3.58582
4.7473 27.1377 3.58991
4.7787 27.0957 3.60748
4.83146 27.1099 3.59808
4.87357 27.0959 3.60218
4.91548 27.0818 3.6063
4.95731 27.0677 3.61032
4.99914 27.0536 3.61432
5.04089 27.0394 3.61822
5.08258 27.0253 3.62207
5.12424 27.0111 3.6259
5.16594 26.997 3.62981
5.20762 26.9829 3.63371
5.24925 26.9687 3.63757
5.29052 26.9538 3.6417
5.33131 26.9376 3.64647
5.3724 26.9221 3.6506
5.41353 26.9068 3.6546
5.45385 26.8902 3.65961
5.49417 26.8736 3.66472
5.53408 26.8562 3.6704
5.57384 26.8386 3.67628
5.61364 26.8209 3.68213
5.65302 26.8023 3.68842
5.69228 26.7834 3.6949
5.73161 26.7643 3.70135
5.77101 26.7453 3.70778
5.81037 26.7262 3.71427
5.84978 26.7071 3.72068
5.88925 26.688 3.72699
5.92878 26.6687 3.73319
5.9683 26.6494 3.73944
6.00787 26.6301 3.74552
6.04748 26.6106 3.75148
6.09473 26.6042 3.7499
6.12674 26.5711 3.7627
6.16642 26.5513 3.76831
6.20611 26.5315 3.77383
6.24651 26.5133 3.77855
6.28723 26.4962 3.78287
6.32793 26.4791 3.78722
6.36875 26.4619 3.79155
6.40961 26.4446 3.79595
6.45043 26.4273 3.80036
6.49137 26.4099 3.80484
6.53305 26.3939 3.80871
6.57452 26.3772 3.81303
6.61602 26.3604 3.81743
6.6574 26.3432 3.82213
6.69878 26.326 3.82696
6.74007 26.3088 3.83178
6.78119 26.2916 3.83637
6.82224 26.2745 3.84105
6.86334 26.2574 3.84591
6.90457 26.2404 3.8511
6.94585 26.2233 3.85634
6.98732 26.2063 3.86196
7.02892 26.1893 3.86785
7.071 26.1732 3.87364
7.11307 26.1573 3.87902
7.15527 26.1414 3.88463
7.19765 26.1256 3.89053
7.24023 26.1098 3.89694
7.28273 26.0941 3.90351
7.32547 26.0784 3.9105
7.36825 26.0628 3.9179
7.40178 26.0232 3.93236
7.45523 26.0233 3.93104
7.49595 26.0033 3.94003
7.53684 25.9833 3.94922
7.57776 25.9634 3.95886
7.61874 25.9436 3.96851
7.65975 25.9239 3.97856
7.70052 25.904 3.98905
7.74157 25.8847 3.99947
7.78428 25.8679 4.00838
7.82849 25.8538 4.01621
7.87382 25.8421 4.02311
7.92011 25.8327 4.02935
7.96634 25.8242 4.03539
8.0127 25.8156 4.04157
8.05928 25.8071 4.04778
8.10579 25.7981 4.05421
8.15163 25.7871 4.06132
8.19744 25.776 4.06841
8.24359 25.7659 4.07512
8.2903 25.7585 4.08098
8.33692 25.7511 4.08685
8.38356 25.7437 4.09235
8.43022 25.7362 4.09755
8.47706 25.7286 4.10249
8.52414 25.721 4.10766
8.57134 25.7141 4.11236
8.61858 25.7078 4.11661
8.66624 25.7065 4.11937
8.71368 25.7059 4.12197
8.76084 25.7052 4.12419
8.80775 25.7032 4.12638
8.85441 25.7007 4.12875
8.90079 25.6942 4.13216
8.94706 25.6898 4.13537
8.99319 25.6867 4.13815
9.03894 25.684 4.14048
9.08464 25.6813 4.14263
9.12994 25.6786 4.14422
9.17494 25.6748 4.14566
9.21969 25.6699 4.14698
9.26465 25.665 4.1486
9.3096 25.6601 4.14989
9.35409 25.6523 4.15142
9.39838 25.6434 4.15266
9.44258 25.6345 4.15382
9.48671 25.6256 4.15461
9.53087 25.6166 4.1552
9.57496 25.6076 4.15574
9.61863 25.5974 4.15683
9.66216 25.5862 4.15815
9.70584 25.575 4.15935
9.74975 25.5637 4.16042
9.79361 25.5522 4.16146
9.83779 25.5406 4.16227
9.88222 25.5289 4.16296
9.92692 25.5171 4.16346
9.9715 25.5053 4.16392
10.0163 25.4934 4.16432
10.0614 25.4815 4.16478
10.1067 25.4692 4.16525
10.1517 25.4566 4.16567
10.1971 25.4441 4.16613
10.2426 25.4316 4.16677
10.2759 25.3731 4.17859
10.3355 25.4049 4.16852
10.3806 25.3912 4.17018
10.426 25.3775 4.17206
10.4716 25.3638 4.1743
10.5179 25.3516 4.17614
10.5648 25.3404 4.17789
10.6117 25.3289 4.17973
10.6584 25.3168 4.18191
10.7052 25.3048 4.18419
10.7521 25.2927 4.18652
10.7992 25.2805 4.18884
10.8465 25.2682 4.19108
10.8937 25.2558 4.19322
10.9411 25.2433 4.19518
10.9885 25.2308 4.19703
11.0361 25.2182 4.19888
11.0835 25.205 4.20123
11.1307 25.1911 4.20373
11.178 25.1768 4.20604
11.2239 25.1591 4.20916
11.2697 25.1415 4.21231
11.3158 25.1243 4.21473
11.362 25.1074 4.21671
11.4086 25.0901 4.21818
11.4557 25.0726 4.21967
11.5025 25.054 4.22109
11.5477 25.0316 4.22346
11.5923 25.0093 4.22575
11.6361 24.9879 4.22888
11.6799 24.9666 4.23142
11.7236 24.9474 4.23361
11.7364 24.8584 4.25908
11.8153 24.908 4.24151
11.861 24.8862 4.24632
11.903 24.8643 4.24858
11.9441 24.8427 4.25024
11.9853 24.8211 4.25212
12.026 24.7998 4.25359
12.0663 24.7785 4.25467
12.1064 24.7572 4.25549
12.1469 24.7358 4.25659
12.1873 24.7144 4.25751
12.2276 24.693 4.25817
12.2676 24.6717 4.25846
12.3073 24.6498 4.25882
12.3461 24.6269 4.25923
12.3848 24.604 4.25951
12.4235 24.5812 4.25983
12.4631 24.5596 4.26003
12.5026 24.5378 4.26044
12.5409 24.5139 4.26135
12.5793 24.4899 4.26218
12.6177 24.4659 4.26296
12.6562 24.4418 4.26358
12.6948 24.4176 4.26413
12.7334 24.3934 4.26455
12.7719 24.3692 4.26498
12.8104 24.3448 4.26541
12.8491 24.3203 4.26577
12.8888 24.2968 4.26574
12.9285 24.2734 4.26571
12.9686 24.2498 4.2657
13.0089 24.226 4.26572
13.0526 24.2075 4.26432
13.0895 24.1781 4.2659
13.1299 24.154 4.26614
13.1704 24.1298 4.26648
13.2113 24.1054 4.26693
13.2522 24.081 4.26736
13.2933 24.0566 4.26791
13.3346 24.032 4.26856
13.376 24.0075 4.2693
13.418 23.984 4.2696
13.4624 23.965 4.26902
13.5069 23.9461 4.26845
13.5515 23.9269 4.26785
13.5961 23.9076 4.2673
13.6406 23.8884 4.26676
13.6851 23.8692 4.26621
13.7298 23.8509 4.2656
13.7755 23.8352 4.26479
13.8195 23.8163 4.26422
13.8632 23.7973 4.26374
13.9066 23.7781 4.26347
13.9499 23.7589 4.26321
13.9931 23.7398 4.26315
14.0361 23.7207 4.26327
14.079 23.7017 4.26346
14.1221 23.6826 4.26338
14.1651 23.6636 4.26345
14.2081 23.6445 4.2638
14.2509 23.6256 4.26453
14.2935 23.6067 4.26527
14.336 23.5879 4.26649
14.3787 23.568 4.26801
14.4129 23.5313 4.27026
14.4625 23.5233 4.27202
14.5038 23.5003 4.27425
14.5436 23.4757 4.27632
14.5832 23.4512 4.27885
14.6223 23.4257 4.28151
14.6608 23.3996 4.28446
14.6996 23.3739 4.2874
14.7388 23.349 4.29038
14.7781 23.3244 4.29334
14.8173 23.2998 4.29639
14.8564 23.2752 4.29948
14.8954 23.2508 4.30258
14.9343 23.2264 4.3056
14.9731 23.202 4.30861
15.0119 23.1777 4.31161
15.0508 23.1534 4.31475
15.09 23.1291 4.31811
15.1291 23.1048 4.32145
15.1682 23.0805 4.32463
15.2072 23.0563 4.32749
15.2464 23.0326 4.33025
15.2855 23.0091 4.3325
15.3241 22.9849 4.33454
15.3606 22.9582 4.33641
15.3973 22.9313 4.33859
15.4338 22.9046 4.34044
15.4702 22.8779 4.34188
15.5065 22.8513 4.3427
15.5428 22.8247 4.34342
15.579 22.7982 4.34356
15.615 22.7717 4.34332
15.6503 22.7442 4.34296
15.6875 22.7192 4.34304
15.7239 22.6932 4.34311
15.7621 22.6698 4.34262
15.8002 22.6462 4.34166
15.8381 22.6226 4.34061
15.876 22.5989 4.33893
15.9137 22.5752 4.33688
15.9515 22.5515 4.33445
15.9893 22.5278 4.33229
16.027 22.504 4.32984
16.0647 22.4803 4.32711
16.1024 22.4566 4.32398
16.1401 22.4328 4.32077
16.1777 22.409 4.31735
16.2153 22.3852 4.31385
16.2527 22.3616 4.31047
16.2891 22.3366 4.30754
16.3246 22.3103 4.30501
16.36 22.2838 4.30251
16.3956 22.2572 4.3
16.4312 22.2306 4.29738
16.4671 22.204 4.29465
16.5035 22.1779 4.2918
16.5401 22.1518 4.28893
16.5764 22.1258 4.28615
16.6129 22.0996 4.28333
16.6494 22.073 4.28045
16.6861 22.0461 4.27749
16.7228 22.0192 4.27462
16.7599 21.9921 4.27157
16.7971 21.9648 4.2684
16.8302 21.9313 4.26559
16.8737 21.9126 4.26058
16.9108 21.8849 4.25681
16.948 21.8569 4.25306
16.9855 21.8288 4.24942
17.0231 21.8007 4.24583
17.0609 21.7725 4.24259
17.0986 21.7438 4.23967
17.1364 21.7149 4.23704
17.174 21.686 4.23417
17.2116 21.6572 4.2317
17.2494 21.6283 4.22963
17.2861 21.598 4.22846
17.3222 21.5668 4.22747
17.3584 21.5357 4.22708
17.3946 21.5045 4.22709
17.4308 21.4734 4.22712
17.4669 21.4423 4.2264
17.5028 21.4113 4.22577
17.5388 21.3804 4.22564
17.5744 21.3492 4.22627
17.61 21.3181 4.22693
17.6456 21.2871 4.2286
17.6812 21.2562 4.23096
17.717 21.2252 4.23418
17.7529 21.194 4.23718
17.7889 21.1629 4.24083
17.8238 21.1309 4.24497
17.8581 21.0983 4.24994
17.8924 21.0656 4.25523
17.9266 21.0329 4.26078
17.9608 21.0002 4.26636
17.9569 20.928 4.27355
18.0293 20.9344 4.27508
18.0635 20.9014 4.27826
18.0977 20.8686 4.28153
18.1317 20.8359 4.28512
18.1657 20.8032 4.28899
18.1994 20.7709 4.29381
18.2328 20.7386 4.29926
18.2658 20.7063 4.30542
18.2988 20.6738 4.31107
18.3317 20.6416 4.31766
18.3635 20.6089 4.32517
18.3948 20.5762 4.33406
18.4256 20.5429 4.34315
18.4562 20.5099 4.35332
18.4866 20.477 4.36419
18.5172 20.444 4.37512
18.5479 20.4108 4.38487
18.5787 20.3776 4.39467
18.6093 20.3445 4.40517
18.6398 20.3117 4.41673
18.6702 20.2788 4.4285
18.6999 20.2461 4.44163
18.7274 20.2118 4.45567
18.7547 20.1778 4.47058
18.7821 20.1438 4.48486
18.8093 20.1099 4.49985
18.8371 20.0768 4.51548
18.8657 20.0445 4.53226
18.8944 20.0122 4.54967
18.9213 19.9788 4.56738
18.9479 19.945 4.58561
18.9461 19.8885 4.6023
19.0011 19.8773 4.61943
19.0274 19.8433 4.63471
19.0545 19.8101 4.65007
19.082 19.7778 4.6655
19.1093 19.7448 4.68135
19.1357 19.7112 4.6979
19.162 19.6778 4.71486
19.1881 19.6446 4.73227
19.2142 19.6114 4.74928
19.2401 19.5784 4.76687
19.2659 19.5455 4.78504
19.2914 19.5129 4.8041
19.3169 19.4803 4.82322
19.3423 19.4479 4.84309
19.3673 19.4152 4.86345
19.3914 19.3819 4.88397
19.416 19.3485 4.90385
19.4416 19.3158 4.92397
19.467 19.2832 4.94447
19.4923 19.2506 4.96552
19.5177 19.2182 4.98669
19.5434 19.1864 5.0085
19.5697 19.1553 5.03074
19.5953 19.124 5.05313
19.6169 19.0893 5.07455
19.6385 19.0544 5.09636
19.6601 19.0194 5.11842
19.6815 18.9847 5.14085
19.7022 18.9509 5.16335
19.7248 18.9179 5.18635
19.7481 18.8862 5.2096
19.7438 18.8273 5.22543
19.7972 18.8197 5.25674
19.8205 18.7837 5.27952
19.842 18.7484 5.3012
19.8637 18.713 5.32255
19.8856 18.6776 5.34396
19.9086 18.6433 5.36559
19.9314 18.6087 5.38703
19.9512 18.5721 5.4075
19.9711 18.5356 5.42816
19.9918 18.4997 5.44897
20.0126 18.4638 5.46965
20.0335 18.4279 5.49009
20.0544 18.3919 5.51042
20.0754 18.3558 5.53057
20.0965 18.3197 5.55061
20.1176 18.2835 5.57076
20.139 18.2478 5.5914
20.1606 18.2122 5.6121
20.1823 18.1764 5.63261
20.2042 18.1405 5.65284
20.2259 18.1046 5.67301
20.2476 18.0683 5.69261
20.2694 18.032 5.71189
20.2916 17.9955 5.73071
20.3137 17.9589 5.7496
20.3352 17.9217 5.76784
20.3584 17.8856 5.78633
20.3834 17.851 5.80514
20.4076 17.8158 5.82359
20.4319 17.7806 5.84189
20.4592 17.7476 5.86101
20.491 17.7195 5.8824
20.5117 17.6805 5.89881
20.5363 17.6463 5.91858
20.5609 17.6122 5.93813
20.5857 17.578 5.95739
20.6106 17.5439 5.97647
20.636 17.5098 5.9949
20.6615 17.4757 6.01291
20.6874 17.4416 6.03049
20.7131 17.4075 6.04842
20.7391 17.3733 6.06582
20.7654 17.3392 6.08267
20.7923 17.3051 6.09873
20.8189 17.2704 6.11445
20.8432 17.2331 6.12787
20.8678 17.196 6.14088
20.8922 17.1589 6.1538
20.9162 17.122 6.16736
20.94 17.0852 6.18082
20.964 17.0484 6.19388
20.9882 17.0116 6.20643
21.0156 16.9774 6.22079
21.0451 16.9444 6.23539
21.0748 16.9112 6.24951
21.1051 16.878 6.26283
21.1353 16.8447 6.276
21.1658 16.8116 6.28844
21.1958 16.7778 6.3003
21.2243 16.7423 6.31099
21.2522 16.7062 6.32135
21.2804 16.6698 6.33166
21.3085 16.6334 6.34197
21.3127 16.5759 6.34461
21.3649 16.5599 6.36433
21.3926 16.5228 6.37628
21.4188 16.4854 6.38786
21.4451 16.4479 6.39942
21.4714 16.4104 6.41081
21.498 16.3728 6.42177
21.5246 16.3352 6.43246
21.5514 16.2975 6.44281
21.5781 16.2599 6.45336
21.605 16.2223 6.46341
21.632 16.1846 6.47301
21.6588 16.1465 6.48173
21.6853 16.1082 6.49032
21.7119 16.0699 6.49834
21.7376 16.0307 6.50559
21.7633 15.9915 6.51271
21.789 15.9524 6.52043
21.8148 15.9133 6.52805
21.8406 15.8743 6.53532
21.8667 15.8355 6.54211
21.8929 15.7968 6.54883
21.9191 15.7582 6.55498
21.9455 15.7196 6.56077
21.9719 15.681 6.56628
21.9984 15.6421 6.57209
22.0262 15.6042 6.57816
22.0531 15.566 6.58374
22.0778 15.5264 6.58819
22.1025 15.4867 6.59253
22.1271 15.4473 6.59685
22.1515 15.408 6.60132
22.1535 15.3537 6.59709
22.2004 15.3296 6.61114
22.2248 15.2903 6.6164
22.249 15.2513 6.62174
22.273 15.2124 6.62712
22.2986 15.1744 6.63304
22.3248 15.1374 6.6391
22.3482 15.0985 6.64399
22.3716 15.0598 6.64877
22.3948 15.0209 6.65352
22.4168 14.9813 6.65756
22.4388 14.9418 6.66142
22.4609 14.9023 6.66502
22.4837 14.8634 6.66896
22.5074 14.8249 6.673
22.5307 14.7862 6.67663
22.5539 14.7475 6.68011
22.5771 14.7088 6.68374
22.6003 14.6702 6.68729
22.6236 14.6315 6.6907
22.6464 14.5924 6.69374
22.6691 14.5533 6.69672
22.6912 14.5136 6.69925
22.7141 14.4743 6.70197
22.7371 14.435 6.70457
22.76 14.3958 6.70719
22.7825 14.3562 6.7096
22.8047 14.3163 6.71182
22.8271 14.2762 6.71404
22.8494 14.2361 6.71632
22.8718 14.1958 6.71863
22.8942 14.1554 6.72112
22.8784 14.0919 6.70897
22.9389 14.0684 6.72154
22.958 14.0264 6.72349
22.9772 13.9841 6.72549
22.9964 13.9418 6.72774
23.0157 13.8994 6.72986
23.035 13.8568 6.73203
23.0544 13.8141 6.73428
23.0738 13.7713 6.7365
23.0932 13.7285 6.73864
23.1125 13.6856 6.74063
23.1305 13.642 6.74223
23.147 13.5976 6.7433
23.1628 13.5529 6.74422
23.1787 13.5082 6.74507
23.1947 13.4634 6.74586
23.2106 13.4187 6.74665
23.2264 13.3741 6.74756
23.2422 13.3297 6.74844
23.258 13.2854 6.74921
23.2735 13.2411 6.74981
23.2884 13.1966 6.75033
23.3028 13.1519 6.75051
23.3173 13.1073 6.75054
23.3319 13.0625 6.75018
23.3466 13.0175 6.7496
23.3614 12.9725 6.74881
23.3766 12.9277 6.74811
23.3947 12.8842 6.74841
23.4124 12.8414 6.74918
23.4281 12.7974 6.7484
23.4432 12.7538 6.74757
23.4934 12.7211 6.75923
23.4839 12.6632 6.74108
23.5045 12.6217 6.74198
23.5231 12.5788 6.74198
23.5415 12.5364 6.74151
23.5596 12.4931 6.74185
23.5776 12.4499 6.74231
23.5964 12.4074 6.74305
23.6181 12.3668 6.74568
23.6408 12.3267 6.74886
23.6633 12.2868 6.75156
23.6849 12.2465 6.75351
23.7066 12.2065 6.75536
23.7282 12.1663 6.75728
23.7499 12.1263 6.75917
23.7715 12.0863 6.761
23.7931 12.0465 6.76284
23.8147 12.0066 6.76473
23.8362 11.9666 6.76668
23.8579 11.9268 6.76876
23.8797 11.887 6.7709
23.9027 11.8478 6.77382
23.9265 11.8091 6.77734
23.9503 11.7702 6.78091
23.9742 11.7313 6.78456
23.9979 11.6925 6.78819
24.0203 11.6527 6.79093
24.0422 11.6124 6.79331
24.064 11.5719 6.79583
24.0859 11.5314 6.79834
24.1077 11.4907 6.80097
24.1296 11.4498 6.80373
24.1253 11.393 6.78554
24.1739 11.3663 6.80857
24.195 11.3243 6.81088
24.2158 11.2825 6.81297
24.2367 11.2405 6.81515
24.2575 11.1985 6.81731
24.2783 11.1565 6.81947
24.2987 11.1142 6.82152
24.3165 11.0709 6.8213
24.3341 11.0277 6.82074
24.3517 10.9846 6.8201
24.3692 10.9415 6.81951
24.3867 10.8984 6.81897
24.4043 10.8551 6.81849
24.4224 10.8122 6.81867
24.44 10.769 6.81847
24.4562 10.7254 6.81722
24.4723 10.6819 6.81588
24.4875 10.6381 6.81381
24.5026 10.5944 6.81178
24.5178 10.5507 6.80971
24.533 10.5071 6.80751
24.5481 10.4635 6.80538
24.5632 10.4198 6.80336
24.5782 10.3759 6.80164
24.593 10.3317 6.80011
24.609 10.2878 6.7998
24.6263 10.2445 6.8004
24.6436 10.2006 6.80119
24.663 10.1566 6.80279
24.6863 10.1142 6.80654
24.7073 10.0716 6.81018
24.7547 10.0433 6.82699
24.7485 9.98707 6.81579
24.7693 9.94532 6.81748
24.7901 9.90383 6.81905
24.8109 9.8626 6.82041
24.8329 9.82196 6.8226
24.8553 9.78153 6.82497
24.8778 9.74109 6.82723
24.9003 9.70063 6.82955
24.9228 9.66016 6.83199
24.9451 9.61969 6.83459
24.9667 9.57874 6.83679
24.988 9.53773 6.83898
25.0079 9.49591 6.84042
25.0277 9.45403 6.84179
25.0475 9.41212 6.84316
25.0682 9.37071 6.84492
25.0901 9.32998 6.84721
25.112 9.28923 6.84948
25.1339 9.24847 6.85176
25.1545 9.20695 6.85347
25.1748 9.16532 6.85507
25.1952 9.12365 6.85669
25.2156 9.08192 6.85832
25.2359 9.04019 6.85999
25.2562 8.99851 6.86166
25.2765 8.9568 6.86335
25.2969 8.91499 6.86508
25.3168 8.87297 6.86661
25.3375 8.83147 6.86842
25.3594 8.79061 6.87072
25.3814 8.74972 6.87297
25.3858 8.69855 6.86804
25.4259 8.6667 6.87783
25.4477 8.6246 6.88006
25.4678 8.58227 6.88131
25.488 8.53987 6.88254
25.5081 8.49746 6.88379
25.5283 8.45498 6.88511
25.5484 8.41248 6.88645
25.5673 8.36937 6.88732
25.5859 8.32621 6.88807
25.6051 8.28332 6.88917
25.6247 8.24058 6.89048
25.6441 8.19782 6.89189
25.6636 8.15504 6.89331
25.6831 8.11223 6.89481
25.7025 8.06941 6.89639
25.7216 8.02641 6.89785
25.7398 7.98307 6.89891
25.758 7.93965 6.89993
25.7752 7.89587 6.90071
25.7925 7.85204 6.9016
25.8115 7.80875 6.90314
25.8264 7.76405 6.90336
25.8413 7.71933 6.90363
25.8558 7.67449 6.90381
25.8726 7.63049 6.9048
25.8852 7.58502 6.90424
25.8978 7.53969 6.90362
25.9103 7.49435 6.90311
25.9228 7.44904 6.90266
25.9353 7.40372 6.90223
25.948 7.35848 6.90187
25.9755 7.31711 6.90801
25.9757 7.26708 6.90068
25.991 7.22258 6.90118
26.0072 7.17846 6.90216
26.0234 7.13442 6.90311
26.0396 7.09043 6.90418
26.0558 7.04655 6.90529
26.0726 7.003 6.90682
26.0902 6.95982 6.90876
26.1077 6.91665 6.91071
26.1252 6.87352 6.91268
26.1428 6.83044 6.91474
26.1606 6.78744 6.91696
26.1799 6.74504 6.92007
26.2001 6.70307 6.92373
26.218 6.66001 6.92588
26.236 6.61686 6.92814
26.2538 6.57368 6.93052
26.2717 6.53041 6.93297
26.2895 6.48711 6.93541
26.3075 6.4438 6.93778
26.3254 6.40057 6.94011
26.3441 6.35769 6.94281
26.3631 6.31488 6.94551
26.3822 6.27196 6.94813
26.4019 6.22919 6.9513
26.4232 6.18718 6.95545
26.4455 6.14577 6.96012
26.4681 6.10434 6.96454
26.4921 6.06375 6.96993
26.5168 6.02369 6.97548
26.5398 5.98289 6.97958
26.569 5.9462 6.98828
26.5845 5.90116 6.98704
26.6067 5.86048 6.9908
26.6289 5.81997 6.9944
26.6522 5.78024 6.99855
26.675 5.74005 7.0023
26.6956 5.69853 7.00398
26.7152 5.65652 7.00473
26.7349 5.61432 7.00526
26.7555 5.57259 7.00669
26.7769 5.53101 7.00852
26.7984 5.48937 7.01023
26.82 5.4476 7.01181
26.8417 5.40579 7.01337
26.8633 5.36391 7.01478
26.8856 5.3223 7.01653
26.908 5.28101 7.01848
26.9301 5.23991 7.02041
26.9518 5.19866 7.02211
26.9733 5.15727 7.02375
26.995 5.11564 7.02545
27.0168 5.07388 7.02716
27.0387 5.03177 7.02891
27.0607 4.98941 7.03069
27.0828 4.94694 7.03246
27.1047 4.90487 7.03412
27.1265 4.86241 7.03561
27.1484 4.81953 7.0372
27.1707 4.77596 7.03882
27.1929 4.73211 7.04016
27.2151 4.6872 7.04118
27.2373 4.64184 7.04228
27.2312 4.58149 7.02452
27.282 4.54992 7.04444
27.3038 4.50411 7.04535
27.3251 4.45781 7.04619
27.3462 4.41085 7.04694
27.3672 4.36389 7.04791
27.3882 4.31667 7.04909
27.4085 4.26893 7.04986
27.4287 4.22117 7.05056
27.4471 4.17295 7.04986
27.4642 4.12428 7.04827
27.4825 4.0759 7.0476
27.5009 4.02756 7.04744
27.5193 3.97919 7.04744
27.5375 3.93076 7.04766
27.5549 3.88205 7.04736
27.5725 3.83328 7.04708
27.5902 3.78423 7.04635
27.6079 3.73531 7.04552
27.6248 3.68635 7.04424
27.6416 3.63789 7.04328
27.6592 3.58978 7.04297
27.6763 3.54217 7.04283
27.6932 3.49496 7.04284
27.7082 3.44749 7.04189
27.7228 3.39941 7.0404
27.7371 3.35169 7.03909
27.7514 3.30449 7.03802
27.7652 3.25809 7.03727
27.7791 3.21181 7.03656
27.7925 3.16627 7.03607
27.8055 3.12164 7.03598
27.8028 3.07177 7.02457
27.8349 3.03219 7.03683
27.8507 2.98714 7.03733
27.8638 2.94236 7.03683
27.8777 2.89856 7.03717
27.8917 2.85488 7.0377
27.9044 2.81169 7.03774
27.9152 2.76859 7.03683
27.9258 2.726 7.03603
27.9365 2.68305 7.03487
27.9469 2.64055 7.03372
27.9578 2.59867 7.03329
27.9684 2.55738 7.03308
27.9786 2.51602 7.03262
27.9885 2.47502 7.03234
27.9982 2.43422 7.03218
28.0079 2.39344 7.0321
28.0178 2.35241 7.03193
28.0277 2.31119 7.0318
28.0369 2.2698 7.03115
28.0459 2.22834 7.03049
28.0549 2.18693 7.02982
28.0639 2.14551 7.02919
28.0729 2.10401 7.02858
28.0818 2.06256 7.02804
28.0909 2.02133 7.02779
28.1006 1.98014 7.02798
28.1104 1.93879 7.02808
28.1204 1.89712 7.02805
28.1305 1.8554 7.02803
28.1408 1.8133 7.02779
28.1512 1.77084 7.02744
28.1599 1.72788 7.02496
28.1733 1.68647 7.02657
28.1863 1.6445 7.02729
28.1982 1.60186 7.02698
28.2104 1.5587 7.02645
28.2226 1.51552 7.02593
28.235 1.47184 7.02526
28.2476 1.42782 7.02448
28.2586 1.38304 7.02236
28.2708 1.33888 7.02124
28.2843 1.29495 7.02113
28.298 1.25077 7.02101
28.3107 1.20606 7.02027
28.3213 1.16086 7.01824
28.3308 1.11511 7.01551
28.3428 1.06965 7.01413
28.3547 1.02415 7.01289
28.3664 0.978918 7.0115
28.3781 0.93385 7.01015
28.389 0.8886 7.00849
28.3991 0.84309 7.00646
28.4093 0.797429 7.00439
28.4159 0.75095 7.00046
28.4215 0.704376 6.99622
28.4271 0.65778 6.99192
28.4327 0.611408 6.98762
28.4384 0.565061 6.98333
28.4476 0.518797 6.98063
28.4587 0.472784 6.97862
28.4698 0.427136 6.97633
28.4808 0.381635 6.97394
28.4914 0.336008 6.97156
28.4796 0.285305 6.96214
28.5114 0.243135 6.96607
28.5203 0.197197 6.96335
28.5292 0.151283 6.96071
28.538 0.105526 6.95817
28.5462 0.059693 6.95545
28.5527 0.0136737 6.95225
28.5587 -0.0324336 6.94904
28.5647 -0.0784814 6.94587
28.5707 -0.124442 6.94255
28.5766 -0.170324 6.93915
28.5823 -0.216198 6.93576
28.5881 -0.262066 6.93241
28.5939 -0.307978 6.92905
28.5972 -0.354173 6.92518
28.6004 -0.400355 6.92139
28.6036 -0.446554 6.9177
28.6069 -0.492706 6.91402
28.61 -0.538883 6.91045
28.6132 -0.585089 6.90696
28.6163 -0.631383 6.90357
28.6195 -0.677747 6.90016
28.6221 -0.724183 6.89667
28.6269 -0.770593 6.89377
28.6323 -0.816675 6.89095
28.6377 -0.862211 6.88801
28.6431 -0.907596 6.885
28.6448 -0.953927 6.88123
28.6427 -1.00044 6.87624
28.6424 -1.04659 6.87165
28.6427 -1.0929 6.86681
28.6429 -1.13923 6.86203
28.6787 -1.18755 6.86832
28.6556 -1.23827 6.85056
28.6626 -1.28406 6.84792
28.6696 -1.33019 6.84522
28.6767 -1.37644 6.84247
28.6838 -1.42304 6.83964
28.6903 -1.46981 6.8364
28.6947 -1.51652 6.83213
28.6991 -1.56323 6.8279
28.7043 -1.61017 6.82379
28.7141 -1.65654 6.82276
28.7239 -1.70293 6.82171
28.7339 -1.74941 6.82048
28.7433 -1.79599 6.81877
28.7528 -1.84256 6.81702
28.7634 -1.88892 6.81611
28.7745 -1.93508 6.81582
28.785 -1.98131 6.8153
28.7946 -2.02753 6.81444
28.8037 -2.07375 6.81328
28.8127 -2.11986 6.8122
28.8217 -2.16598 6.81109
28.8308 -2.21201 6.80996
28.8398 -2.258 6.80883
28.8494 -2.30383 6.80813
28.8608 -2.34932 6.8088
28.8724 -2.39487 6.80945
28.884 -2.44043 6.81004
28.8957 -2.48599 6.81055
28.9074 -2.53149 6.81108
28.9191 -2.57702 6.81159
28.9308 -2.62257 6.81206
28.9542 -2.66517 6.82292
28.9544 -2.71406 6.81296
28.9663 -2.75992 6.81344
28.9782 -2.80567 6.81417
28.9903 -2.85128 6.81507
29.0037 -2.89645 6.81709
29.0173 -2.94141 6.81941
29.0308 -2.98639 6.82158
29.0444 -3.03119 6.82383
29.0582 -3.07592 6.82619
29.0719 -3.12049 6.82852
29.0856 -3.16497 6.83084
29.0993 -3.20934 6.83313
29.113 -3.25373 6.83542
29.1275 -3.29778 6.83845
29.1395 -3.34257 6.83944
29.1516 -3.38748 6.84038
29.1638 -3.43254 6.8413
29.176 -3.47769 6.84218
29.1856 -3.52358 6.84084
29.1977 -3.56865 6.8418
29.2091 -3.61387 6.84231
29.2195 -3.65914 6.84207
29.2299 -3.70435 6.84179
29.2405 -3.74941 6.84124
29.2513 -3.79443 6.84041
29.262 -3.83945 6.83918
29.2725 -3.88431 6.8379
29.2817 -3.92982 6.83604
29.2905 -3.97583 6.83426
29.2979 -4.02282 6.83205
29.3051 -4.07001 6.83001
29.2602 -4.12406 6.78716
29.3194 -4.16601 6.82652
29.3265 -4.2141 6.8248
29.3335 -4.262 6.82309
29.3375 -4.30916 6.81865
29.3415 -4.35536 6.81374
29.3457 -4.40064 6.80867
29.3499 -4.44598 6.8038
29.3537 -4.49106 6.79848
29.3565 -4.53618 6.79213
29.3601 -4.58118 6.78646
29.3628 -4.62609 6.77994
29.3655 -4.67097 6.77338
29.368 -4.7159 6.76672
29.37 -4.76088 6.75966
29.3715 -4.80586 6.75227
29.3731 -4.85095 6.74521
29.375 -4.89601 6.73836
29.3767 -4.94119 6.73158
29.3794 -4.98653 6.72561
29.3826 -5.03205 6.72007
29.3859 -5.07756 6.7145
29.3891 -5.1232 6.70887
29.3927 -5.16896 6.70339
29.3971 -5.21477 6.69853
29.4011 -5.26047 6.69345
29.404 -5.30618 6.68737
29.407 -5.35197 6.68119
29.4102 -5.39792 6.67482
29.4128 -5.44388 6.66793
29.415 -5.49 6.66041
29.4174 -5.5362 6.65285
29.4096 -5.58185 6.6379
29.4222 -5.6288 6.63775
29.4247 -5.67514 6.63021
29.4264 -5.72142 6.62202
29.4266 -5.76765 6.61249
29.4269 -5.81363 6.60288
29.4272 -5.85964 6.59317
29.4275 -5.90578 6.58344
29.4279 -5.95204 6.57368
29.4282 -5.99828 6.56393
29.4295 -6.04474 6.55499
29.4307 -6.09128 6.54608
29.4329 -6.13792 6.53807
29.4373 -6.18458 6.53173
29.4416 -6.23137 6.5255
29.4458 -6.27835 6.5193
29.4476 -6.32523 6.51139
29.4507 -6.37215 6.50429
29.455 -6.41915 6.49821
29.4591 -6.46622 6.49228
29.4632 -6.51339 6.48654
29.4672 -6.56055 6.48075
29.4727 -6.60777 6.47636
29.4783 -6.65501 6.47241
29.4833 -6.70231 6.46851
29.4882 -6.74955 6.46461
29.493 -6.7968 6.46092
29.4977 -6.84413 6.45716
29.5016 -6.89139 6.45322
29.5052 -6.93849 6.44942
29.5085 -6.98554 6.44535
29.512 -7.03271 6.4414
29.5449 -7.07941 6.45451
29.5198 -7.12769 6.43205
29.5242 -7.17531 6.42667
29.5286 -7.22288 6.42128
29.5351 -7.26991 6.41733
29.5422 -7.31641 6.41386
29.5489 -7.3626 6.41086
29.5549 -7.40901 6.40797
29.5587 -7.45564 6.40412
29.5624 -7.50246 6.39987
29.5673 -7.54932 6.39729
29.5745 -7.5959 6.39705
29.5787 -7.64259 6.3956
29.5858 -7.68901 6.39623
29.5932 -7.73536 6.39761
29.6003 -7.7817 6.39924
29.6074 -7.82798 6.40099
29.6147 -7.87425 6.40243
29.6219 -7.92041 6.40399
29.6288 -7.9665 6.40581
29.6345 -8.01261 6.40707
29.6386 -8.05891 6.40669
29.6434 -8.10503 6.4079
29.6479 -8.15112 6.40944
29.652 -8.19726 6.41123
29.6565 -8.24351 6.41271
29.6631 -8.28948 6.4171
29.6654 -8.33589 6.41788
29.668 -8.38218 6.41963
29.6737 -8.42796 6.42432
29.6805 -8.47382 6.43005
29.6854 -8.52003 6.43391
29.6933 -8.56622 6.44012
29.6953 -8.61353 6.4398
29.7012 -8.66034 6.44289
29.7072 -8.70723 6.44604
29.713 -8.75423 6.44931
29.7188 -8.80125 6.45264
29.7255 -8.84793 6.45764
29.7327 -8.89431 6.46392
29.7399 -8.94047 6.47073
29.7472 -8.98656 6.47733
29.7532 -9.03261 6.48338
29.7588 -9.07857 6.48973
29.7637 -9.12434 6.49654
29.7687 -9.17007 6.50335
29.7731 -9.21576 6.51055
29.7765 -9.26164 6.51732
29.779 -9.30788 6.52326
29.7802 -9.35466 6.52629
29.7813 -9.40183 6.52945
29.782 -9.44902 6.53287
29.7822 -9.4964 6.53673
29.7822 -9.54403 6.54071
29.7794 -9.59159 6.54209
29.7728 -9.63868 6.53884
29.7651 -9.68583 6.53507
29.7576 -9.73259 6.53133
29.7497 -9.77931 6.52784
29.7414 -9.82629 6.52455
29.7332 -9.87322 6.52125
29.7272 -9.92035 6.52012
29.7217 -9.96752 6.51913
29.7134 -10.0149 6.51639
29.6908 -10.0593 6.49504
29.7002 -10.1119 6.51124
29.6937 -10.1604 6.5075
29.6834 -10.2048 6.49873
29.6738 -10.2495 6.49051
29.668 -10.2962 6.48726
29.662 -10.3435 6.48408
29.6557 -10.3904 6.48121
29.6489 -10.4372 6.47838
29.6426 -10.4842 6.47594
29.637 -10.5314 6.47563
29.6309 -10.5784 6.47576
29.6248 -10.6253 6.47741
29.6192 -10.6722 6.47985
29.6134 -10.7189 6.48315
29.6046 -10.7652 6.48391
29.5981 -10.8119 6.48743
29.5927 -10.8587 6.49076
29.5858 -10.9054 6.49259
29.5781 -10.9518 6.49459
29.5698 -10.9979 6.49721
29.5609 -11.044 6.4993
29.5501 -11.0896 6.50089
29.5393 -11.1351 6.50385
29.5292 -11.1806 6.50893
29.5191 -11.2261 6.51331
29.5086 -11.2715 6.51801
29.4977 -11.3167 6.52304
29.4861 -11.3618 6.52858
29.4744 -11.4067 6.53431
29.4624 -11.4516 6.54018
29.4505 -11.4965 6.54608
29.4405 -11.5419 6.55321
29.4313 -11.5876 6.55949
29.4204 -11.6333 6.56273
29.4087 -11.6789 6.56529
29.397 -11.7243 6.56801
29.385 -11.7696 6.57097
29.3724 -11.8147 6.57454
29.3593 -11.8601 6.57849
29.342 -11.9036 6.5786
29.3295 -11.9488 6.58314
29.3204 -11.9943 6.59197
29.3104 -12.0397 6.6012
29.2954 -12.0837 6.60804
29.2804 -12.1275 6.61494
29.2647 -12.1707 6.62272
29.2487 -12.2135 6.63111
29.2354 -12.2566 6.64216
29.2238 -12.3002 6.65345
29.2114 -12.3436 6.66404
29.1975 -12.3864 6.67401
29.1832 -12.4287 6.68498
29.1705 -12.471 6.69753
29.1561 -12.5126 6.71011
29.1412 -12.5537 6.72322
29.1258 -12.5944 6.73703
29.1108 -12.6353 6.75067
29.0954 -12.676 6.7647
29.0798 -12.7164 6.77892
29.0637 -12.7566 6.79376
29.047 -12.7969 6.80925
29.0283 -12.8371 6.82252
29.0096 -12.8775 6.8357
28.9682 -12.9155 6.82341
28.9743 -12.9595 6.85958
28.958 -13.0011 6.87025
28.9418 -13.0429 6.881
28.9269 -13.0843 6.8923
28.9109 -13.1251 6.90331
28.8908 -13.1653 6.91101
28.8714 -13.2061 6.92011
28.8547 -13.2472 6.93245
28.838 -13.288 6.94491
28.8206 -13.328 6.95753
28.7999 -13.3671 6.96728
28.7785 -13.4055 6.97779
28.7564 -13.444 6.98795
28.7334 -13.4817 6.99809
28.7114 -13.5194 7.01063
28.6896 -13.5569 7.02309
28.668 -13.5949 7.03403
28.645 -13.6326 7.04288
28.6213 -13.6698 7.05179
28.5967 -13.7064 7.06138
28.5719 -13.7428 7.07117
28.5461 -13.7786 7.0818
28.5256 -13.8153 7.0979
28.4988 -13.8511 7.1141
28.473 -13.8869 7.12731
28.4473 -13.923 7.14029
28.4189 -13.9581 7.15143
28.3903 -13.9929 7.16292
28.3617 -14.027 7.1748
28.3328 -14.0616 7.1867
28.3184 -14.0867 7.20547
28.2419 -14.1179 7.17778
28.2708 -14.1822 7.235
28.2428 -14.2199 7.24761
28.2142 -14.257 7.25881
28.1832 -14.2935 7.26892
28.1534 -14.3295 7.27804
28.125 -14.3654 7.28808
28.0978 -14.4013 7.3003
28.0685 -14.436 7.31042
28.0397 -14.4716 7.31961
28.0122 -14.508 7.33182
27.9778 -14.5407 7.33971
27.9392 -14.5704 7.34543
27.901 -14.5993 7.35081
27.8627 -14.6279 7.35683
