BEGIN_Polyline
-17.4411 -2.43626 6.46593
-17.457 -2.48109 6.46253
-17.4727 -2.52594 6.45914
-17.4875 -2.57117 6.45602
-17.5031 -2.61559 6.45233
-17.5028 -2.66651 6.45447
-17.5356 -2.7054 6.44472
-17.5499 -2.75041 6.44155
-17.5642 -2.7953 6.43837
-17.5785 -2.83999 6.4352
-17.5928 -2.88466 6.43196
-17.6072 -2.92916 6.42877
-17.6214 -2.97352 6.4256
-17.6357 -3.01778 6.42249
-17.6501 -3.06211 6.41934
-17.6636 -3.1067 6.41661
-17.677 -3.15119 6.41393
-17.6904 -3.19556 6.41129
-17.7038 -3.23993 6.40866
-17.7179 -3.28395 6.40574
-17.7323 -3.32785 6.40275
-17.7466 -3.37173 6.39976
-17.7606 -3.41581 6.39689
-17.7732 -3.46035 6.39458
-17.7868 -3.50458 6.39186
-17.8008 -3.54867 6.38901
-17.814 -3.59299 6.3865
-17.8265 -3.63751 6.3843
-17.839 -3.68204 6.3821
-17.8516 -3.72654 6.37993
-17.8641 -3.77098 6.37774
-17.8766 -3.81545 6.37556
-17.8891 -3.86 6.37337
-17.9017 -3.90462 6.37122
-17.9143 -3.94919 6.36913
-17.9269 -3.99394 6.36702
-17.9396 -4.03879 6.36498
-17.9247 -4.0923 6.37438
-17.9672 -4.1275 6.35718
-17.9804 -4.17398 6.3548
-17.9919 -4.21965 6.3534
-18.0034 -4.26552 6.35205
-18.0148 -4.31119 6.35075
-18.0264 -4.35679 6.34947
-18.0379 -4.40244 6.34821
-18.0496 -4.44807 6.34688
-18.0612 -4.49368 6.34552
-18.0728 -4.53927 6.34407
-18.0843 -4.58485 6.34257
-18.0957 -4.63042 6.34105
-18.1068 -4.67609 6.33968
-18.1181 -4.72163 6.33807
-18.1298 -4.76701 6.33617
-18.1414 -4.81238 6.33427
-18.1505 -4.85844 6.33369
-18.1596 -4.90452 6.33311
-18.1687 -4.95054 6.33245
-18.1776 -4.99646 6.33169
-18.1866 -5.04234 6.33092
-18.1955 -5.08809 6.33001
-18.2047 -5.13367 6.32888
-18.2133 -5.17927 6.32786
-18.2214 -5.22515 6.32725
-18.2292 -5.27097 6.32666
-18.2372 -5.3166 6.32586
-18.2455 -5.36195 6.32478
-18.2538 -5.40728 6.32367
-18.262 -5.45239 6.32247
-18.2697 -5.4974 6.32141
-18.2787 -5.54212 6.3198
-18.2838 -5.58767 6.32008
-18.2911 -5.63277 6.31938
-18.2989 -5.67763 6.31844
-18.3066 -5.72229 6.31742
-18.3143 -5.76693 6.31637
-18.322 -5.8114 6.31519
-18.33 -5.8557 6.31373
-18.3383 -5.89988 6.31207
-18.3467 -5.94415 6.31047
-18.355 -5.98842 6.30879
-18.364 -6.03248 6.3067
-18.373 -6.07651 6.30448
-18.3827 -6.1204 6.30192
-18.3931 -6.16407 6.29891
-18.4036 -6.20774 6.29583
-18.4142 -6.25128 6.29265
-18.4248 -6.29471 6.28953
-18.4355 -6.33815 6.28641
-18.4461 -6.38167 6.28325
-18.4568 -6.42533 6.28006
-18.4674 -6.46904 6.27688
-18.4779 -6.51303 6.27374
-18.4884 -6.55718 6.27058
-18.4989 -6.60147 6.26737
-18.5094 -6.6456 6.26417
-18.52 -6.68989 6.26091
-18.5308 -6.73432 6.25752
-18.5418 -6.7791 6.25417
-18.553 -6.82391 6.25079
-18.5651 -6.86881 6.2471
-18.5771 -6.91388 6.24342
-18.5959 -6.95687 6.23603
-18.6012 -7.00371 6.23595
-18.6131 -7.04847 6.23215
-18.6241 -7.09375 6.22894
-18.6352 -7.13929 6.22572
-18.6463 -7.18492 6.22254
-18.6576 -7.23092 6.21941
-18.6691 -7.27709 6.21622
-18.6808 -7.3234 6.21291
-18.6925 -7.36948 6.20946
-18.7045 -7.41567 6.20593
-18.7166 -7.46204 6.20244
-18.7287 -7.50869 6.19901
-18.7409 -7.5554 6.19553
-18.7522 -7.60257 6.1927
-18.7671 -7.64899 6.18842
-18.7777 -7.69619 6.18594
-18.7908 -7.74279 6.18251
-18.8039 -7.78932 6.1792
-18.817 -7.83589 6.17598
-18.8302 -7.88247 6.17278
-18.8411 -7.92978 6.17051
-18.8501 -7.97759 6.16894
-18.8606 -8.02515 6.16699
-18.8714 -8.07266 6.16494
-18.8812 -8.12035 6.16307
-18.8909 -8.16801 6.16113
-18.9007 -8.21568 6.15915
-18.9104 -8.26333 6.15714
-18.9192 -8.31116 6.1554
-18.9279 -8.35899 6.15361
-18.937 -8.40671 6.15169
-18.9472 -8.45421 6.14937
-18.9552 -8.50224 6.14749
-18.9643 -8.54998 6.14521
-18.9734 -8.59762 6.14287
-18.9825 -8.64512 6.14047
-18.9917 -8.69263 6.13809
-19.0023 -8.73961 6.13538
-19.0133 -8.78636 6.1326
-19.0246 -8.83294 6.1298
-19.0358 -8.87958 6.12697
-19.047 -8.92609 6.12423
-19.0582 -8.97249 6.12157
-19.0694 -9.0187 6.11905
-19.0805 -9.06487 6.11654
-19.0917 -9.11094 6.11416
-19.1029 -9.15695 6.11189
-19.1141 -9.20305 6.1097
-19.1257 -9.24925 6.10731
-19.1378 -9.29542 6.10491
-19.1499 -9.34152 6.10261
-19.1619 -9.38748 6.10043
-19.174 -9.43341 6.09822
-19.1867 -9.47889 6.09603
-19.2015 -9.52357 6.09348
-19.2163 -9.56819 6.09123
-19.2312 -9.61297 6.08912
-19.2462 -9.65765 6.08716
-19.2613 -9.70213 6.08512
-19.2766 -9.74612 6.08298
-19.2949 -9.78855 6.07963
-19.3099 -9.83245 6.07784
-19.3222 -9.87654 6.07704
-19.3473 -9.91722 6.06979
-19.3523 -9.9648 6.06986
-19.3676 -10.0086 6.06695
-19.3819 -10.0526 6.0642
-19.3958 -10.0967 6.06161
-19.4098 -10.1407 6.05904
-19.4237 -10.1846 6.05657
-19.4365 -10.2287 6.0545
-19.449 -10.2728 6.05259
-19.4615 -10.317 6.05061
-19.4768 -10.3603 6.04792
-19.4934 -10.4028 6.04458
-19.5084 -10.4456 6.04245
-19.5214 -10.4891 6.0414
-19.5333 -10.5329 6.04127
-19.5453 -10.5765 6.04136
-19.5595 -10.6195 6.04036
-19.5739 -10.6625 6.0391
-19.5876 -10.7056 6.03806
-19.5993 -10.7493 6.03781
-19.6157 -10.7917 6.03666
-19.6306 -10.8345 6.03589
-19.6442 -10.8776 6.03628
-19.6579 -10.9207 6.03695
-19.6726 -10.9633 6.03757
-19.6896 -11.005 6.03703
-19.7069 -11.0467 6.03659
-19.7243 -11.0884 6.03622
-19.7417 -11.13 6.03594
-19.7591 -11.1717 6.03581
-19.7748 -11.2141 6.03622
-19.7903 -11.2565 6.03635
-19.8132 -11.2964 6.03189
-19.8207 -11.3419 6.03494
-19.8356 -11.3848 6.03344
-19.8504 -11.4278 6.03171
-19.8651 -11.4709 6.02979
-19.88 -11.514 6.02803
-19.8955 -11.557 6.0263
-19.9109 -11.6 6.02466
-19.9261 -11.6433 6.02339
-19.9408 -11.6867 6.02217
-19.9556 -11.7301 6.02146
-19.9707 -11.7735 6.0212
-19.9872 -11.8163 6.0212
-20.0044 -11.8588 6.02095
-20.0241 -11.9004 6.02054
-20.0444 -11.9416 6.02038
-20.0648 -11.9828 6.02045
-20.0849 -12.024 6.01985
-20.105 -12.0651 6.01949
-20.1254 -12.1061 6.01965
-20.1465 -12.1467 6.02028
-20.1686 -12.1867 6.02054
-20.1883 -12.228 6.02286
-20.2065 -12.2698 6.02647
-20.2251 -12.3116 6.03071
-20.244 -12.3533 6.03461
-20.2618 -12.3955 6.03944
-20.2765 -12.4389 6.04591
-20.2914 -12.4824 6.05284
-20.3064 -12.5259 6.06006
-20.3209 -12.5697 6.06735
-20.3343 -12.614 6.0749
-20.341 -12.66 6.08377
-20.3582 -12.7036 6.08778
-20.3695 -12.7484 6.09298
-20.3806 -12.7931 6.09807
-20.3918 -12.8379 6.1032
-20.4054 -12.8823 6.10749
-20.4235 -12.9254 6.11135
-20.4417 -12.9682 6.1157
-20.46 -13.0109 6.12077
-20.4783 -13.0535 6.12563
-20.4966 -13.0957 6.13166
-20.515 -13.1378 6.13858
-20.5336 -13.1797 6.14688
-20.5522 -13.2216 6.15522
-20.5707 -13.2634 6.16469
-20.5889 -13.3052 6.17501
-20.6072 -13.3471 6.18552
-20.6254 -13.3892 6.19488
-20.6436 -13.4314 6.20446
-20.6619 -13.4733 6.21484
-20.6803 -13.515 6.22636
-20.6987 -13.5566 6.23795
-20.7186 -13.5973 6.25072
-20.7407 -13.6368 6.26409
-20.7636 -13.6757 6.27833
-20.7865 -13.7146 6.29203
-20.8095 -13.7535 6.30642
-20.8324 -13.7922 6.32136
-20.8556 -13.8309 6.33736
-20.8791 -13.8699 6.35406
-20.9029 -13.9085 6.37074
-20.929 -13.946 6.38698
-20.9834 -13.9673 6.39498
-20.981 -14.0222 6.4165
-21.0079 -14.0597 6.42931
-21.0344 -14.0967 6.44182
-21.0609 -14.1334 6.45442
-21.0875 -14.1701 6.4674
-21.1141 -14.2066 6.48122
-21.1381 -14.2446 6.49624
-21.16 -14.2837 6.51258
-21.1828 -14.3226 6.52829
-21.2072 -14.3603 6.54452
-21.2326 -14.3973 6.56129
-21.2587 -14.4334 6.57925
-21.2847 -14.4694 6.5973
-21.3108 -14.5047 6.61647
-21.3369 -14.5396 6.63645
-21.3631 -14.5744 6.65667
-21.3892 -14.6098 6.67573
-21.4144 -14.6455 6.69539
-21.4372 -14.6818 6.71676
-21.4592 -14.7178 6.7394
-21.4816 -14.7537 6.76199
-21.5043 -14.7888 6.78558
-21.527 -14.8234 6.80978
-21.55 -14.8574 6.83476
-21.5729 -14.8916 6.85957
-21.5958 -14.9253 6.88481
-21.6166 -14.9595 6.91136
-21.6379 -14.9933 6.93805
-21.6575 -15.0272 6.96565
-21.6769 -15.0615 6.99308
-21.6974 -15.0959 7.01991
-21.7223 -15.13 7.04388
-21.7402 -15.1667 7.07022
-21.7596 -15.2037 7.0948
-21.7794 -15.2408 7.11892
-21.8 -15.2776 7.14237
-21.8206 -15.3141 7.16603
-21.8412 -15.35 7.19002
-21.8639 -15.3848 7.21325
-21.8868 -15.4192 7.23682
-21.9096 -15.454 7.26013
-21.9283 -15.4894 7.28618
-21.9517 -15.5221 7.31061
-21.9751 -15.5535 7.33599
-21.9991 -15.5847 7.36108
-22.0249 -15.6138 7.38622
-22.0508 -15.6419 7.41197
-22.0769 -15.6692 7.438
-22.1034 -15.6971 7.4632
-22.1315 -15.7234 7.48789
-22.1595 -15.7489 7.51343
-22.1841 -15.775 7.54116
-22.2069 -15.8022 7.56951
-22.2296 -15.8284 7.59901
-22.2539 -15.8528 7.62868
-22.2781 -15.8763 7.65916
-22.3022 -15.9 7.68932
-22.3264 -15.9234 7.71984
-22.3527 -15.9457 7.75019
-22.3788 -15.9678 7.78077
-22.4044 -15.9891 7.81103
-22.4305 -16.0113 7.84132
-22.4495 -16.0403 7.87236
-22.4986 -16.0515 7.89794
-22.4983 -16.0991 7.92921
-22.5245 -16.1278 7.95677
-22.5461 -16.1604 7.98586
-22.5678 -16.1933 8.01499
-22.5895 -16.2262 8.04527
-22.6163 -16.2539 8.07714
-22.644 -16.28 8.10914
-22.6709 -16.3054 8.14119
-22.6972 -16.3306 8.17274
-22.7219 -16.3553 8.20406
-22.7463 -16.3796 8.23561
-22.7736 -16.3986 8.26794
-22.802 -16.4163 8.30038
-22.8302 -16.4343 8.3334
-22.8582 -16.4521 8.36677
-22.8863 -16.4701 8.40058
-22.9148 -16.4882 8.43426
-22.9456 -16.5022 8.46844
-22.9764 -16.516 8.50291
-23.0074 -16.5288 8.53757
-23.0381 -16.5414 8.57175
-23.0685 -16.5539 8.6063
-23.1008 -16.562 8.64091
-23.1345 -16.5675 8.6765
-23.1692 -16.5714 8.71219
-23.2047 -16.5742 8.74874
-23.2406 -16.5771 8.7854
-23.2769 -16.5752 8.82127
-23.3112 -16.5723 8.85642
-23.345 -16.5711 8.89333
-23.377 -16.571 8.93044
-23.4471 -16.4936 8.93632
-23.4476 -16.5525 9.01399
-23.4784 -16.5501 9.04966
-23.5133 -16.5497 9.08541
-23.5511 -16.5455 9.11746
-23.5876 -16.542 9.14768
-23.6204 -16.5432 9.17977
-23.6515 -16.5438 9.2115
-23.6873 -16.5395 9.23845
-23.7253 -16.5359 9.26471
-23.7607 -16.5349 9.29501
-23.7912 -16.5357 9.32868
-23.8223 -16.5346 9.36102
-23.8587 -16.5294 9.38749
-23.8973 -16.521 9.41156
-23.9334 -16.5133 9.43937
-23.9691 -16.5051 9.46716
-23.9998 -16.4996 9.50043
-24.0298 -16.4948 9.53528
-24.0645 -16.4888 9.5665
-24.1014 -16.4816 9.59593
-24.1377 -16.4741 9.62492
-24.1732 -16.4651 9.65472
-24.2082 -16.4552 9.68555
-24.2429 -16.4438 9.71707
-24.2775 -16.4324 9.74856
-24.3122 -16.4204 9.78021
-24.3468 -16.4085 9.81183
-24.3832 -16.3956 9.8415
-24.4203 -16.3821 9.87038
-24.4579 -16.3691 9.89949
-24.4951 -16.3588 9.92905
-24.5658 -16.3391 9.91387
-24.5706 -16.3407 9.9889
-24.6089 -16.3319 10.0191
-24.6474 -16.3239 10.0493
-24.686 -16.3165 10.0795
-24.7244 -16.3087 10.1096
-24.7632 -16.3008 10.1387
-24.803 -16.2929 10.1665
-24.8424 -16.2846 10.1943
-24.8815 -16.2757 10.2221
-24.9199 -16.2658 10.2498
-24.9581 -16.2557 10.2773
-24.9962 -16.2448 10.3038
-25.0347 -16.2341 10.3298
-25.0734 -16.2228 10.3549
-25.1117 -16.2112 10.3798
-25.1498 -16.1995 10.4048
-25.1881 -16.1879 10.4299
-25.2262 -16.1763 10.455
-25.2654 -16.1637 10.4777
-25.3042 -16.1508 10.4998
-25.3419 -16.1384 10.5233
-25.3793 -16.1258 10.5468
-25.4166 -16.1131 10.5705
-25.4541 -16.1006 10.5948
-25.492 -16.088 10.6193
-25.5309 -16.0751 10.6432
-25.5723 -16.0601 10.6623
-25.6139 -16.0451 10.6815
-25.6541 -16.0301 10.7002
-25.6955 -16.0153 10.7192
-25.735 -16.0009 10.7376
-25.8286 -15.9258 10.6172
-25.8766 -15.9357 10.7703
-25.9198 -15.924 10.7738
-25.9635 -15.9098 10.7781
-26.0062 -15.8982 10.7816
-26.0489 -15.8808 10.787
-26.0911 -15.8613 10.7932
-26.1329 -15.8429 10.799
-26.1746 -15.8247 10.8047
-26.2165 -15.8052 10.8065
-26.2584 -15.7842 10.8043
-26.3005 -15.7629 10.8021
-26.3436 -15.742 10.8035
-26.3854 -15.7195 10.7982
-26.4272 -15.6962 10.792
-26.4694 -15.673 10.7876
-26.5115 -15.6502 10.7843
-26.5536 -15.628 10.7808
-26.5956 -15.6065 10.7792
-26.6374 -15.5848 10.7778
-26.6789 -15.563 10.7778
-26.72 -15.541 10.7778
-26.7605 -15.5181 10.7744
-26.8011 -15.4951 10.7741
-26.8425 -15.4714 10.7738
-26.8849 -15.4476 10.7734
-26.9276 -15.4232 10.7729
-26.9695 -15.3988 10.7725
-27.0102 -15.3727 10.7666
-27.0509 -15.3456 10.7586
-27.0909 -15.3179 10.7476
-27.1306 -15.2901 10.7367
-27.1543 -15.2592 10.681
-27.209 -15.2407 10.7146
-27.2477 -15.2181 10.7047
-27.2866 -15.1932 10.6967
-27.3249 -15.1682 10.689
-27.3635 -15.1431 10.6811
-27.4015 -15.1178 10.6736
-27.4393 -15.0924 10.667
-27.475 -15.0657 10.6565
-27.5102 -15.0391 10.6448
-27.5453 -15.0121 10.6333
-27.58 -14.9846 10.6221
-27.6148 -14.9566 10.6109
-27.6499 -14.9283 10.5986
-27.6857 -14.9 10.5887
-27.7225 -14.8719 10.583
-27.7586 -14.8439 10.5775
-27.7937 -14.8154 10.5673
-27.8245 -14.7866 10.5479
-27.8552 -14.7572 10.5284
-27.8882 -14.7261 10.5134
-27.9208 -14.6957 10.4969
-27.9506 -14.6643 10.4762
-27.9808 -14.6323 10.4558
-28.0111 -14.5997 10.4368
-28.0407 -14.5674 10.4182
-28.0754 -14.5346 10.408
-28.1053 -14.4994 10.3859
-28.1401 -14.4684 10.3738
-28.1711 -14.4347 10.3536
-28.2055 -14.4013 10.3401
-28.2366 -14.3704 10.3236
-28.2755 -14.3365 10.3214
-28.3016 -14.3061 10.2868
-28.3372 -14.2762 10.2715
-28.3727 -14.2448 10.2629
-28.4039 -14.2167 10.2451
-28.4373 -14.1861 10.2322
-28.4752 -14.1556 10.2305
-28.5111 -14.123 10.223
-28.5447 -14.09 10.21
-28.5781 -14.0583 10.1971
-28.6106 -14.0269 10.1841
-28.6424 -13.9949 10.1701
-28.6735 -13.9626 10.1566
-28.7042 -13.9304 10.1432
-28.7339 -13.8974 10.1295
-28.7673 -13.864 10.1211
-28.8015 -13.8308 10.1178
-28.8326 -13.798 10.1047
-28.8629 -13.7648 10.0918
-28.8928 -13.7312 10.0789
-28.9231 -13.6967 10.0698
-28.9531 -13.6624 10.0596
-28.9808 -13.6274 10.0464
-29.0096 -13.5919 10.037
-29.0382 -13.5558 10.0297
-29.0668 -13.5197 10.0219
-29.0931 -13.4839 10.0084
-29.12 -13.4473 9.99785
-29.1465 -13.4102 9.98769
-29.1724 -13.373 9.97555
-29.1991 -13.3353 9.96719
-29.2258 -13.2975 9.95881
-29.2527 -13.2605 9.94718
-29.2803 -13.2241 9.93475
-29.3074 -13.1887 9.91897
-29.3356 -13.1524 9.90757
-29.3637 -13.1158 9.89582
-29.3919 -13.0791 9.8839
-29.4197 -13.0414 9.87407
-29.4453 -13.0046 9.85852
-29.4708 -12.9669 9.84507
-29.497 -12.9295 9.83152
-29.5227 -12.8916 9.81843
-29.5477 -12.853 9.80634
-29.5717 -12.8138 9.79431
-29.5957 -12.7744 9.78227
-29.6186 -12.7346 9.76991
-29.6405 -12.6947 9.75655
-29.6623 -12.6546 9.74422
-29.685 -12.6149 9.73156
-29.7076 -12.5752 9.71894
-29.7294 -12.5352 9.70637
-29.7504 -12.4948 9.69388
-29.7713 -12.4545 9.68139
-29.7908 -12.414 9.66683
-29.8095 -12.3735 9.65189
-29.8278 -12.3321 9.63852
-29.8474 -12.2896 9.63173
-29.8656 -12.2478 9.61665
-29.8827 -12.2069 9.60042
-29.9 -12.1652 9.58673
-29.917 -12.1234 9.57323
-29.9342 -12.0817 9.55978
-29.9519 -12.042 9.54673
-29.966 -12.0048 9.51183
-29.9885 -11.959 9.51339
-30.0072 -11.9203 9.49627
-30.0264 -11.8814 9.48018
-30.046 -11.8424 9.46629
-30.0655 -11.803 9.45233
-30.0844 -11.7638 9.43728
-30.103 -11.7244 9.42343
-30.1209 -11.6853 9.40793
-30.1392 -11.6462 9.39248
-30.157 -11.6063 9.37885
-30.1742 -11.5663 9.36532
-30.1902 -11.5261 9.3516
-30.2053 -11.4874 9.33309
-30.2206 -11.446 9.32078
-30.2349 -11.4047 9.3095
-30.2486 -11.3643 9.29561
-30.2633 -11.324 9.28167
-30.2776 -11.2834 9.26769
-30.2913 -11.2425 9.25406
-30.304 -11.201 9.24114
-30.3168 -11.159 9.23021
-30.3285 -11.1158 9.22206
-30.3397 -11.0728 9.21121
-30.3501 -11.0301 9.198
-30.3608 -10.9878 9.18448
-30.3708 -10.9457 9.1697
-30.3805 -10.9032 9.15482
-30.3895 -10.8603 9.13947
-30.3984 -10.8177 9.1229
-30.4072 -10.7754 9.10462
-30.4157 -10.7327 9.08618
-30.4257 -10.695 9.05777
-30.4359 -10.6494 9.04829
-30.4477 -10.6081 9.03042
-30.4593 -10.5661 9.01322
-30.4712 -10.5228 8.99859
-30.4829 -10.4795 8.9836
-30.4941 -10.436 8.96845
-30.5047 -10.3927 8.95187
-30.5147 -10.3492 8.93528
-30.525 -10.3058 8.91868
-30.5347 -10.2614 8.90448
-30.5435 -10.2166 8.89064
-30.5515 -10.1706 8.87986
-30.5596 -10.1247 8.86933
-30.5665 -10.0791 8.85675
-30.5725 -10.0334 8.84379
-30.5784 -9.98753 8.83133
-30.5855 -9.94177 8.81872
-30.5923 -9.89601 8.80614
-30.5985 -9.8502 8.79366
-30.6037 -9.80435 8.78132
-30.6088 -9.75848 8.76898
-30.6126 -9.71262 8.75682
-30.6152 -9.6674 8.74239
-30.6164 -9.62254 8.72684
-30.618 -9.57768 8.7112
-30.619 -9.5329 8.69576
-30.6195 -9.48819 8.68048
-30.6193 -9.44364 8.66547
-30.6188 -9.39909 8.65054
-30.6182 -9.35479 8.63571
-30.6176 -9.3107 8.62095
-30.6197 -9.2647 8.61214
-30.6194 -9.22229 8.59126
-30.6217 -9.17799 8.5777
-30.624 -9.13396 8.56395
-30.6262 -9.09045 8.54977
-30.628 -9.0469 8.53565
-30.6291 -9.00361 8.52175
-30.6297 -8.96052 8.50799
-30.6299 -8.91755 8.49437
-30.6304 -8.87441 8.48062
-30.6301 -8.83132 8.46704
-30.6291 -8.78834 8.45363
-30.627 -8.74549 8.44047
-30.6249 -8.70268 8.42724
-30.6218 -8.65998 8.41422
-30.6181 -8.61731 8.40135
-30.6145 -8.57399 8.39079
-30.612 -8.53062 8.38045
-30.6092 -8.48716 8.37014
-30.6058 -8.44361 8.35996
-30.6016 -8.39993 8.34994
-30.5974 -8.3563 8.33993
-30.5922 -8.31248 8.33011
-30.5864 -8.26848 8.3204
-30.5796 -8.22436 8.31063
-30.573 -8.18044 8.30049
-30.5665 -8.13566 8.29281
-30.5597 -8.09066 8.28548
-30.5525 -8.04534 8.27822
-30.5452 -7.99999 8.271
-30.5379 -7.95442 8.26369
-30.5328 -7.90559 8.25754
-30.5367 -7.85474 8.28812
-30.5228 -7.81402 8.2513
-30.5162 -7.7696 8.2452
-30.5118 -7.72398 8.23708
-30.5076 -7.67827 8.22884
-30.5039 -7.63221 8.22293
-30.5002 -7.5857 8.21806
-30.4966 -7.5388 8.21211
-30.4909 -7.49278 8.20202
-30.4851 -7.44708 8.19206
-30.4788 -7.4013 8.18233
-30.4727 -7.35494 8.17403
-30.4666 -7.30811 8.16712
-30.4604 -7.26131 8.16022
-30.4523 -7.21506 8.15065
-30.4435 -7.16886 8.14128
-30.4346 -7.12261 8.13198
-30.4263 -7.07641 8.12231
-30.4177 -7.03027 8.11282
-30.4091 -6.98347 8.10453
-30.4032 -6.93586 8.10198
-30.3957 -6.8887 8.09691
-30.3862 -6.84221 8.09094
-30.3763 -6.79561 8.08571
-30.3655 -6.74915 8.08047
-30.3551 -6.70257 8.07491
-30.3443 -6.65608 8.0697
-30.333 -6.60972 8.06488
-30.3213 -6.56358 8.06059
-30.3111 -6.51684 8.05822
-30.2992 -6.47085 8.05477
-30.2867 -6.4252 8.05116
-30.2736 -6.38 8.04654
-30.2628 -6.33405 8.04286
-30.2514 -6.28855 8.0381
-30.2399 -6.24324 8.03346
-30.2283 -6.1982 8.02906
-30.2166 -6.15318 8.0248
-30.2046 -6.10839 8.02103
-30.1924 -6.06374 8.01758
-30.1799 -6.0192 8.01446
-30.1676 -5.97453 8.0111
-30.155 -5.92989 8.0081
-30.1402 -5.88603 8.00373
-30.125 -5.84223 7.99985
-30.1097 -5.7985 7.99601
-30.0953 -5.75439 7.99355
-30.0807 -5.7103 7.99137
-30.066 -5.66624 7.98929
-30.0516 -5.62217 7.98694
-30.0371 -5.57807 7.98459
-30.0226 -5.53393 7.98238
-30.0077 -5.48973 7.9803
-29.9926 -5.44566 7.97796
-29.9772 -5.40149 7.97579
-29.9617 -5.35725 7.9737
-29.9462 -5.31296 7.97173
-29.9306 -5.2688 7.96978
-29.9151 -5.22455 7.96781
-29.8995 -5.18019 7.96583
-29.884 -5.13561 7.96368
-29.8685 -5.0909 7.96138
-29.8531 -5.04603 7.95889
-29.8353 -5.00186 7.9544
-29.8131 -4.95976 7.94639
-29.7996 -4.91372 7.94506
-29.7819 -4.86981 7.9403
-29.7643 -4.82577 7.93527
-29.7469 -4.78151 7.92989
-29.7285 -4.73759 7.9239
-29.7134 -4.69198 7.91974
-29.7003 -4.64561 7.91688
-29.6837 -4.60094 7.91075
-29.667 -4.55628 7.90488
-29.6503 -4.51154 7.89896
-29.6338 -4.46676 7.89293
-29.6174 -4.42191 7.88669
-29.6011 -4.37704 7.88035
-29.5848 -4.33221 7.87381
-29.5741 -4.28479 7.87202
-29.5653 -4.23621 7.87205
-29.5563 -4.188 7.87239
-29.5472 -4.13979 7.87285
-29.5382 -4.09149 7.87326
-29.5292 -4.04338 7.8736
-29.5179 -3.99581 7.87171
-29.5058 -3.94895 7.86879
-29.4937 -3.90235 7.86586
-29.4789 -3.85748 7.86011
-29.4616 -3.81413 7.85197
-29.4444 -3.77088 7.84374
-29.4273 -3.72764 7.83545
-29.4107 -3.68423 7.82754
-29.3943 -3.64084 7.81988
-29.3779 -3.59737 7.81218
-29.3614 -3.55406 7.80464
-29.3241 -3.52117 7.77726
-29.3262 -3.46323 7.78176
-29.3046 -3.42306 7.77077
-29.2831 -3.38223 7.76001
-29.2636 -3.34046 7.75042
-29.2433 -3.29865 7.74045
-29.2218 -3.25742 7.72965
-29.2005 -3.21625 7.71886
-29.1793 -3.17513 7.70786
-29.1582 -3.13403 7.69672
-29.1375 -3.09305 7.68523
-29.117 -3.05217 7.67359
-29.0968 -3.01142 7.66172
-29.0765 -2.9706 7.64987
-29.0589 -2.92814 7.63987
-29.0425 -2.8852 7.63062
-29.026 -2.84221 7.62138
-29.0093 -2.79911 7.61234
-28.9927 -2.75603 7.60334
-28.9761 -2.71307 7.59424
-28.9598 -2.67028 7.585
-28.9428 -2.62786 7.57519
-28.9259 -2.58585 7.56499
-28.9092 -2.54404 7.55466
-28.8947 -2.50133 7.54576
-28.881 -2.45808 7.53765
-28.8674 -2.41499 7.52943
-28.854 -2.37209 7.52106
-28.8409 -2.32955 7.51253
-28.8281 -2.28704 7.50426
-28.816 -2.2446 7.49612
-28.804 -2.20231 7.48786
-28.7823 -2.16407 7.47212
-28.7802 -2.117 7.4707
-28.7682 -2.07404 7.46197
-28.7564 -2.03125 7.45321
-28.7434 -1.9895 7.44381
-28.7284 -1.94894 7.43351
-28.7136 -1.90877 7.42326
-28.6988 -1.86869 7.41293
-28.6841 -1.82869 7.40256
-28.6694 -1.78852 7.39219
-28.6558 -1.74776 7.38249
-28.6429 -1.7068 7.37314
-28.6301 -1.66594 7.36376
-28.6172 -1.62514 7.35434
-28.6041 -1.58455 7.34478
-28.591 -1.54399 7.33522
-28.578 -1.50349 7.32566
-28.5649 -1.46304 7.31608
-28.5519 -1.42255 7.30653
-28.5388 -1.38198 7.29702
-28.5255 -1.34129 7.2875
-28.5117 -1.30086 7.27761
-28.4977 -1.26021 7.2678
-28.4836 -1.2194 7.25805
-28.4693 -1.17847 7.24837
-28.4552 -1.13775 7.23866
-28.441 -1.09684 7.22902
-28.4265 -1.05568 7.21944
-28.4119 -1.01419 7.20992
-28.3973 -0.972704 7.20038
-28.3818 -0.931252 7.19033
-28.3662 -0.889636 7.18029
-28.362 -0.841248 7.1791
-28.337 -0.803318 7.16196
-28.3249 -0.760222 7.15416
-28.3127 -0.716788 7.14652
-28.3005 -0.672903 7.13905
-28.2867 -0.629519 7.13047
-28.2718 -0.58604 7.1215
-28.2567 -0.542366 7.11275
-28.2415 -0.498526 7.10412
-28.229 -0.453801 7.09685
-28.2164 -0.408802 7.08981
-28.2036 -0.363616 7.08296
-28.1906 -0.318101 7.07642
-28.1774 -0.272464 7.06994
-28.1605 -0.228001 7.06166
-28.1428 -0.183958 7.05298
-28.1249 -0.139914 7.04434
-28.1074 -0.0960937 7.03544
-28.0899 -0.052409 7.02658
-28.0723 -0.00870691 7.01787
-28.0546 0.0350014 7.00943
-28.0367 0.0787523 7.00108
-28.0194 0.122947 6.99351
-28.0027 0.167419 6.98651
-27.9859 0.212003 6.97951
-27.9694 0.256937 6.97239
-27.9544 0.302381 6.96618
-27.9384 0.347303 6.95965
-27.9205 0.3911 6.95234
-27.9026 0.434911 6.94508
-27.8848 0.478501 6.93785
-27.867 0.521905 6.93065
-27.8296 0.555384 6.91317
-27.8319 0.608654 6.91556
-27.8145 0.651937 6.90772
-27.7973 0.695015 6.89992
-27.7797 0.737482 6.89212
-27.7609 0.779084 6.88383
-27.7421 0.8204 6.87583
-27.7246 0.862388 6.86858
-27.7088 0.905272 6.86235
-27.6932 0.948345 6.85599
-27.6786 0.991995 6.85039
-27.6623 1.03507 6.84429
-27.6437 1.07702 6.83747
-27.6251 1.11885 6.83068
-27.6064 1.16059 6.82424
-27.5871 1.20213 6.81785
-27.5678 1.24359 6.81167
-27.5486 1.28496 6.80528
-27.5294 1.32633 6.79903
-27.51 1.36777 6.793
-27.4905 1.40935 6.78715
-27.471 1.45095 6.78119
-27.4512 1.49277 6.77546
-27.4313 1.53477 6.76989
-27.4111 1.57692 6.76476
-27.3921 1.61958 6.76062
-27.3709 1.66146 6.75557
-27.3489 1.70302 6.74985
-27.326 1.74456 6.7436
-27.303 1.78601 6.73732
-27.2799 1.82789 6.73064
-27.2569 1.87008 6.72362
-27.2172 1.90123 6.70351
-27.2116 1.95482 6.7082
-27.1894 1.9973 6.69982
-27.1673 2.04003 6.6911
-27.1452 2.08307 6.68201
-27.1208 2.12455 6.67127
-27.0949 2.16542 6.65961
-27.0686 2.20635 6.64783
-27.0424 2.24709 6.63614
-27.0193 2.28968 6.62679
-26.9975 2.3331 6.61878
-26.9757 2.37653 6.61084
-26.9542 2.42061 6.60433
-26.9342 2.46632 6.60072
-26.912 2.51081 6.59548
-26.8871 2.55252 6.58586
-26.8622 2.59436 6.57619
-26.8386 2.63783 6.56803
-26.8183 2.68369 6.56454
-26.798 2.72935 6.56123
-26.7774 2.77478 6.55824
-26.7567 2.82008 6.55534
-26.7358 2.86494 6.55284
-26.7131 2.90866 6.54862
-26.69 2.95206 6.54422
-26.6673 2.99597 6.53948
-26.6461 3.04047 6.53747
-26.6257 3.08481 6.53698
-26.6054 3.12844 6.53662
-26.585 3.17196 6.53635
-26.5649 3.21476 6.53613
-26.5449 3.25707 6.53591
-26.5327 3.30265 6.54905
-26.5059 3.34184 6.535
-26.4868 3.38426 6.53432
-26.4678 3.42615 6.53367
-26.4491 3.46726 6.53311
-26.4309 3.50849 6.53344
-26.4123 3.54874 6.53338
-26.3936 3.58844 6.53345
-26.3748 3.62777 6.53366
-26.3561 3.6676 6.53371
-26.3372 3.70717 6.53395
-26.3182 3.74631 6.53441
-26.2988 3.78487 6.53519
-26.2794 3.82338 6.53601
-26.2597 3.8614 6.53712
-26.2399 3.89915 6.53843
-26.22 3.9367 6.53981
-26.2003 3.97442 6.54083
-26.1807 4.01224 6.54218
-26.161 4.05004 6.54391
-26.1407 4.08784 6.5458
-26.1205 4.12569 6.54769
-26.0997 4.16363 6.54987
-26.0785 4.20166 6.55224
-26.0569 4.23957 6.55486
-26.0356 4.27706 6.55745
-26.014 4.31473 6.56017
-25.9919 4.35262 6.5631
-25.9699 4.39159 6.56596
-25.9486 4.43164 6.56827
-25.9265 4.47206 6.57035
-25.9036 4.51298 6.57086
-25.8584 4.54213 6.54049
-25.858 4.59476 6.57184
-25.8351 4.63542 6.57251
-25.8121 4.67663 6.57327
-25.7887 4.7185 6.57431
-25.7654 4.76061 6.57526
-25.7416 4.80328 6.57631
-25.7174 4.8462 6.57753
-25.693 4.8893 6.57889
-25.6689 4.9322 6.58011
-25.6444 4.97501 6.58159
-25.6196 5.01779 6.58332
-25.5944 5.06055 6.58538
-25.5692 5.10344 6.58736
-25.543 5.1458 6.58891
-25.5163 5.18781 6.59033
-25.4882 5.22879 6.59078
-25.4591 5.26911 6.59045
-25.4308 5.30968 6.59065
-25.4026 5.35009 6.59095
-25.3745 5.39025 6.59129
-25.3465 5.43043 6.59151
-25.3186 5.47035 6.59184
-25.2908 5.51005 6.59229
-25.2625 5.54939 6.59284
-25.234 5.5889 6.59355
-25.2047 5.62768 6.59389
-25.1754 5.6662 6.59414
-25.1464 5.70437 6.59441
-25.1174 5.74245 6.59473
-25.0889 5.78032 6.59477
-25.0606 5.81805 6.59464
-25.0076 5.83689 6.56829
-25.0055 5.89416 6.59241
-24.9789 5.93288 6.59118
-24.952 5.97153 6.59056
-24.9255 6.00986 6.5897
-24.8989 6.04796 6.58859
-24.8721 6.08516 6.58694
-24.8455 6.12208 6.5853
-24.8176 6.1573 6.58237
-24.7893 6.19229 6.5794
-24.7612 6.22692 6.57663
-24.7332 6.26129 6.57393
-24.7054 6.29538 6.57128
-24.6777 6.32953 6.56853
-24.65 6.36356 6.56581
-24.6224 6.39751 6.56315
-24.5955 6.43218 6.56127
-24.5687 6.46708 6.55949
-24.5417 6.50209 6.55782
-24.5148 6.53722 6.55632
-24.488 6.57257 6.55504
-24.4612 6.60793 6.55369
-24.4341 6.64311 6.55222
-24.4062 6.67772 6.55034
-24.3783 6.71233 6.54849
-24.3506 6.74698 6.54661
-24.3241 6.78272 6.54567
-24.2976 6.81856 6.54476
-24.271 6.85443 6.54401
-24.2442 6.89007 6.54328
-24.2165 6.92521 6.54223
-24.1891 6.95957 6.54102
-24.1787 7.01016 6.55143
-24.1294 7.03439 6.54246
-24.109 7.07281 6.54286
-24.0844 7.10973 6.54254
-24.0591 7.14595 6.54131
-24.0328 7.1826 6.54111
-24.0058 7.21964 6.54144
-23.9789 7.25672 6.54166
-23.9519 7.29399 6.54189
-23.9249 7.33131 6.54197
-23.8988 7.36944 6.54277
-23.8751 7.40916 6.54535
-23.8511 7.4492 6.54799
-23.8272 7.48928 6.55064
-23.803 7.52949 6.55337
-23.7789 7.56977 6.55618
-23.7547 7.60992 6.55908
-23.7299 7.64946 6.56146
-23.7049 7.68866 6.56372
-23.6799 7.72782 6.56606
-23.6547 7.76708 6.56848
-23.6274 7.80546 6.56932
-23.5956 7.84103 6.56701
-23.5635 7.87628 6.56442
-23.5316 7.91166 6.56222
-23.5002 7.9465 6.56017
-23.469 7.98112 6.55816
-23.4374 8.01593 6.55591
-23.4044 8.04943 6.55245
-23.3715 8.08285 6.54902
-23.3383 8.11656 6.54549
-23.3053 8.15021 6.54181
-23.2951 8.21032 6.55747
-23.2337 8.22533 6.53652
-23.206 8.26345 6.53619
-23.1781 8.30183 6.53584
-23.1503 8.34021 6.53538
-23.1223 8.37874 6.53497
-23.0943 8.41738 6.53458
-23.0649 8.45502 6.53337
-23.0354 8.4927 6.53215
-23.0057 8.53052 6.53089
-22.9761 8.56831 6.52979
-22.9503 8.60864 6.53142
-22.9244 8.64907 6.53311
-22.8985 8.68956 6.53477
-22.8725 8.73006 6.53647
-22.8465 8.77054 6.53824
-22.8206 8.81091 6.54003
-22.7947 8.85122 6.54175
-22.7691 8.89147 6.54363
-22.7439 8.93186 6.54588
-22.7186 8.97216 6.54823
-22.6934 9.01254 6.55051
-22.668 9.05285 6.55297
-22.6427 9.09306 6.55557
-22.6168 9.13293 6.5582
-22.5883 9.17122 6.55924
-22.5597 9.2095 6.56042
-22.5312 9.24762 6.56168
-22.5049 9.28715 6.56439
-22.479 9.3267 6.56707
-22.4527 9.36614 6.56975
-22.4261 9.40544 6.57227
-22.4315 9.46562 6.59395
-22.3723 9.48481 6.57734
-22.3452 9.52481 6.57991
-22.3181 9.56482 6.58253
-22.291 9.60475 6.5852
-22.264 9.64458 6.58786
-22.239 9.68536 6.59171
-22.2164 9.72755 6.59707
-22.194 9.76949 6.60244
-22.1719 9.81117 6.60751
-22.15 9.8524 6.61251
-22.1282 9.89347 6.6176
-22.1063 9.93432 6.62285
-22.0844 9.97525 6.6282
-22.0628 10.0163 6.63387
-22.0413 10.0572 6.63969
-22.0198 10.0982 6.6455
-21.9982 10.1393 6.6511
-21.9766 10.1804 6.65669
-21.955 10.2214 6.66238
-21.9333 10.2623 6.66821
-21.9117 10.3033 6.67408
-21.8888 10.3434 6.67955
-21.8655 10.3832 6.68494
-21.843 10.4233 6.69078
-21.8215 10.4639 6.69696
-21.8001 10.5044 6.70322
-21.7786 10.5448 6.70959
-21.7572 10.5851 6.71604
-21.7358 10.6253 6.72238
-21.7144 10.6655 6.72887
-21.693 10.7056 6.73522
-21.6414 10.7323 6.72933
-21.6411 10.7849 6.75205
-21.6171 10.8239 6.75583
-21.5941 10.8643 6.76147
-21.5737 10.9046 6.7673
-21.5493 10.9434 6.77175
-21.5248 10.9819 6.77641
-21.5004 11.0205 6.781
-21.4759 11.059 6.78566
-21.4514 11.0975 6.79032
-21.4269 11.136 6.7951
-21.4024 11.1744 6.79995
-21.3779 11.2127 6.80488
-21.353 11.2508 6.80951
-21.3275 11.2885 6.81383
-21.3014 11.3257 6.81788
-21.2747 11.3624 6.82162
-21.2481 11.3991 6.82547
-21.2219 11.436 6.82953
-21.1957 11.4729 6.83357
-21.1695 11.5098 6.83762
-21.1433 11.5468 6.84168
-21.117 11.5838 6.8457
-21.0907 11.621 6.84967
-21.0644 11.6582 6.85356
-21.0381 11.6953 6.8574
-21.0118 11.7326 6.86117
-20.9851 11.7698 6.86459
-20.9581 11.8072 6.86831
-20.9308 11.8445 6.87285
-20.9032 11.8818 6.87701
-20.8747 11.9188 6.88108
-20.822 11.9389 6.86976
-20.818 11.9928 6.88878
-20.7899 12.0299 6.89221
-20.7618 12.067 6.89552
-20.7336 12.1044 6.89867
-20.7054 12.1418 6.90192
-20.6771 12.1794 6.90506
-20.6488 12.2172 6.90807
-20.6204 12.2551 6.91097
-20.5921 12.2929 6.91392
-20.5625 12.3299 6.916
-20.5325 12.3667 6.91779
-20.5022 12.4034 6.91916
-20.4714 12.4398 6.92015
-20.4405 12.4763 6.92101
-20.4096 12.5127 6.92183
-20.3787 12.5491 6.92285
-20.3478 12.5854 6.92416
-20.3169 12.6214 6.92571
-20.2861 12.6575 6.92726
-20.2577 12.6953 6.92982
-20.2286 12.7327 6.93202
-20.1995 12.77 6.93402
-20.1706 12.8074 6.93591
-20.1415 12.8445 6.9375
-20.1123 12.8815 6.93908
-20.0831 12.9185 6.94045
-20.054 12.9556 6.94168
-20.0249 12.9926 6.94263
-19.9956 13.0292 6.9434
-19.9663 13.0659 6.94401
-19.9371 13.1026 6.94449
-19.9399 13.1649 6.95968
-19.8789 13.178 6.94658
-19.8502 13.2153 6.94749
-19.8215 13.2526 6.94833
-19.7929 13.2899 6.94905
-19.7644 13.3271 6.94972
-19.736 13.3642 6.95029
-19.7077 13.4013 6.95078
-19.6793 13.4381 6.95121
-19.65 13.4745 6.9514
-19.6207 13.5107 6.95159
-19.5916 13.5468 6.95172
-19.5627 13.5828 6.9517
-19.535 13.6197 6.9522
-19.5088 13.6576 6.95319
-19.4848 13.6966 6.95513
-19.4615 13.736 6.95731
-19.4385 13.7754 6.95972
-19.4154 13.8147 6.9621
-19.3918 13.8537 6.96411
-19.3681 13.8927 6.96591
-19.3444 13.9316 6.96766
-19.3208 13.9706 6.96929
-19.2971 14.0096 6.97087
-19.2735 14.0486 6.97236
-19.25 14.0876 6.97382
-19.2264 14.1266 6.97529
-19.2026 14.1657 6.9768
-19.1788 14.2048 6.97842
-19.1551 14.2438 6.98006
-19.1312 14.2829 6.98189
-19.1078 14.3215 6.98226
-19.1332 14.3914 7.0144
-19.0558 14.4064 6.98677
-19.0346 14.4465 6.99084
-19.0132 14.4868 6.99508
-18.9917 14.5269 6.99962
-18.9701 14.5673 7.00411
-18.9484 14.6077 7.00875
-18.9266 14.6481 7.01351
-18.9047 14.6887 7.01831
-18.883 14.7292 7.023
-18.8611 14.77 7.02762
-18.8392 14.8108 7.03225
-18.8172 14.8519 7.03685
-18.7946 14.8927 7.04115
-18.7708 14.933 7.04461
-18.7478 14.9739 7.04865
-18.7247 15.0148 7.05262
-18.7016 15.0554 7.05666
-18.6786 15.096 7.06063
-18.6553 15.1366 7.06428
-18.6318 15.1774 7.06765
-18.6083 15.2182 7.07102
-18.5851 15.2595 7.07441
-18.5629 15.3014 7.07812
-18.5406 15.3435 7.0817
-18.5183 15.3854 7.0854
-18.4961 15.4275 7.08896
-18.4738 15.4698 7.09233
-18.4515 15.5124 7.09552
-18.4292 15.5547 7.09882
-18.4069 15.5974 7.10186
-18.3827 15.639 7.10389
-18.3703 15.6875 7.11182
-18.3385 15.7257 7.11018
-18.3166 15.7685 7.11354
-18.2947 15.8115 7.11675
-18.2728 15.8545 7.11974
-18.251 15.8977 7.12268
-18.2292 15.941 7.12533
-18.2073 15.9844 7.12771
-18.1853 16.0279 7.12987
-18.1633 16.0713 7.13221
-18.1413 16.1148 7.13438
-18.1193 16.1584 7.13634
-18.0975 16.2021 7.13802
-18.0756 16.2459 7.13967
-18.0538 16.2897 7.14108
-18.0321 16.3335 7.14231
-18.0104 16.3774 7.14349
-17.9899 16.4217 7.14549
-17.969 16.4658 7.14733
-17.9474 16.5095 7.14858
-17.9259 16.5532 7.14973
-17.9044 16.5969 7.15086
-17.8829 16.6406 7.15188
-17.8614 16.6843 7.15285
-17.8401 16.728 7.15372
-17.8187 16.7717 7.15459
-17.7973 16.8154 7.15544
-17.7759 16.859 7.15635
-17.7516 16.9013 7.15568
-17.727 16.9431 7.15446
-17.7039 16.9859 7.15464
-17.6823 17.0294 7.15599
-17.6575 17.0716 7.15566
-17.6386 17.1169 7.15921
-17.6165 17.1608 7.16107
-17.5943 17.2047 7.16308
-17.572 17.2485 7.16528
-17.5498 17.2922 7.16746
-17.5276 17.3357 7.16968
-17.5055 17.3791 7.17193
-17.4826 17.4219 7.17353
-17.459 17.4644 7.17454
-17.4356 17.5068 7.17546
-17.4123 17.549 7.17634
-17.3892 17.5908 7.17713
-17.3662 17.6326 7.17794
-17.3434 17.6741 7.17867
-17.3208 17.7153 7.17933
-17.2982 17.7565 7.17992
-17.2759 17.7985 7.1811
-17.2554 17.8409 7.1831
-17.2328 17.8822 7.18352
-17.2086 17.9219 7.18247
-17.1832 17.9608 7.1808
-17.1582 17.9994 7.17879
-17.1343 18.0385 7.17694
-17.1106 18.0773 7.17485
-17.0872 18.1164 7.17311
-17.0642 18.1555 7.17126
-17.0414 18.1946 7.1691
-17.0187 18.2336 7.16662
-16.9961 18.2725 7.1643
-16.9734 18.3115 7.16152
-16.9502 18.3503 7.15851
-16.9146 18.3821 7.14776
-16.9025 18.4303 7.15208
-16.8776 18.4706 7.14857
-16.8503 18.5082 7.14388
-16.8226 18.5454 7.13865
-16.7949 18.5826 7.1333
-16.7676 18.6197 7.12753
-16.7405 18.6567 7.12147
-16.7137 18.6936 7.11519
-16.6867 18.7304 7.10919
-16.6601 18.7669 7.10292
-16.6339 18.8033 7.09631
-16.6081 18.8394 7.08922
-16.5824 18.8754 7.08213
-16.5571 18.9113 7.07459
-16.5321 18.947 7.06674
-16.5064 18.9824 7.05825
-16.48 19.0181 7.04992
-16.4518 19.0522 7.04029
-16.4227 19.0849 7.02971
-16.3938 19.1174 7.019
-16.365 19.1498 7.00831
-16.3368 19.1818 6.99757
-16.3087 19.2134 6.98678
-16.2801 19.2436 6.9753
-16.2483 19.2701 6.9621
-16.2166 19.2966 6.94852
-16.1852 19.323 6.93495
-16.1541 19.349 6.92137
-16.1235 19.3753 6.90784
-16.0934 19.4014 6.89483
-16.0635 19.4273 6.88211
-16.023 19.439 6.8655
-16.0023 19.4796 6.85869
-15.971 19.5052 6.84765
-15.9395 19.5286 6.83599
-15.9082 19.5517 6.82471
-15.8769 19.5747 6.81331
-15.8447 19.5955 6.80127
-15.8126 19.6164 6.78923
-15.7807 19.6371 6.77709
-15.7488 19.6579 6.76495
-15.717 19.6787 6.75245
-15.6851 19.6991 6.73957
-15.653 19.7195 6.72621
-15.6209 19.7399 6.71283
-15.5887 19.7605 6.69908
-15.5553 19.7792 6.68434
-15.5208 19.7963 6.66884
-15.4864 19.8131 6.65366
-15.452 19.8306 6.6385
-15.4185 19.851 6.62405
-15.3849 19.8718 6.60899
-15.3513 19.8925 6.59384
-15.317 19.9119 6.57732
-15.2819 19.9297 6.55973
-15.2466 19.9477 6.54162
-15.2112 19.9658 6.52389
-15.1757 19.984 6.50572
-15.1404 20.0023 6.48715
-15.1052 20.0208 6.46789
-15.0699 20.0394 6.44841
-15.0347 20.0568 6.42821
-14.9999 20.0741 6.40783
-14.964 20.0851 6.38602
-14.9322 20.1076 6.36845
-14.8991 20.1239 6.34947
-14.8663 20.1402 6.3303
-14.8338 20.1565 6.3108
-14.8011 20.1728 6.29115
-14.7682 20.1895 6.27079
-14.7351 20.2064 6.24996
-14.7014 20.2231 6.22841
-14.6681 20.2405 6.20738
-14.6339 20.2582 6.18569
-14.5994 20.2762 6.16351
-14.564 20.2947 6.14056
-14.5284 20.3134 6.11746
-14.4929 20.3347 6.09476
-14.4572 20.3562 6.07189
-14.422 20.3775 6.04928
-14.3879 20.3981 6.02743
-14.354 20.4185 6.00584
-14.3195 20.4392 5.98398
-14.2842 20.462 5.96226
-14.2486 20.4853 5.94039
-14.211 20.5087 5.91743
-14.1716 20.5302 5.89282
-14.1312 20.552 5.86789
-14.0918 20.5717 5.84288
-14.051 20.5912 5.81712
-14.0086 20.6114 5.79063
-13.964 20.6325 5.76315
-13.9193 20.6543 5.73604
-13.8724 20.6771 5.70776
-13.8243 20.701 5.67838
-13.781 20.7491 5.65905
-13.726 20.7471 5.6224
-13.6775 20.7698 5.59229
-13.6281 20.7934 5.56206
-13.5778 20.82 5.53204
-13.5284 20.8494 5.5033
-13.4776 20.8797 5.47472
-13.4257 20.9105 5.44613
-13.3732 20.9415 5.41757
-13.3207 20.9696 5.38803
-13.2683 20.9979 5.35891
-13.2157 21.0272 5.33041
-13.1624 21.0567 5.30262
-13.109 21.0861 5.27507
-13.0546 21.1147 5.24793
-13.0019 21.1476 5.22258
-12.9487 21.1808 5.19708
-12.8952 21.2144 5.17045
-12.8422 21.2485 5.14425
-12.7904 21.2847 5.11966
-12.741 21.3237 5.09743
-12.6941 21.3651 5.07635
-12.642 21.3981 5.05466
-12.5953 21.4371 5.03636
-12.5499 21.4771 5.01975
-12.5039 21.5177 5.002
-12.4587 21.5577 4.98561
-12.4145 21.5967 4.9706
-12.3718 21.6342 4.9577
-12.3293 21.6714 4.94525
-12.2883 21.7071 4.9341
-12.2485 21.7417 4.92369
-12.2313 21.8032 4.91728
-12.1687 21.8143 4.89971
-12.1295 21.8508 4.88636
-12.0915 21.886 4.8737
-12.0556 21.9193 4.86226
-12.0202 21.9527 4.8513
-11.9863 21.9833 4.84218
-11.9534 22.0119 4.83432
-11.9215 22.039 4.82762
-11.8883 22.0672 4.81975
-11.8561 22.0946 4.81319
-11.825 22.1209 4.80809
-11.7955 22.1456 4.80512
-11.7664 22.17 4.80237
-11.7384 22.1935 4.80137
-11.711 22.2164 4.80147
-11.6831 22.2397 4.80203
-11.654 22.2641 4.80126
-11.6243 22.2892 4.80057
-11.595 22.314 4.80063
-11.5661 22.3384 4.80162
-11.5374 22.3626 4.80276
-11.5096 22.3859 4.80491
-11.4824 22.4088 4.80762
-11.4559 22.4309 4.81102
-11.4294 22.4531 4.8143
-11.4022 22.4734 4.81764
-11.3745 22.4926 4.82102
-11.3496 22.5145 4.82445
-11.3252 22.536 4.82775
-11.3012 22.5572 4.83014
-11.2774 22.5783 4.83157
-11.2126 22.5539 4.83065
-11.228 22.6219 4.83473
-11.2025 22.6441 4.83532
-11.1775 22.665 4.83287
-11.1523 22.6861 4.82908
-11.1273 22.7072 4.82558
-11.1019 22.7284 4.82162
-11.0764 22.7499 4.81732
-11.0506 22.7716 4.81313
-11.0249 22.7932 4.80932
-10.9982 22.8143 4.80608
-10.9707 22.8347 4.80308
-10.9425 22.8555 4.80048
-10.9137 22.8762 4.79774
-10.884 22.896 4.79536
-10.8542 22.9158 4.79346
-10.8253 22.9349 4.79176
-10.7978 22.9531 4.78941
-10.7707 22.971 4.78758
-10.7432 22.9892 4.7865
-10.7145 23.008 4.78654
-10.6854 23.0271 4.78658
-10.6544 23.0473 4.78794
-10.6219 23.0683 4.79027
-10.5882 23.0896 4.79342
-10.556 23.11 4.79575
-10.5221 23.1314 4.79894
-10.4863 23.1539 4.80305
-10.4473 23.1782 4.80873
-10.408 23.2028 4.81491
-10.3654 23.2285 4.82201
-10.3189 23.2548 4.82974
-10.2271 23.2067 4.82709
-10.223 23.3071 4.84099
-10.1777 23.3312 4.84726
-10.1306 23.3562 4.85402
-10.0812 23.3823 4.8617
-10.0314 23.4086 4.86952
-9.97867 23.4352 4.87834
-9.92446 23.4624 4.88793
-9.86921 23.4901 4.89808
-9.81528 23.5172 4.90755
-9.76093 23.5444 4.91741
-9.70565 23.5721 4.92789
-9.64908 23.5997 4.93913
-9.59025 23.6229 4.94997
-9.52995 23.6455 4.96129
-9.46923 23.6682 4.97296
-9.40828 23.6916 4.98495
-9.34779 23.7159 4.99683
-9.28777 23.7399 5.00868
-9.22749 23.762 5.02043
-9.16668 23.7801 5.03192
-9.10791 23.803 5.0441
-9.04875 23.8219 5.05572
-8.9904 23.8391 5.06691
-8.93215 23.8547 5.07775
-8.87265 23.8709 5.08904
-8.81454 23.8875 5.09975
-8.75829 23.9035 5.10992
-8.70408 23.9191 5.11864
-8.64897 23.935 5.12608
-8.59573 23.9463 5.13309
-8.5439 23.956 5.13838
-8.48282 23.9136 5.14248
-8.43827 23.9757 5.15365
-8.3863 23.983 5.16154
-8.33764 23.9893 5.16595
-8.29246 23.9952 5.16897
-8.24731 24.0011 5.17197
-8.20551 24.0067 5.17381
-8.16609 24.0122 5.17488
-8.12866 24.0185 5.17558
-8.08939 24.025 5.17703
-8.05132 24.0313 5.17828
-8.01486 24.0374 5.17904
-7.98068 24.043 5.17915
-7.94712 24.0489 5.17917
-7.91496 24.0547 5.17872
-7.88328 24.0595 5.17795
-7.85103 24.0645 5.17708
-7.81718 24.07 5.17641
-7.78234 24.0762 5.17605
-7.74766 24.0823 5.17577
-7.7133 24.0882 5.17576
-7.67935 24.094 5.17577
-7.6463 24.0997 5.1761
-7.6137 24.1052 5.17671
-7.58175 24.1106 5.17738
-7.54958 24.1162 5.17753
-7.51798 24.1215 5.17799
-7.48686 24.1268 5.17899
-7.45628 24.1318 5.18083
-7.42559 24.1368 5.18274
-7.39522 24.1417 5.18567
-7.36503 24.1464 5.18933
-7.33404 24.145 5.19285
-7.30526 24.1557 5.19731
-7.27526 24.1603 5.20161
-7.245 24.165 5.20663
-7.21423 24.1692 5.21261
-7.18345 24.1732 5.21861
-7.15188 24.1773 5.22542
-7.11967 24.1813 5.23273
-7.08681 24.1855 5.24035
-7.05442 24.1897 5.24747
-7.02122 24.194 5.25462
-6.98732 24.1984 5.26202
-6.95222 24.2032 5.26971
-6.91674 24.2081 5.27741
-6.88051 24.2131 5.28533
-6.8438 24.2181 5.29332
-6.80774 24.223 5.30154
-6.77335 24.2276 5.30997
-6.73926 24.2322 5.31828
-6.70436 24.2369 5.32635
-6.66799 24.242 5.3339
-6.63124 24.2471 5.34134
-6.5922 24.2527 5.34806
-6.55156 24.2587 5.3542
-6.5094 24.2642 5.35998
-6.46901 24.2718 5.36673
-6.42701 24.2804 5.37305
-6.38324 24.2896 5.37859
-6.33672 24.2994 5.38294
-6.28983 24.3093 5.38715
-6.24078 24.3196 5.39004
-6.19036 24.3301 5.39201
-6.14027 24.3431 5.39329
-6.09141 24.3509 5.3955
-6.04303 24.361 5.39704
-5.99344 24.3714 5.39768
-5.94191 24.382 5.39704
-5.88951 24.3905 5.3963
-5.8347 24.3994 5.39446
-5.77842 24.4085 5.39191
-5.71988 24.4117 5.38883
-5.66306 24.4175 5.38639
-5.60553 24.4256 5.38389
-5.54676 24.4339 5.38099
-5.48606 24.4407 5.37757
-5.42514 24.4475 5.3741
-5.36306 24.4546 5.37028
-5.30061 24.464 5.36647
-5.23805 24.4739 5.36241
-5.17676 24.4862 5.35841
-5.11574 24.4985 5.35454
-5.05451 24.5109 5.35089
-4.99348 24.5249 5.34784
-4.93255 24.5399 5.34493
-4.87148 24.5549 5.34272
-4.81041 24.5697 5.341
-4.74872 24.5822 5.33955
-4.6868 24.5951 5.33742
-4.62524 24.6081 5.33594
-4.56429 24.6218 5.33531
-4.5042 24.6355 5.336
-4.44435 24.6495 5.33685
-4.38558 24.6637 5.33905
-4.32765 24.6781 5.34221
-4.2702 24.693 5.34592
-4.21206 24.7095 5.34855
-4.15454 24.7257 5.35176
-4.09779 24.7406 5.35593
-4.04262 24.7552 5.36144
-3.98737 24.769 5.36712
-3.9338 24.7821 5.37409
-3.88146 24.7949 5.38187
-3.83016 24.8075 5.39024
-3.77782 24.8199 5.39792
-3.72628 24.8319 5.40591
-3.67572 24.8437 5.4144
-3.62659 24.8549 5.42353
-3.57742 24.8642 5.43278
-3.52896 24.8725 5.44249
-3.48095 24.8808 5.45238
-3.43254 24.8892 5.4624
-3.3829 24.8977 5.47234
-3.33274 24.9063 5.48202
-3.2829 24.9149 5.49152
-3.23357 24.9228 5.50062
-3.18422 24.9286 5.50971
-3.13561 24.9322 5.51832
-3.08755 24.9357 5.52654
-3.04027 24.9392 5.53457
-2.99282 24.9424 5.54314
-2.94599 24.9457 5.55131
-2.89955 24.9489 5.5589
-2.85376 24.9521 5.56549
-2.8083 24.9553 5.5719
-2.76284 24.9586 5.5773
-2.71745 24.9618 5.58204
-2.66593 24.8987 5.58685
-2.61988 24.9663 5.59124
-2.5723 24.9675 5.59634
-2.52457 24.9687 5.60066
-2.47714 24.9699 5.60386
-2.43 24.9716 5.60687
-2.38333 24.9701 5.60867
-2.33677 24.9664 5.60971
-2.29073 24.9627 5.61009
-2.24502 24.959 5.61115
-2.20015 24.9554 5.61169
-2.15569 24.9518 5.61156
-2.11178 24.9482 5.61052
-2.06785 24.9432 5.60937
-2.02422 24.9379 5.60756
-1.98078 24.9333 5.60535
-1.93752 24.9277 5.60306
-1.89397 24.9222 5.60131
-1.8504 24.9166 5.59976
-1.80698 24.9111 5.59806
-1.76375 24.9056 5.59623
-1.7206 24.9 5.59434
-1.67764 24.8947 5.59224
-1.63477 24.8895 5.59005
-1.59197 24.8842 5.58761
-1.54892 24.8803 5.58505
-1.50574 24.8775 5.58245
-1.46259 24.8746 5.57995
-1.41946 24.8717 5.57766
-1.37633 24.8687 5.57535
-1.33322 24.8658 5.57354
-1.28941 24.8648 5.57228
-1.24599 24.8749 5.572
-1.20249 24.8684 5.57087
-1.15955 24.8702 5.57061
-1.1164 24.8713 5.57076
-1.07316 24.8714 5.5715
-1.02987 24.8714 5.57217
-0.986308 24.8714 5.57322
-0.942574 24.871 5.57452
-0.898571 24.8698 5.57592
-0.854577 24.8686 5.57708
-0.810339 24.8674 5.57816
-0.765834 24.868 5.57924
-0.721306 24.8686 5.58045
-0.676904 24.8646 5.58152
-0.632542 24.8577 5.58254
-0.588086 24.8508 5.58351
-0.543822 24.8437 5.58451
-0.500027 24.8367 5.58567
-0.456397 24.8298 5.58671
-0.412604 24.8228 5.58756
-0.368528 24.8158 5.58807
-0.324357 24.8088 5.58853
-0.279677 24.8018 5.58858
-0.234637 24.7948 5.58834
-0.189013 24.7895 5.58793
-0.143622 24.7843 5.58787
-0.0978224 24.779 5.58756
-0.0516799 24.7737 5.58687
-0.0047515 24.7697 5.58566
0.0424679 24.7667 5.58447
0.0902468 24.7652 5.58272
0.138404 24.7646 5.58061
0.186593 24.7704 5.57799
0.23399 24.7628 5.57643
0.281423 24.7616 5.57429
0.329132 24.7603 5.57181
0.377228 24.7587 5.56887
0.425435 24.7568 5.56589
0.474149 24.7545 5.56251
0.523165 24.7521 5.55884
0.57251 24.7498 5.55495
0.621654 24.7477 5.5513
0.671031 24.7455 5.54755
0.72064 24.7433 5.54364
0.770548 24.7404 5.53954
0.820493 24.7372 5.53542
0.870578 24.7335 5.53123
0.920598 24.728 5.52712
0.970601 24.7226 5.52304
1.02044 24.7172 5.519
1.07015 24.712 5.51511
1.11985 24.707 5.51131
1.16952 24.7019 5.50765
1.21925 24.6967 5.50395
1.26886 24.6906 5.50047
1.31835 24.684 5.4972
1.36781 24.6777 5.49402
1.4175 24.6732 5.49058
1.46713 24.6687 5.48727
1.51669 24.6643 5.48411
1.56615 24.6598 5.48113
1.61553 24.6545 5.47823
1.66479 24.6484 5.47549
1.714 24.6422 5.47281
1.76232 24.6274 5.47121
1.813 24.6308 5.46676
1.86255 24.6242 5.46374
1.91183 24.6175 5.46085
1.96093 24.6112 5.45825
2.0102 24.6068 5.45544
2.05886 24.5997 5.45364
2.10714 24.5926 5.45213
2.15511 24.5856 5.451
2.20331 24.5785 5.44958
2.25112 24.5714 5.44854
2.29854 24.5641 5.44787
2.34541 24.557 5.44779
2.39219 24.55 5.44786
2.43856 24.543 5.44827
2.48465 24.536 5.44887
2.53079 24.5292 5.44921
2.57732 24.5214 5.44897
2.62383 24.5134 5.44856
2.67006 24.5055 5.44838
2.71581 24.4976 5.4487
2.76142 24.4898 5.44929
2.80642 24.4821 5.45057
2.85105 24.4745 5.45224
2.89533 24.4669 5.45414
2.94008 24.4601 5.45541
2.98487 24.4555 5.45705
3.02935 24.4509 5.45915
3.07346 24.4467 5.46188
3.11748 24.4439 5.46472
3.16144 24.4403 5.46834
3.20512 24.4365 5.47223
3.25146 24.4616 5.48079
3.29555 24.4305 5.48241
3.34004 24.4292 5.48673
3.38438 24.4278 5.49154
3.42838 24.4263 5.49699
3.47237 24.4242 5.5026
3.51586 24.4221 5.50881
3.55893 24.4199 5.51527
3.60161 24.4178 5.52193
3.64457 24.4156 5.5283
3.68711 24.4134 5.53469
3.7292 24.4099 5.54109
3.7707 24.4074 5.54769
3.81207 24.405 5.55432
3.85303 24.4025 5.56103
3.89368 24.399 5.56764
3.93444 24.3951 5.57429
3.97578 24.3914 5.58111
4.01724 24.3877 5.58777
4.05847 24.3841 5.5942
4.09929 24.3805 5.60022
4.13997 24.3769 5.60623
4.18005 24.3734 5.61172
4.21973 24.3699 5.61679
4.25906 24.3665 5.6215
4.2987 24.3624 5.62648
4.33784 24.3569 5.63097
4.3764 24.3506 5.63501
4.41438 24.3445 5.63833
4.4524 24.3384 5.6415
4.4902 24.3349 5.64423
4.52766 24.3315 5.64669
4.56505 24.329 5.64944
4.6026 24.3248 5.65304
4.64022 24.3222 5.65679
4.67771 24.3207 5.66012
4.71501 24.3193 5.6628
4.75225 24.3179 5.66532
4.78934 24.3164 5.66678
4.82639 24.3156 5.66748
4.86342 24.3151 5.66741
4.90049 24.3147 5.66783
4.93762 24.3141 5.66744
4.97478 24.3136 5.66631
5.01206 24.3129 5.66403
5.0494 24.3105 5.66163
5.08684 24.3077 5.65853
5.12435 24.3049 5.65499
5.16155 24.3021 5.65171
5.19819 24.2992 5.64948
5.23481 24.2964 5.64752
5.27174 24.2927 5.64518
5.30915 24.2876 5.64216
5.34663 24.2825 5.63888
5.38514 24.2772 5.63453
5.4244 24.2716 5.62949
5.46444 24.2657 5.62378
5.50397 24.2599 5.61859
5.54438 24.254 5.61275
5.58518 24.2459 5.60623
5.62743 24.2373 5.5987
5.66996 24.2286 5.59105
5.71387 24.2196 5.58267
5.75858 24.2103 5.57381
5.7895 24.1309 5.56497
5.84966 24.1906 5.55837
5.89353 24.1807 5.55006
5.93817 24.1706 5.54149
5.98371 24.1603 5.53254
6.02907 24.1487 5.5236
6.07535 24.1358 5.51417
6.12237 24.122 5.50426
6.16995 24.108 5.49421
6.21671 24.0943 5.48465
6.26368 24.0805 5.47515
6.31118 24.0665 5.46546
6.35938 24.0524 5.45555
6.40751 24.0373 5.44561
6.45548 24.0199 5.43548
6.50366 24.0024 5.42525
6.55186 23.9849 5.41475
6.59957 23.9672 5.40412
6.64696 23.9493 5.39352
6.69434 23.9314 5.38306
6.74164 23.9136 5.37292
6.78851 23.8944 5.36282
6.83536 23.8753 5.35325
6.88158 23.855 5.34406
6.92771 23.8342 5.3351
6.97404 23.8132 5.32567
7.02002 23.7918 5.31672
7.06578 23.7705 5.30833
7.11075 23.7487 5.30087
7.15552 23.7267 5.29353
7.19975 23.705 5.28708
7.24354 23.6836 5.28125
7.28953 23.6675 5.27562
7.33069 23.6406 5.27
7.37342 23.6176 5.26407
7.41563 23.595 5.25878
7.45711 23.5728 5.25439
7.49855 23.5507 5.25014
7.53924 23.5291 5.24689
7.57882 23.5067 5.24443
7.61763 23.4839 5.24259
7.65683 23.4609 5.2402
7.69558 23.4377 5.23825
7.73399 23.4148 5.23682
7.77137 23.3914 5.2362
7.80849 23.3679 5.23571
7.84534 23.3446 5.2357
7.88208 23.3215 5.23595
7.91906 23.2982 5.2362
7.95651 23.2745 5.23605
7.99422 23.2507 5.2357
8.03163 23.2266 5.23545
8.06863 23.2023 5.23531
8.10554 23.1781 5.23522
8.14206 23.1543 5.23526
8.17832 23.1306 5.23534
8.21444 23.1074 5.23554
8.25103 23.0845 5.23583
8.2873 23.0618 5.23609
8.32395 23.0403 5.23623
8.36065 23.0201 5.2361
8.39673 22.9987 5.23588
8.43224 22.9772 5.23526
8.46796 22.9565 5.23442
8.50786 22.9432 5.23363
8.54192 22.9173 5.23238
8.58011 22.9013 5.23175
8.61887 22.8867 5.23075
8.65799 22.8729 5.22914
8.69599 22.8567 5.22723
8.73402 22.8406 5.22462
8.7721 22.8245 5.22146
8.81022 22.8085 5.21787
8.84863 22.7931 5.21482
8.88807 22.78 5.21177
8.92764 22.7669 5.20835
8.96744 22.7539 5.20439
9.00781 22.7422 5.20046
9.04899 22.7327 5.19644
9.0904 22.7231 5.19229
9.13098 22.7115 5.18789
9.17173 22.7028 5.18431
9.21288 22.696 5.18115
9.2544 22.6891 5.17789
9.29653 22.682 5.17443
9.33873 22.6748 5.17084
9.3818 22.6675 5.16694
9.42545 22.6601 5.16288
