BEGIN_Polyline
-3.67152 24.8622 5.47777
-3.62689 24.8701 5.47905
-3.58188 24.8778 5.48014
-3.5366 24.8853 5.48102
-3.49165 24.8924 5.48201
-3.44615 24.8986 5.48284
-3.39986 24.9025 5.48354
-3.3529 24.908 5.48398
-3.3058 24.9129 5.48444
-3.25783 24.9173 5.48481
-3.20932 24.9217 5.48513
-3.15985 24.9196 5.48546
-3.1122 24.9306 5.48601
-3.06367 24.9351 5.48662
-3.01462 24.9396 5.48722
-2.96488 24.9433 5.48783
-2.91502 24.9443 5.48847
-2.86438 24.9455 5.48898
-2.81319 24.9466 5.48939
-2.76151 24.9477 5.48974
-2.71014 24.9488 5.49022
-2.6585 24.95 5.49059
-2.60651 24.9511 5.49081
-2.55424 24.95 5.49089
-2.50223 24.9445 5.49107
-2.44975 24.939 5.49106
-2.39707 24.9334 5.4909
-2.34427 24.9278 5.49056
-2.29163 24.9223 5.49023
-2.23917 24.9168 5.48978
-2.18677 24.9114 5.48925
-2.13456 24.906 5.48869
-2.08208 24.9031 5.48822
-2.03026 24.8969 5.48773
-1.97869 24.8907 5.48726
-1.92716 24.8845 5.48677
-1.87508 24.878 5.48613
-1.82301 24.8758 5.48568
-1.77141 24.8736 5.48539
-1.7205 24.8708 5.48533
-1.66958 24.8675 5.48527
-1.61955 24.8652 5.48556
-1.57017 24.8657 5.48612
-1.52121 24.8708 5.4872
-1.47148 24.8659 5.48789
-1.4225 24.8674 5.48898
-1.37421 24.8688 5.4903
-1.32692 24.8703 5.4919
-1.2797 24.8714 5.49349
-1.23341 24.8723 5.49523
-1.18771 24.8729 5.49705
-1.1424 24.8729 5.49886
-1.09645 24.8727 5.50058
-1.05075 24.8702 5.50212
-1.00544 24.8676 5.50363
-0.96062 24.8651 5.50504
-0.915844 24.8625 5.5064
-0.871729 24.8572 5.50762
-0.827913 24.8511 5.50873
-0.784294 24.8446 5.5099
-0.740594 24.8379 5.51132
-0.696817 24.8313 5.51268
-0.653005 24.8247 5.51385
-0.60907 24.8181 5.51465
-0.565117 24.8115 5.51539
-0.520977 24.8048 5.51566
-0.476648 24.7982 5.5156
-0.432238 24.7919 5.51529
-0.388181 24.7856 5.51531
-0.343349 24.7829 5.51514
-0.298201 24.7804 5.51455
-0.252474 24.7758 5.5134
-0.20657 24.7727 5.51215
-0.159931 24.77 5.5104
-0.112655 24.7683 5.5084
-0.0648948 24.7728 5.50596
-0.0179712 24.7659 5.50453
0.0292815 24.7647 5.50263
0.0768977 24.7633 5.50044
0.125119 24.7612 5.49781
0.173524 24.7592 5.49508
0.222604 24.757 5.4918
0.27206 24.7548 5.48817
0.321775 24.7523 5.48427
0.371122 24.7498 5.48066
0.420593 24.7473 5.47683
0.470324 24.7447 5.47272
0.520372 24.7421 5.46822
0.570447 24.7395 5.46366
0.620671 24.7346 5.45901
0.671068 24.7306 5.45417
0.721495 24.7252 5.44939
0.771875 24.7194 5.44482
0.822199 24.7137 5.44036
0.872462 24.708 5.43587
0.922531 24.7023 5.43136
0.972541 24.6967 5.42682
1.02229 24.6912 5.42223
1.07178 24.6857 5.41767
1.12121 24.6801 5.41309
1.17106 24.6744 5.40844
1.22064 24.6687 5.40384
1.26975 24.6632 5.39932
1.31816 24.6579 5.39491
1.36657 24.6531 5.39049
1.41411 24.6486 5.38622
1.46098 24.6432 5.38209
1.50674 24.6334 5.37853
1.55377 24.6311 5.37385
1.59978 24.6252 5.36979
1.64521 24.6193 5.36593
1.68987 24.6134 5.36239
1.73449 24.6074 5.35886
1.77859 24.6016 5.3557
1.82238 24.5959 5.3528
1.86605 24.5905 5.35014
1.91014 24.586 5.34722
1.95422 24.5805 5.34464
1.99827 24.5749 5.34227
2.04231 24.5691 5.34026
2.08633 24.5629 5.33838
2.13041 24.5567 5.33666
2.17459 24.5505 5.335
2.21866 24.5443 5.33312
2.26235 24.5381 5.33089
2.30592 24.53 5.32853
2.34984 24.5219 5.32627
2.39442 24.5136 5.3242
2.43907 24.5048 5.32219
2.48512 24.499 5.32051
2.53189 24.4948 5.31914
2.57917 24.4906 5.318
2.62575 24.4864 5.31668
2.67298 24.4821 5.31563
2.72097 24.4778 5.3149
2.77019 24.4733 5.31449
2.81968 24.4691 5.31397
2.87033 24.4658 5.31377
2.92184 24.4633 5.31396
2.97381 24.4686 5.315
3.02409 24.4596 5.31448
3.0747 24.4578 5.31466
3.12601 24.4559 5.31502
3.17835 24.454 5.31561
3.23088 24.4521 5.31623
3.28463 24.4501 5.31707
3.33915 24.4481 5.31804
3.39436 24.4455 5.31907
3.44893 24.4424 5.31994
3.50403 24.439 5.32083
3.55974 24.4353 5.32177
3.61625 24.4308 5.32271
3.67286 24.4264 5.32366
3.73001 24.4218 5.32463
3.78747 24.4172 5.32558
3.84481 24.4111 5.32648
3.90179 24.4057 5.32748
3.95855 24.4007 5.32843
4.01535 24.3957 5.32927
4.07186 24.388 5.32982
4.12833 24.3798 5.33032
4.18488 24.3716 5.33061
4.24142 24.3634 5.33073
4.29807 24.3552 5.33072
4.35517 24.3489 5.33094
4.41244 24.3441 5.3311
4.46956 24.3394 5.33111
4.52637 24.3347 5.33086
4.58317 24.3312 5.33052
4.63951 24.3277 5.33
4.69554 24.3248 5.32935
4.75138 24.3214 5.32886
4.80788 24.3223 5.32855
4.86392 24.32 5.32841
4.91925 24.316 5.32814
4.97373 24.3106 5.32758
5.02813 24.3051 5.32695
5.08179 24.3001 5.32575
5.13498 24.2952 5.32418
5.18731 24.287 5.32239
5.24002 24.2785 5.32091
5.2925 24.2701 5.31899
5.3446 24.2618 5.31665
5.39618 24.2535 5.31365
5.44773 24.2452 5.3105
5.49859 24.2353 5.30699
5.54898 24.224 5.30331
5.59899 24.2112 5.29983
5.64925 24.1983 5.29697
5.69962 24.1854 5.29421
5.74995 24.1725 5.29115
5.80025 24.1597 5.2876
5.85056 24.147 5.28392
5.90076 24.1343 5.27951
5.95092 24.1216 5.27462
6.00089 24.1089 5.26928
6.05012 24.094 5.2644
6.0992 24.0785 5.25909
6.14838 24.0629 5.25329
6.19748 24.0464 5.24681
6.24627 24.029 5.24028
6.29542 24.0115 5.23325
6.34484 23.9939 5.22592
6.39416 23.975 5.21864
6.44376 23.9573 5.21178
6.49273 23.9369 5.2052
6.54188 23.9162 5.19839
6.59135 23.8951 5.19121
6.64076 23.8739 5.18394
6.69042 23.8526 5.1762
6.74019 23.8311 5.16822
6.78916 23.8075 5.1601
6.83749 23.7829 5.1523
6.88581 23.7584 5.1443
6.93417 23.7338 5.13608
6.98254 23.7092 5.12758
7.03064 23.684 5.11914
7.07851 23.6584 5.11056
7.12632 23.6329 5.10188
7.17368 23.6066 5.09321
7.22092 23.5798 5.08461
7.26801 23.5531 5.07609
7.31493 23.5265 5.06765
7.36206 23.5009 5.05926
7.40791 23.473 5.05118
7.45396 23.4461 5.04319
7.49966 23.4192 5.03541
7.54458 23.3914 5.02787
7.58965 23.3636 5.02014
7.63453 23.3359 5.01264
7.67917 23.3083 5.00542
7.72322 23.2804 4.99866
7.76719 23.2526 4.99198
7.81136 23.2256 4.98558
7.85636 23.1999 4.97909
7.90494 23.1803 4.97253
7.948 23.1497 4.96556
7.99412 23.1244 4.95869
8.03979 23.0986 4.95203
8.08508 23.0729 4.94576
8.13217 23.0506 4.93964
8.17956 23.03 4.93404
8.2277 23.0119 4.92891
8.27587 22.995 4.92419
8.32354 22.9765 4.91922
8.37011 22.9569 4.91453
8.41624 22.9374 4.91018
8.46213 22.9193 4.90641
8.50911 22.9041 4.90295
8.55571 22.889 4.89982
8.60192 22.8737 4.8969
8.64836 22.8593 4.89407
8.69532 22.845 4.89091
8.74226 22.8308 4.88767
8.78923 22.8169 4.88469
8.83699 22.8083 4.88233
8.88467 22.7997 4.88002
8.93204 22.7911 4.87807
8.97921 22.7826 4.87633
9.02605 22.7735 4.87481
9.07297 22.7643 4.87315
9.1198 22.7557 4.8717
9.16646 22.7472 4.87037
9.21289 22.7387 4.86922
9.25938 22.7306 4.86816
9.30612 22.7247 4.86729
9.35284 22.7187 4.8664
9.40019 22.7165 4.86561
9.44679 22.7068 4.86416
9.49402 22.7009 4.86276
9.54126 22.6949 4.8613
9.58846 22.6893 4.8598
9.63586 22.6864 4.8585
9.68337 22.6857 4.85739
9.73089 22.6847 4.85632
9.77833 22.6836 4.85532
9.82573 22.6824 4.85426
9.87296 22.6813 4.85332
9.92012 22.6802 4.85251
9.96714 22.6801 4.8519
10.0141 22.682 4.85131
10.0611 22.6836 4.8509
10.1079 22.6849 4.85063
10.1549 22.6854 4.85048
10.2019 22.6849 4.85024
10.249 22.6845 4.85014
10.296 22.6825 4.85005
10.3429 22.6819 4.85017
10.3896 22.6787 4.85006
10.4361 22.6753 4.85003
10.4825 22.6708 4.84996
10.5288 22.6668 4.84997
10.5752 22.6631 4.85007
10.6216 22.6594 4.85014
10.6678 22.6557 4.85012
10.7138 22.652 4.84996
10.7598 22.6483 4.84982
10.8057 22.6447 4.84943
10.8514 22.641 4.84883
10.8966 22.6313 4.84766
10.9432 22.6329 4.84708
10.9888 22.6263 4.84598
11.0339 22.6183 4.84444
11.079 22.6106 4.84267
11.1242 22.6028 4.84097
11.1693 22.595 4.83919
11.2145 22.5872 4.83734
11.2597 22.5794 4.83551
11.3043 22.5694 4.83359
11.3488 22.5582 4.83172
11.3935 22.5471 4.82992
11.4383 22.5359 4.82823
11.4833 22.5246 4.82653
11.5283 22.5134 4.82498
11.5735 22.5021 4.82356
11.6186 22.4908 4.82225
11.6636 22.4801 4.82081
11.7079 22.467 4.81946
11.7521 22.4529 4.81824
11.7966 22.4384 4.81721
11.8412 22.4239 4.81618
11.8863 22.4092 4.81535
11.9312 22.3927 4.81466
11.9753 22.3729 4.81408
12.0185 22.3523 4.81336
12.0623 22.3316 4.8128
12.1066 22.3107 4.81233
12.1517 22.2894 4.81207
12.1971 22.268 4.81197
12.2426 22.2454 4.8118
12.2881 22.2219 4.81155
12.3286 22.1886 4.81025
12.3785 22.1753 4.81003
12.4233 22.1522 4.80881
12.4684 22.1289 4.8076
12.514 22.1054 4.80649
12.5598 22.0818 4.80547
12.6056 22.057 4.80476
12.6515 22.0313 4.80429
12.6971 22.0044 4.804
12.742 21.977 4.80336
12.7871 21.9493 4.80313
12.8325 21.9214 4.8033
12.8783 21.8931 4.8041
12.9242 21.8648 4.80499
12.9705 21.8362 4.8064
13.0167 21.8071 4.80811
13.0627 21.7773 4.80983
13.1081 21.7472 4.81093
13.1533 21.7168 4.81207
13.1985 21.6861 4.81357
13.2433 21.655 4.81555
13.2881 21.624 4.81758
13.3329 21.5928 4.8203
13.3775 21.5617 4.82346
13.4222 21.5305 4.82716
13.4669 21.4988 4.83064
13.5113 21.467 4.83446
13.5554 21.4353 4.8385
13.5982 21.4024 4.8428
13.6404 21.3688 4.84725
13.682 21.3352 4.85181
13.7233 21.3019 4.85633
13.7548 21.2566 4.85771
13.806 21.2357 4.86369
13.8473 21.2029 4.86651
13.8882 21.1704 4.86927
13.9285 21.1384 4.87208
13.9694 21.107 4.8752
14.0096 21.076 4.87876
14.0493 21.0453 4.88261
14.0886 21.0148 4.88682
14.1284 20.9841 4.89082
14.168 20.9536 4.89539
14.2072 20.9234 4.90044
14.2459 20.8935 4.90619
14.2845 20.8636 4.912
14.3227 20.8338 4.91837
14.3608 20.8042 4.92515
14.3988 20.7745 4.93203
14.4374 20.7448 4.93835
14.4742 20.7126 4.94431
14.5113 20.6809 4.95076
14.5487 20.6499 4.95785
14.5861 20.6189 4.96502
14.6232 20.588 4.97285
14.6602 20.5573 4.98115
14.6971 20.5269 4.98991
14.7338 20.4961 4.99841
14.7691 20.464 5.00696
14.8044 20.4319 5.0158
14.8396 20.3998 5.02507
14.8747 20.3678 5.03445
14.9098 20.3356 5.04394
14.9451 20.3033 5.05344
14.9792 20.2693 5.06219
15.0163 20.2385 5.07131
15.0523 20.206 5.07963
15.0883 20.1732 5.08786
15.1236 20.1395 5.09592
15.1582 20.1051 5.10399
15.1937 20.0718 5.11262
15.2302 20.0396 5.12152
15.2666 20.0074 5.13066
15.303 19.9751 5.13971
15.3388 19.9424 5.14899
15.3735 19.9087 5.15835
15.408 19.8752 5.16814
15.4426 19.8416 5.17794
15.4769 19.8081 5.1881
15.5111 19.7748 5.19849
15.5456 19.7419 5.20907
15.5805 19.7091 5.21939
15.6153 19.6765 5.22978
15.6502 19.6443 5.24043
15.685 19.6124 5.25138
15.7193 19.5798 5.26226
15.7533 19.5474 5.27344
15.7872 19.5151 5.28481
15.8211 19.4829 5.2964
15.855 19.4508 5.30793
15.8893 19.4193 5.31965
15.9244 19.3888 5.33157
15.9595 19.3584 5.34362
15.9948 19.3286 5.35576
16.0303 19.299 5.3679
16.0659 19.2693 5.38
16.0967 19.2331 5.39116
16.1384 19.211 5.40377
16.176 19.1825 5.41561
16.2105 19.15 5.42685
16.2446 19.1167 5.43802
16.2788 19.0841 5.44913
16.3141 19.0533 5.46028
16.3497 19.023 5.4715
16.3852 18.9929 5.48263
16.4189 18.9602 5.49362
16.4488 18.9237 5.50361
16.48 18.8888 5.51422
16.5124 18.8557 5.52538
16.5447 18.8225 5.53646
16.5776 18.7905 5.54775
16.6126 18.7616 5.55997
16.6477 18.7328 5.572
16.683 18.7037 5.58407
16.7184 18.6748 5.59588
16.7536 18.6457 5.60763
16.792 18.6221 5.62045
16.8305 18.599 5.63322
16.8687 18.5759 5.64601
16.9065 18.5523 5.65872
16.9434 18.5274 5.67113
16.9802 18.5021 5.68338
17.0167 18.4767 5.69553
17.0533 18.4518 5.7078
17.0892 18.4265 5.71998
17.1238 18.3997 5.73188
17.1583 18.3729 5.74386
17.1927 18.3463 5.75592
17.2246 18.3165 5.76793
17.2614 18.2928 5.78084
17.2959 18.266 5.79359
17.3309 18.2401 5.8065
17.3672 18.2165 5.81934
17.4035 18.193 5.83213
17.4396 18.1695 5.84463
17.4755 18.1461 5.85689
17.5114 18.1228 5.86891
17.5475 18.0994 5.88115
17.5835 18.0759 5.89298
17.6175 18.0498 5.90437
17.6512 18.0236 5.91523
17.685 17.9973 5.92598
17.7185 17.9712 5.93632
17.7521 17.9451 5.94639
17.7854 17.9192 5.95652
17.8177 17.8922 5.96714
17.8488 17.864 5.97767
17.8801 17.8358 5.98784
17.9115 17.8075 5.99746
17.9429 17.779 6.00699
17.9743 17.7501 6.01577
18.0059 17.721 6.02403
18.0377 17.6918 6.03177
18.0692 17.6628 6.03983
18.101 17.6336 6.04742
18.133 17.6042 6.05459
18.1656 17.5744 6.06111
18.1981 17.5446 6.06746
18.2311 17.5144 6.0735
18.2645 17.4841 6.0794
18.2972 17.4526 6.08561
18.3308 17.4229 6.09257
18.3636 17.392 6.09984
18.3967 17.3608 6.10695
18.429 17.328 6.11363
18.4614 17.2951 6.12012
18.4943 17.2619 6.12595
18.5269 17.228 6.1313
18.5596 17.1937 6.13617
18.5928 17.1604 6.14147
18.6242 17.125 6.14605
18.6564 17.09 6.15011
18.6888 17.0547 6.15334
18.72 17.0182 6.15646
18.7511 16.9813 6.15889
18.7823 16.9442 6.16089
18.8124 16.9063 6.16261
18.8401 16.8669 6.16461
18.8678 16.8276 6.16669
18.8956 16.7882 6.16853
18.9235 16.7487 6.16995
18.9515 16.7092 6.17114
18.9796 16.6696 6.17193
19.0077 16.6299 6.17256
19.0359 16.5902 6.17319
19.0641 16.5503 6.17417
19.0933 16.5111 6.17536
19.1209 16.4709 6.17614
19.1485 16.4309 6.17687
19.1761 16.3908 6.17755
19.2036 16.351 6.17814
19.2317 16.3096 6.17876
19.2257 16.2491 6.1689
19.2838 16.232 6.18073
19.3126 16.193 6.18096
19.3412 16.1543 6.18126
19.3685 16.1153 6.18153
19.3951 16.0762 6.18221
19.4213 16.0374 6.18319
19.447 15.9985 6.18385
19.4722 15.9595 6.18435
19.4974 15.9204 6.18486
19.5226 15.8814 6.18527
19.5478 15.8425 6.18562
19.5728 15.8038 6.18587
19.5979 15.7651 6.18614
19.6228 15.7265 6.1863
19.6474 15.6876 6.18628
19.6719 15.6487 6.18621
19.6941 15.6082 6.18573
19.7161 15.5674 6.18506
19.7382 15.5266 6.18432
19.7603 15.4856 6.18336
19.7813 15.4442 6.1821
19.8018 15.4025 6.18061
19.8238 15.3613 6.17951
19.8456 15.3201 6.1784
19.866 15.2782 6.17688
19.8846 15.2354 6.175
19.9039 15.193 6.17321
19.9232 15.1505 6.17138
19.9429 15.1083 6.16962
19.9644 15.0671 6.1682
19.9859 15.0259 6.16682
19.9989 14.9804 6.16407
20.0285 14.9435 6.16442
20.0505 14.9025 6.16317
20.0721 14.8614 6.1621
20.0936 14.8203 6.16111
20.1152 14.7793 6.1601
20.1367 14.7383 6.15914
20.1582 14.6973 6.15821
20.1791 14.656 6.15723
20.2001 14.6147 6.15629
20.2213 14.5735 6.15535
20.2398 14.5311 6.15384
20.2584 14.4887 6.15237
20.2771 14.4464 6.15097
20.2964 14.4042 6.14968
20.3157 14.3621 6.14836
20.3351 14.3198 6.14697
20.3544 14.2775 6.14556
20.3738 14.2352 6.14406
20.3943 14.1934 6.14278
20.4154 14.1519 6.14158
20.4379 14.1112 6.14075
20.4605 14.0704 6.1399
20.4831 14.0297 6.13903
20.5056 13.989 6.1382
20.5281 13.9483 6.13744
20.5506 13.9076 6.1367
20.573 13.867 6.13617
20.5955 13.8264 6.13515
20.6183 13.7856 6.13337
20.6429 13.7456 6.13169
20.6675 13.7058 6.13002
20.7244 13.685 6.14154
20.717 13.6249 6.12743
20.7423 13.5848 6.12709
20.7678 13.5461 6.12745
20.7932 13.5076 6.12793
20.8189 13.4692 6.12834
20.8453 13.4312 6.12894
20.8716 13.3932 6.12962
20.898 13.3552 6.13022
20.9244 13.3173 6.13069
20.9508 13.2794 6.13103
20.9784 13.2423 6.13185
21.0066 13.2056 6.13289
21.0341 13.1683 6.13358
21.0615 13.1308 6.13424
21.0906 13.0947 6.13584
21.1203 13.0591 6.13785
21.1498 13.0236 6.13993
21.1793 12.9881 6.14212
21.2088 12.9525 6.14433
21.2383 12.917 6.14657
21.2677 12.8815 6.14882
21.2972 12.846 6.15102
21.3263 12.8101 6.15293
21.3552 12.7735 6.15446
21.3843 12.7367 6.15596
21.4128 12.6991 6.15694
21.4398 12.6604 6.15701
21.4655 12.6206 6.15629
21.4904 12.5802 6.15529
21.5154 12.5398 6.15427
21.5405 12.4993 6.15321
21.5432 12.4455 6.14225
21.5903 12.4187 6.15108
21.6151 12.3787 6.15007
21.6398 12.3387 6.1491
21.6643 12.2986 6.14822
21.6884 12.2583 6.1472
21.7124 12.218 6.14626
21.7365 12.1776 6.14532
21.7611 12.1375 6.14458
21.7858 12.0973 6.14377
21.8106 12.0571 6.143
21.8356 12.017 6.1423
21.8606 11.9767 6.14164
21.8846 11.936 6.14062
21.9087 11.8952 6.1397
21.9327 11.8544 6.13883
21.9566 11.8135 6.13798
21.9813 11.7731 6.13748
22.0071 11.7333 6.13752
22.0324 11.6933 6.13737
22.0574 11.653 6.13715
22.0812 11.6121 6.13649
22.1059 11.5718 6.1363
22.1323 11.5327 6.13687
22.1589 11.4937 6.13759
22.1855 11.4548 6.1383
22.2121 11.4158 6.13901
22.2387 11.3769 6.13974
22.2646 11.3377 6.14015
22.2905 11.2985 6.14051
22.3157 11.259 6.14047
22.3411 11.2194 6.14039
22.3718 11.1835 6.14273
22.3914 11.1404 6.13998
22.416 11.1002 6.13912
22.4405 11.0601 6.13822
22.465 11.02 6.13728
22.4894 10.9799 6.13631
22.5136 10.9399 6.13539
22.5377 10.8998 6.13453
22.5633 10.8609 6.13434
22.5889 10.8219 6.13408
22.6156 10.7837 6.13445
22.6424 10.7456 6.13508
22.6691 10.7076 6.13602
22.6967 10.6703 6.1374
22.7249 10.6335 6.13925
22.7529 10.5966 6.14129
22.781 10.5598 6.14331
22.8084 10.5223 6.14466
22.8351 10.4844 6.14584
22.8617 10.4466 6.14726
22.8883 10.4087 6.14906
22.9145 10.3707 6.15082
22.9402 10.3324 6.15299
22.9658 10.2941 6.15553
22.9914 10.2558 6.15844
23.017 10.2175 6.16114
23.0425 10.1791 6.16418
23.0688 10.1415 6.16777
23.0959 10.1044 6.17201
23.1232 10.0676 6.17637
23.1504 10.0307 6.18098
23.1775 9.99394 6.18573
23.203 9.95585 6.18993
23.232 9.92038 6.19435
23.2593 9.88362 6.19821
23.2865 9.84685 6.2022
23.3138 9.81008 6.20643
23.341 9.77331 6.21077
23.3681 9.73651 6.21557
23.3952 9.69968 6.22067
23.4223 9.66282 6.22606
23.4494 9.62594 6.23124
23.4752 9.58807 6.23651
23.5 9.54946 6.24182
23.5244 9.51057 6.24773
23.5488 9.47165 6.25363
23.5732 9.43264 6.25992
23.5974 9.39357 6.26651
23.6216 9.35458 6.27303
23.6459 9.3158 6.279
23.6698 9.27685 6.28473
23.6926 9.23706 6.29025
23.7153 9.1971 6.29611
23.738 9.1571 6.30208
23.7608 9.11687 6.30857
23.7836 9.07647 6.31539
23.8063 9.03591 6.32254
23.8287 8.99532 6.32936
23.8511 8.95453 6.33647
23.8735 8.91353 6.34386
23.896 8.87218 6.3517
23.9184 8.83076 6.35968
23.9409 8.78901 6.36784
23.9628 8.74674 6.37596
23.9737 8.69773 6.37987
24.0038 8.6602 6.39102
24.0253 8.61768 6.39823
24.0468 8.57502 6.40553
24.0686 8.53224 6.41298
24.0903 8.48939 6.42051
24.1121 8.44631 6.42826
24.1334 8.40287 6.43594
24.1548 8.35935 6.44375
24.1761 8.31595 6.45147
24.1974 8.27258 6.45936
24.2187 8.22911 6.46737
24.2398 8.1855 6.47551
24.261 8.14194 6.48366
24.2823 8.09834 6.49198
24.3035 8.0547 6.50039
24.3247 8.01098 6.50891
24.346 7.96717 6.51741
24.3673 7.92338 6.52593
24.3898 7.8804 6.53502
24.4123 7.8376 6.54409
24.4326 7.79354 6.55216
24.4529 7.74975 6.56021
24.4743 7.70686 6.56873
24.4958 7.66423 6.57725
24.5175 7.6215 6.58599
24.5391 7.57902 6.59453
24.5607 7.53681 6.60288
24.5822 7.49504 6.61085
24.6037 7.45326 6.61866
24.6253 7.41202 6.62622
24.6469 7.37106 6.63353
24.6769 7.33546 6.64545
24.6901 7.28893 6.64828
24.7117 7.24777 6.65571
24.7334 7.2069 6.66289
24.7548 7.16646 6.66967
24.7758 7.1258 6.67614
24.7947 7.0844 6.68105
24.8169 7.0453 6.6876
24.8402 7.00721 6.69457
24.8635 6.96904 6.70173
24.8867 6.93109 6.70875
24.9099 6.89333 6.71557
24.933 6.85587 6.72214
24.9553 6.81792 6.72826
24.9773 6.77987 6.73399
24.9993 6.74196 6.73969
25.0218 6.70431 6.74561
25.0443 6.66652 6.75159
25.0668 6.62861 6.75762
25.0894 6.59069 6.76366
25.112 6.55273 6.76976
25.1345 6.51479 6.77585
25.157 6.47683 6.78201
25.1792 6.43862 6.78803
25.2004 6.39975 6.79344
25.2213 6.36091 6.79874
25.2424 6.32201 6.80406
25.2634 6.28303 6.80944
25.2845 6.24385 6.81497
25.3046 6.20403 6.82014
25.324 6.16348 6.82502
25.343 6.12257 6.82986
25.3581 6.07949 6.83267
25.381 6.04082 6.8395
25.4 5.99999 6.84431
25.4191 5.95898 6.84925
25.4381 5.91771 6.85439
25.4573 5.87649 6.85964
25.4768 5.8351 6.8652
25.4963 5.79355 6.87089
25.517 5.75248 6.87731
25.5381 5.7118 6.88387
25.5602 5.67149 6.89096
25.5837 5.63197 6.89899
25.6073 5.59219 6.90713
25.631 5.55238 6.9153
25.6547 5.51244 6.92356
25.6784 5.47244 6.93185
25.7016 5.43225 6.93986
25.7231 5.39119 6.94685
25.7446 5.35021 6.95377
25.7661 5.30921 6.9607
25.7876 5.26813 6.96764
25.8092 5.22703 6.97465
25.8313 5.18605 6.98191
25.8535 5.14499 6.98917
25.8755 5.10381 6.99637
25.897 5.06244 7.00328
25.9186 5.02099 7.01019
25.9407 4.97966 7.01739
25.9641 4.93906 7.02526
25.9875 4.89852 7.03308
26.011 4.85789 7.04091
26.0339 4.81631 7.04803
26.0449 4.76744 7.0497
26.0793 4.73388 7.06359
26.1024 4.69281 7.07144
26.1256 4.65177 7.0793
26.1485 4.61052 7.08687
26.1707 4.56891 7.09405
26.193 4.52734 7.10111
26.2148 4.48541 7.10781
26.2362 4.44326 7.11422
26.2577 4.40111 7.12064
26.2791 4.35896 7.12702
26.2981 4.31555 7.13204
26.3191 4.27296 7.13781
26.3401 4.23054 7.1438
26.3612 4.18815 7.14979
26.3807 4.14496 7.15493
26.3998 4.10157 7.15987
26.4188 4.05826 7.16481
26.4378 4.015 7.1698
26.4567 3.97175 7.17484
26.4756 3.92849 7.17989
26.4939 3.88488 7.18449
26.5129 3.84158 7.18952
26.5331 3.79895 7.19539
26.5526 3.75579 7.20082
26.5717 3.71226 7.20589
26.5908 3.66862 7.21096
26.6098 3.62496 7.21598
26.627 3.58027 7.21975
26.6441 3.53556 7.2235
26.6613 3.49072 7.22722
26.6786 3.4458 7.23086
26.6711 3.39011 7.21926
26.7128 3.35614 7.23863
26.7304 3.31155 7.24283
26.7485 3.26683 7.24665
26.7667 3.22206 7.25044
26.7849 3.17728 7.25431
26.803 3.13255 7.25821
26.8217 3.08824 7.26241
26.8406 3.04403 7.26693
26.8595 2.99942 7.27181
26.8778 2.95494 7.27619
26.8909 2.90882 7.27606
26.9036 2.86259 7.27629
26.9179 2.81677 7.27812
26.9324 2.77099 7.28064
26.9466 2.72527 7.28332
26.961 2.67952 7.28595
26.9756 2.63367 7.28829
26.9903 2.58795 7.29056
27.0048 2.54237 7.29297
27.019 2.49706 7.29556
27.0332 2.45177 7.29818
27.0469 2.4068 7.3011
27.0592 2.36164 7.303
27.0704 2.31634 7.30425
27.0817 2.27079 7.30539
27.0927 2.22542 7.30673
27.1035 2.18033 7.30821
27.1138 2.13568 7.30989
27.124 2.09107 7.31165
27.1341 2.04696 7.31337
27.1442 2.0032 7.31504
27.1547 1.95974 7.31642
27.1657 1.91595 7.31745
27.1775 1.87256 7.31887
27.1915 1.83005 7.323
27.2019 1.78716 7.32289
27.2123 1.74426 7.32289
27.2231 1.70199 7.3244
27.2337 1.65993 7.32608
27.2439 1.61797 7.32797
27.255 1.57599 7.33059
27.2657 1.53395 7.33353
27.2771 1.49235 7.33832
27.2883 1.45097 7.34414
27.298 1.40901 7.34786
27.3073 1.36715 7.35206
27.3168 1.32553 7.35738
27.3262 1.28405 7.36275
27.336 1.24277 7.36774
27.3458 1.20145 7.3728
27.3552 1.15996 7.37815
27.3642 1.11815 7.38392
27.3731 1.07627 7.38973
27.3815 1.03391 7.39605
27.3896 0.991205 7.40271
27.3973 0.948231 7.40969
27.4052 0.905661 7.4165
27.4128 0.862718 7.42361
27.42 0.819175 7.43053
27.427 0.774913 7.43784
27.4339 0.730566 7.44527
27.4408 0.685539 7.45285
27.4479 0.640047 7.46047
27.4557 0.594474 7.46827
27.4641 0.549596 7.4761
27.4734 0.504692 7.48419
27.4831 0.459465 7.49256
27.4917 0.413043 7.49967
27.4991 0.366082 7.50532
27.5083 0.319318 7.51388
27.5174 0.272133 7.52267
27.5263 0.224613 7.53172
27.5352 0.177443 7.54059
27.5428 0.129621 7.54845
27.5498 0.0813955 7.55628
27.5564 0.0327505 7.56457
27.563 -0.0159477 7.57287
27.5697 -0.0648398 7.58187
27.5765 -0.113742 7.59156
27.5833 -0.162741 7.60135
27.5903 -0.211684 7.6107
27.5964 -0.260767 7.61933
27.6023 -0.309812 7.62816
27.608 -0.358755 7.63721
27.6137 -0.40771 7.64626
27.619 -0.456495 7.65558
27.6241 -0.505163 7.66496
27.6284 -0.553826 7.67424
27.6327 -0.602661 7.68358
27.6369 -0.651282 7.69304
27.6411 -0.699527 7.70271
27.6457 -0.747465 7.71259
27.6505 -0.795827 7.72241
27.6549 -0.843589 7.73182
27.6584 -0.891286 7.73985
27.6312 -0.946022 7.71888
27.6641 -0.990771 7.75172
27.665 -1.03713 7.75611
27.6694 -1.08321 7.76357
27.6741 -1.1281 7.77111
27.6788 -1.17399 7.77902
27.6829 -1.21982 7.78667
27.686 -1.26528 7.79354
27.6891 -1.31049 7.80045
27.6922 -1.35602 7.80737
27.6951 -1.40132 7.81446
27.6972 -1.44641 7.82113
27.6978 -1.49126 7.82708
27.6973 -1.53625 7.83219
27.6966 -1.58092 7.83736
27.6957 -1.62536 7.84269
27.6947 -1.6695 7.84827
27.6936 -1.71363 7.85382
27.6923 -1.75762 7.85954
27.6898 -1.80158 7.86479
27.6867 -1.84558 7.87006
27.6837 -1.88965 7.87528
27.6807 -1.9339 7.88062
27.6775 -1.97829 7.88605
27.6744 -2.02268 7.89156
27.6711 -2.06669 7.89711
27.6696 -2.11095 7.90361
27.6666 -2.15571 7.90897
27.6638 -2.20105 7.9142
27.6608 -2.24618 7.91956
27.6581 -2.29227 7.92459
27.6557 -2.33908 7.92934
27.6907 -2.38648 7.95959
27.6517 -2.43545 7.93752
27.65 -2.48462 7.94108
27.6486 -2.53432 7.94447
27.6499 -2.58382 7.94986
27.6525 -2.63213 7.95671
27.6551 -2.68031 7.96376
27.6565 -2.72932 7.9701
27.6553 -2.77861 7.97441
27.6565 -2.82748 7.98076
27.6582 -2.8761 7.98791
27.6623 -2.92417 7.9976
27.6665 -2.97241 8.0073
27.6708 -3.02074 8.01687
27.6752 -3.06912 8.02645
27.6786 -3.11767 8.03521
27.6842 -3.16554 8.0464
27.69 -3.21325 8.05805
27.6957 -3.26074 8.06975
27.7013 -3.30806 8.08146
27.7067 -3.35503 8.09299
27.7114 -3.40209 8.10386
27.7158 -3.44894 8.11425
27.7221 -3.49489 8.12678
27.7292 -3.54057 8.13997
27.7363 -3.58646 8.15322
27.7436 -3.63236 8.16635
27.751 -3.6782 8.17936
27.7584 -3.72372 8.19221
27.7656 -3.76893 8.20511
27.7729 -3.81396 8.21784
27.78 -3.85858 8.23056
27.8397 -3.87834 8.30571
27.8025 -3.95602 8.25473
27.8112 -3.99949 8.27006
27.8199 -4.04282 8.28527
27.8282 -4.08548 8.3004
27.8367 -4.12828 8.3155
27.8452 -4.17064 8.3304
27.8536 -4.21263 8.34518
27.8621 -4.25444 8.35975
27.871 -4.29661 8.3743
27.88 -4.33869 8.38868
27.8905 -4.37942 8.40492
27.8982 -4.42172 8.41789
27.9057 -4.46368 8.43064
27.9129 -4.50546 8.44342
27.9202 -4.54722 8.4562
27.9275 -4.58926 8.4691
27.9349 -4.63167 8.4821
27.9423 -4.6744 8.49519
27.9497 -4.71713 8.50828
27.9572 -4.75978 8.5213
27.9647 -4.80221 8.53416
27.975 -4.84298 8.55033
27.9852 -4.88363 8.56622
27.9951 -4.92418 8.58222
28.0051 -4.96473 8.59825
28.0148 -5.00519 8.61439
28.0245 -5.04546 8.63054
28.0342 -5.086 8.64679
28.0456 -5.12612 8.66452
28.0574 -5.16644 8.68248
28.0693 -5.20676 8.70045
28.1182 -5.21952 8.75476
28.093 -5.28638 8.73385
28.1043 -5.3262 8.75106
28.1155 -5.36589 8.76823
28.1265 -5.4054 8.78542
28.1376 -5.4449 8.80259
28.1494 -5.48374 8.82068
28.1614 -5.5224 8.83913
28.1733 -5.56098 8.85765
28.1847 -5.59982 8.87566
28.1959 -5.6386 8.89366
28.2069 -5.67734 8.91173
28.2178 -5.71604 8.92986
28.2288 -5.75477 8.94799
28.2398 -5.79342 8.96629
28.2508 -5.83206 8.98465
28.2617 -5.87072 9.00302
28.2728 -5.90937 9.02131
28.2838 -5.94807 9.03963
28.2948 -5.98681 9.05801
28.3055 -6.02587 9.07615
28.3159 -6.06504 9.09416
28.3273 -6.10351 9.11339
28.3373 -6.14315 9.13115
28.347 -6.18292 9.14882
28.3568 -6.22258 9.16639
28.3665 -6.26226 9.184
28.3763 -6.30202 9.20167
28.386 -6.34187 9.21944
28.3956 -6.38171 9.23723
28.4053 -6.42168 9.25508
28.415 -6.46167 9.27295
28.4366 -6.493 9.30462
28.4393 -6.5409 9.31314
28.4515 -6.57879 9.33374
28.4638 -6.61681 9.35439
28.4761 -6.65491 9.37509
28.4884 -6.69308 9.39584
28.5007 -6.73135 9.4167
28.513 -6.76967 9.43762
28.5242 -6.80912 9.45721
28.5352 -6.84862 9.47652
28.5462 -6.88818 9.49593
28.5571 -6.9278 9.51544
28.5679 -6.9675 9.53505
28.5788 -7.00707 9.5548
28.5897 -7.04665 9.57468
28.6005 -7.08628 9.59463
28.6113 -7.12595 9.61462
28.6219 -7.16602 9.63401
28.6317 -7.20688 9.6522
28.6412 -7.24807 9.66989
28.6506 -7.28927 9.6876
28.6601 -7.33043 9.70529
28.6694 -7.37155 9.72301
28.6787 -7.41264 9.74073
28.688 -7.4537 9.7586
28.6974 -7.49473 9.77681
28.7067 -7.53568 9.795
28.7158 -7.5767 9.81276
28.7247 -7.61777 9.83002
28.7335 -7.65885 9.84731
28.7424 -7.69972 9.86446
28.7513 -7.74042 9.8815
28.7499 -7.791 9.87993
28.7694 -7.8217 9.91529
28.7787 -7.86227 9.93205
28.788 -7.90266 9.9487
28.7972 -7.94288 9.96507
28.8061 -7.98324 9.98111
28.8149 -8.02342 9.99709
28.8231 -8.06407 10.012
28.8313 -8.10468 10.0268
28.8397 -8.14523 10.0419
28.8481 -8.18569 10.0573
28.8562 -8.22636 10.0723
28.8635 -8.26753 10.0864
28.8708 -8.30875 10.1007
28.8779 -8.35001 10.115
28.8848 -8.39129 10.1295
28.8915 -8.43248 10.144
28.8992 -8.47276 10.16
28.9058 -8.51386 10.1744
28.9115 -8.55557 10.1874
28.917 -8.59757 10.2006
28.9225 -8.63969 10.2139
28.9288 -8.68146 10.2293
28.9351 -8.72332 10.2451
28.9411 -8.76535 10.261
28.9471 -8.80708 10.2769
28.9531 -8.84904 10.2929
28.9592 -8.89127 10.3089
28.9653 -8.93408 10.3252
28.9709 -8.97719 10.3418
28.9769 -9.02083 10.3581
28.9814 -9.06581 10.3722
28.9813 -9.11691 10.3697
28.9933 -9.15488 10.401
29.0007 -9.19913 10.4149
29.0084 -9.24363 10.4287
29.0163 -9.28849 10.4426
29.024 -9.33345 10.4566
29.0315 -9.37884 10.4708
29.0383 -9.42508 10.4838
29.0444 -9.47211 10.4948
29.0515 -9.5179 10.5088
29.0583 -9.56354 10.5237
29.0647 -9.6094 10.5388
29.07 -9.65578 10.5535
29.0748 -9.70259 10.5672
29.0789 -9.74949 10.5813
29.083 -9.79584 10.5973
29.087 -9.84217 10.6134
29.0916 -9.88843 10.6291
29.0958 -9.93457 10.6449
29.0995 -9.98061 10.661
29.1023 -10.0265 10.6778
29.105 -10.0724 10.6953
29.1062 -10.1186 10.7117
29.1055 -10.166 10.7242
29.104 -10.2133 10.7368
29.1029 -10.2607 10.7493
29.1012 -10.3079 10.7622
29.099 -10.3551 10.7754
29.0958 -10.4023 10.7886
29.0923 -10.4495 10.8019
29.0886 -10.4968 10.8152
29.0849 -10.5441 10.8285
29.0803 -10.5939 10.8333
29.0802 -10.6393 10.8547
29.0796 -10.6871 10.8678
29.0788 -10.7349 10.8808
29.0777 -10.7825 10.894
29.0766 -10.8295 10.9089
29.0744 -10.8762 10.924
29.0714 -10.9227 10.9393
29.0675 -10.9689 10.9546
29.0643 -11.0153 10.9699
29.0599 -11.0614 10.9854
29.0541 -11.1074 10.9996
29.0465 -11.1532 11.0132
29.0384 -11.1991 11.0253
29.029 -11.2445 11.0377
29.0187 -11.2896 11.0502
29.0083 -11.3348 11.0628
29.0002 -11.3793 11.0797
28.9919 -11.424 11.0966
28.9826 -11.4687 11.1124
28.9721 -11.5128 11.1281
28.9614 -11.5569 11.1434
28.9491 -11.6003 11.1586
28.9357 -11.643 11.1739
28.921 -11.6851 11.1893
28.9072 -11.7266 11.2084
28.8924 -11.7676 11.2271
28.8769 -11.8083 11.2447
28.8599 -11.8491 11.2597
28.8426 -11.8898 11.2743
28.8253 -11.9299 11.2888
28.8081 -11.9698 11.3032
28.7909 -12.0146 11.302
28.7795 -12.0478 11.3364
28.7659 -12.0892 11.3506
28.7525 -12.1288 11.3679
28.7391 -12.168 11.3851
28.7251 -12.2075 11.4007
28.71 -12.2469 11.4142
28.6942 -12.2861 11.4268
28.6777 -12.3248 11.4393
28.6617 -12.3638 11.452
28.6448 -12.4022 11.4646
28.6272 -12.4401 11.4772
28.6084 -12.477 11.4907
28.5895 -12.5136 11.505
28.5698 -12.5496 11.5193
28.5491 -12.5861 11.5307
28.5282 -12.6228 11.5405
28.5085 -12.6601 11.549
28.4887 -12.6978 11.5565
28.468 -12.7353 11.564
28.4463 -12.7727 11.5714
28.4244 -12.8104 11.5788
28.4011 -12.8474 11.5877
28.377 -12.8832 11.6002
28.3519 -12.919 11.6122
28.3273 -12.9545 11.6239
28.3021 -12.9901 11.6356
28.2763 -13.026 11.6474
28.2497 -13.0623 11.6595
28.2229 -13.0985 11.672
28.1959 -13.1354 11.6848
28.1689 -13.1729 11.6979
28.142 -13.2076 11.72
28.1172 -13.249 11.7247
28.0925 -13.2873 11.7386
28.0679 -13.3263 11.7525
28.0432 -13.366 11.7665
28.0183 -13.4057 11.7805
27.9928 -13.4459 11.7947
27.9669 -13.4863 11.8092
27.9406 -13.5273 11.823
27.9147 -13.568 11.8368
27.8881 -13.6087 11.8504
27.8609 -13.6493 11.864
27.8324 -13.6886 11.8804
27.8044 -13.7265 11.8996
27.7746 -13.7657 11.9156
27.7445 -13.8035 11.934
27.7141 -13.8412 11.9523
27.6843 -13.8791 11.9707
27.6543 -13.9167 11.9889
27.6238 -13.9539 12.007
27.593 -13.992 12.0218
27.5623 -14.0303 12.0361
27.531 -14.0676 12.0509
27.4993 -14.1045 12.0653
27.4672 -14.1416 12.0786
27.4351 -14.1791 12.0921
27.403 -14.2163 12.1055
27.3706 -14.2523 12.1204
27.3381 -14.2873 12.136
27.3056 -14.3221 12.1516
27.2736 -14.3565 12.1672
27.2431 -14.3916 12.1801
27.2112 -14.4243 12.2003
27.1806 -14.4634 12.2053
27.1512 -14.5005 12.2204
27.1222 -14.5355 12.2372
27.0937 -14.57 12.2537
27.0648 -14.6041 12.2701
27.0359 -14.6376 12.2862
27.007 -14.6684 12.3068
26.9786 -14.7008 12.325
26.9523 -14.7402 12.332
26.9234 -14.7772 12.3445
26.8933 -14.8094 12.3602
26.8625 -14.8407 12.3749
26.8315 -14.8721 12.3897
26.8 -14.9026 12.4035
26.7659 -14.9308 12.4183
26.733 -14.9544 12.4388
26.7031 -14.9793 12.4599
26.6721 -15.0188 12.459
26.6433 -15.055 12.4605
26.6107 -15.0848 12.4689
26.5777 -15.1152 12.4763
26.5437 -15.1452 12.4829
26.5092 -15.175 12.4892
26.4746 -15.2047 12.4955
26.4404 -15.2341 12.5028
26.4063 -15.2635 12.5115
26.3722 -15.2933 12.5202
26.3375 -15.3239 12.5285
26.3022 -15.3552 12.5331
26.266 -15.3883 12.5359
26.2289 -15.4231 12.5391
26.1973 -15.4664 12.5042
26.1586 -15.4828 12.548
26.1198 -15.5164 12.5643
26.0798 -15.5574 12.572
26.0447 -15.603 12.5604
26.0091 -15.6401 12.5614
25.9746 -15.6739 12.5639
25.94 -15.7089 12.5666
25.9048 -15.7437 12.5692
25.869 -15.779 12.5711
25.8318 -15.8137 12.5726
25.7941 -15.8478 12.574
25.7553 -15.881 12.5749
25.7163 -15.9139 12.5761
25.6769 -15.9461 12.5757
25.6387 -15.979 12.5693
25.5997 -16.0118 12.5628
25.56 -16.0453 12.5593
25.5197 -16.0785 12.5557
25.4793 -16.1112 12.5521
25.4391 -16.1432 12.5486
25.4003 -16.1747 12.5385
25.3613 -16.2054 12.5283
25.3217 -16.2351 12.5193
25.2822 -16.2638 12.5073
25.244 -16.2928 12.4911
25.2054 -16.3209 12.4729
25.1663 -16.3485 12.4544
25.1265 -16.3748 12.4355
25.0866 -16.4002 12.4167
25.0468 -16.4255 12.3979
25.0109 -16.4543 12.3811
25.0009 -16.4765 12.2879
24.928 -16.5275 12.3304
24.8967 -16.552 12.3048
24.8644 -16.577 12.28
24.8319 -16.6017 12.2576
24.7994 -16.6259 12.2319
24.7674 -16.6485 12.2036
24.7349 -16.6704 12.1752
24.7015 -16.692 12.1479
24.6684 -16.7145 12.1216
24.6346 -16.7366 12.0964
24.6015 -16.7571 12.0693
24.5671 -16.7771 12.0438
24.5325 -16.797 12.0185
24.4973 -16.8161 11.9933
24.4624 -16.834 11.9669
24.4283 -16.8511 11.9388
24.3953 -16.8685 11.9094
24.3629 -16.8853 11.8786
24.3301 -16.9018 11.8478
24.2964 -16.9178 11.8176
24.2625 -16.9336 11.7874
24.2284 -16.9485 11.757
24.1938 -16.9632 11.7269
24.1572 -16.9796 11.7006
24.1209 -16.9965 11.6741
24.0846 -17.0134 11.6477
24.0485 -17.0298 11.6215
24.0133 -17.0449 11.5936
23.9786 -17.0594 11.5651
23.944 -17.0742 11.5365
23.9098 -17.0891 11.508
23.8919 -17.0837 11.4474
23.8396 -17.1161 11.4384
23.8099 -17.1289 11.4042
23.7801 -17.1419 11.3699
23.7507 -17.1551 11.3358
23.7209 -17.1683 11.3016
23.6911 -17.181 11.2677
23.6614 -17.1936 11.2339
23.6317 -17.2057 11.2005
23.602 -17.2179 11.1669
23.5721 -17.2295 11.1338
23.5412 -17.2412 11.1015
23.5088 -17.2542 11.0721
23.4777 -17.2659 11.0412
23.448 -17.2754 11.0084
23.418 -17.2845 10.9756
23.3875 -17.2938 10.9423
23.3569 -17.3037 10.9083
23.3261 -17.3133 10.8737
23.2981 -17.319 10.8356
23.2697 -17.3243 10.7975
23.2415 -17.3296 10.7597
23.2136 -17.3337 10.7218
23.187 -17.3357 10.6828
23.163 -17.3341 10.6418
23.139 -17.3324 10.6011
23.1149 -17.3303 10.5606
23.0909 -17.3283 10.5202
23.066 -17.326 10.48
23.0399 -17.323 10.4393
23.0155 -17.319 10.3986
22.9922 -17.3137 10.3573
23.0073 -17.2816 10.2993
22.9501 -17.3083 10.2757
22.9304 -17.3074 10.2356
22.9085 -17.3054 10.1964
22.8865 -17.3026 10.158
22.865 -17.3009 10.1192
22.8436 -17.299 10.0808
22.822 -17.2964 10.0429
22.8001 -17.2932 10.0054
22.7782 -17.2904 9.96761
22.7558 -17.2871 9.93001
22.7331 -17.2834 9.89273
22.7102 -17.2787 9.85575
22.6873 -17.2742 9.81884
22.6641 -17.2693 9.78219
22.6407 -17.264 9.74567
22.6171 -17.2586 9.70911
22.594 -17.2538 9.67227
22.5707 -17.2489 9.63533
22.5471 -17.2437 9.59845
22.523 -17.238 9.56166
22.499 -17.2322 9.52495
22.4744 -17.2257 9.4884
22.4495 -17.2189 9.45193
22.4241 -17.2117 9.41558
22.3987 -17.2044 9.37926
22.3763 -17.1937 9.34139
22.3542 -17.1826 9.3033
22.3318 -17.1712 9.26504
22.3093 -17.1596 9.22686
22.2868 -17.1482 9.1884
22.2645 -17.1371 9.1497
22.2551 -17.1174 9.10604
22.221 -17.1165 9.0713
22.2003 -17.1072 9.03175
22.1798 -17.0981 8.992
22.1598 -17.089 8.95202
22.1354 -17.0828 8.91374
22.1097 -17.077 8.87573
22.0838 -17.0712 8.83797
22.0578 -17.0652 8.80028
22.0318 -17.0593 8.76252
22.0056 -17.0528 8.72504
21.9791 -17.0458 8.68781
21.9522 -17.038 8.651
21.9254 -17.0302 8.61419
21.8982 -17.0216 8.57782
21.8693 -17.0136 8.54255
21.8418 -17.004 8.50676
21.8172 -16.993 8.46936
21.7932 -16.9812 8.4316
21.7688 -16.969 8.39406
21.7441 -16.9561 8.35688
21.7234 -16.9402 8.31847
21.7029 -16.9231 8.28002
21.6815 -16.9057 8.24174
21.6589 -16.8885 8.2041
21.6381 -16.8704 8.16615
21.6178 -16.8516 8.12823
21.5972 -16.8324 8.09022
21.5751 -16.8136 8.05257
21.552 -16.7954 8.01551
21.5288 -16.7774 7.97817
21.5058 -16.7595 7.94058
21.5122 -16.7233 7.89314
21.4599 -16.7253 7.86307
21.4383 -16.7085 7.82313
21.4174 -16.6922 7.78333
21.3966 -16.6762 7.74361
21.3767 -16.6594 7.70388
21.3585 -16.641 7.66406
21.3422 -16.621 7.62402
21.3227 -16.6019 7.58481
21.3067 -16.5814 7.545
21.2884 -16.5613 7.50642
21.2676 -16.542 7.46897
21.2464 -16.5218 7.43249
21.2252 -16.5016 7.39594
21.2076 -16.4778 7.35934
21.1887 -16.4542 7.32301
21.1652 -16.4329 7.28904
21.1469 -16.41 7.2527
21.1263 -16.388 7.21719
21.1023 -16.3664 7.18258
21.0747 -16.3458 7.15054
21.0458 -16.3219 7.11622
21.0398 -16.2924 7.08071
21.0276 -16.2601 7.04553
20.9989 -16.2347 7.01525
20.9692 -16.2097 6.98681
20.9439 -16.1824 6.95727
20.9257 -16.1529 6.92627
20.9077 -16.1226 6.89659
20.8826 -16.0942 6.87008
20.8544 -16.0663 6.84509
20.8305 -16.0361 6.81713
20.8136 -16.0044 6.78509
20.7869 -15.9782 6.75653
20.7671 -15.949 6.7245
20.7437 -15.9216 6.69377
20.7222 -15.8934 6.66255
20.6985 -15.8655 6.63269
20.675 -15.8366 6.60391
20.6517 -15.8069 6.57586
20.6285 -15.7765 6.54852
20.6081 -15.7457 6.51916
20.587 -15.7141 6.49135
20.5629 -15.6826 6.46631
20.5392 -15.6496 6.44284
20.5174 -15.6159 6.41839
20.4982 -15.5803 6.39421
20.4767 -15.5447 6.37186
20.4557 -15.5088 6.3496
20.4351 -15.4736 6.32585
20.4121 -15.4392 6.30338
20.3884 -15.4046 6.28217
20.3647 -15.369 6.26223
20.342 -15.3329 6.24209
20.3196 -15.2957 6.22337
20.2973 -15.2578 6.20562
20.275 -15.2191 6.18888
20.2528 -15.1809 6.17163
20.2306 -15.1422 6.15502
20.2084 -15.1031 6.13899
20.1863 -15.0635 6.12377
20.1646 -15.0237 6.1088
20.1428 -14.9838 6.09365
20.121 -14.9441 6.07822
20.1223 -14.895 6.05399
20.0767 -14.8663 6.04314
20.0544 -14.8284 6.02364
20.0321 -14.7906 6.0039
20.0108 -14.7527 5.9842
19.9908 -14.7141 5.96507
19.971 -14.6754 5.94691
19.9512 -14.6367 5.92904
19.9314 -14.5978 5.91171
19.9112 -14.5591 5.89401
19.8918 -14.5197 5.87709
19.8735 -14.4798 5.86085
19.8553 -14.4394 5.84597
19.8384 -14.3984 5.83092
19.8226 -14.3567 5.81689
19.8067 -14.3148 5.80368
19.7915 -14.2725 5.79091
19.7762 -14.2307 5.77728
19.761 -14.1888 5.76411
19.7457 -14.1466 5.75179
19.732 -14.1034 5.74018
19.721 -14.0592 5.72756
19.7051 -14.016 5.71747
19.6893 -13.9725 5.70805
19.6749 -13.9284 5.69944
19.6638 -13.8836 5.69015
19.6545 -13.8383 5.68091
19.641 -13.7941 5.67247
19.6283 -13.749 5.66368
19.6188 -13.7024 5.65319
19.6054 -13.6568 5.64441
19.6039 -13.6113 5.63443
19.6024 -13.5668 5.62393
19.5847 -13.5239 5.61644
19.5739 -13.4801 5.60422
19.5619 -13.437 5.59288
19.5487 -13.3941 5.58087
19.5297 -13.3517 5.56923
19.5132 -13.309 5.55806
19.5074 -13.2648 5.5473
19.5015 -13.2205 5.53671
19.4925 -13.1767 5.5255
19.4812 -13.1333 5.51525
19.4702 -13.0897 5.50608
19.4595 -13.046 5.49804
19.4482 -13.0025 5.49025
19.4373 -12.9587 5.48345
19.4265 -12.9148 5.47737
19.4152 -12.8709 5.47186
19.4033 -12.8272 5.46563
19.3915 -12.7834 5.45973
19.3802 -12.7393 5.45442
19.3697 -12.6948 5.44986
19.3556 -12.6511 5.44705
19.3454 -12.6065 5.44358
19.3352 -12.5616 5.44083
19.3255 -12.5168 5.43902
19.3168 -12.4723 5.43682
19.3158 -12.4263 5.4313
19.3099 -12.3803 5.42804
19.3018 -12.3344 5.42599
19.2942 -12.2886 5.42411
19.2892 -12.2428 5.42162
19.2843 -12.197 5.41901
19.2777 -12.1515 5.4161
19.2695 -12.1062 5.41295
19.26 -12.0613 5.4094
19.2537 -12.0161 5.40474
19.2457 -11.9711 5.40065
19.236 -11.9264 5.39745
19.2279 -11.8813 5.39419
19.2194 -11.8364 5.39155
19.2107 -11.7914 5.38951
19.2018 -11.7464 5.38715
19.1932 -11.7013 5.3855
19.1848 -11.6562 5.38449
19.1768 -11.611 5.38447
19.1685 -11.5657 5.38458
19.16 -11.5205 5.38573
19.1517 -11.4752 5.38747
19.1435 -11.4301 5.38942
19.135 -11.3851 5.3906
19.1267 -11.3401 5.39199
19.1185 -11.2951 5.394
19.11 -11.25 5.39696
19.1003 -11.2047 5.40017
19.0977 -11.1581 5.40176
19.0956 -11.1116 5.40421
19.0937 -11.0651 5.40761
19.0919 -11.0189 5.41102
19.0902 -10.9727 5.41511
19.0862 -10.9268 5.4201
19.0824 -10.8807 5.42569
19.0799 -10.8345 5.43119
19.0775 -10.7882 5.43672
19.075 -10.7419 5.44217
19.0437 -10.6975 5.45201
19.067 -10.6482 5.4516
19.0625 -10.6022 5.45517
19.0586 -10.5561 5.45858
19.0547 -10.5101 5.46188
19.0509 -10.4638 5.46553
19.0472 -10.4175 5.46969
19.0436 -10.3712 5.47412
19.0408 -10.325 5.47883
19.0366 -10.279 5.48347
19.0289 -10.2335 5.4896
19.0213 -10.1879 5.49617
19.0113 -10.1426 5.50417
19.0014 -10.0972 5.51231
18.9938 -10.0511 5.52034
18.9878 -10.0047 5.52809
18.982 -9.95845 5.53615
18.9741 -9.91279 5.54463
18.9641 -9.86782 5.55429
18.9543 -9.82285 5.56432
18.9449 -9.77779 5.57479
18.9356 -9.73268 5.58525
18.9265 -9.68746 5.59618
18.9174 -9.64217 5.60739
18.9085 -9.59674 5.61884
18.8989 -9.55139 5.63028
18.8891 -9.506 5.64187
18.879 -9.46071 5.65371
18.8689 -9.41544 5.6657
18.8588 -9.37019 5.67778
18.8488 -9.32499 5.68977
18.8386 -9.27975 5.70165
18.7977 -9.24518 5.72684
18.8178 -9.19005 5.72469
18.808 -9.1452 5.73529
18.7991 -9.09917 5.74546
18.7889 -9.05378 5.75606
18.7774 -9.00964 5.76761
18.766 -8.9659 5.77912
18.7546 -8.92206 5.79054
18.7433 -8.87819 5.80195
18.7321 -8.83416 5.81335
18.7209 -8.79006 5.82481
18.7105 -8.74568 5.83594
18.7006 -8.70111 5.84682
18.6907 -8.65666 5.8577
18.6808 -8.61221 5.86863
18.6709 -8.56774 5.8796
18.661 -8.5232 5.89064
18.652 -8.4783 5.90129
18.6429 -8.43334 5.91199
18.6318 -8.3891 5.92369
18.6207 -8.3448 5.93547
18.6095 -8.30053 5.9473
18.5987 -8.25613 5.95899
18.5878 -8.2117 5.97068
18.5764 -8.1675 5.9827
18.5646 -8.12348 5.99488
18.5528 -8.07945 6.00705
18.541 -8.03541 6.01917
18.5293 -7.99133 6.03126
18.5177 -7.94716 6.04325
18.5061 -7.90297 6.05524
18.4952 -7.85868 6.06708
18.4753 -7.81758 6.08282
18.4741 -7.76976 6.09009
18.4636 -7.72506 6.10157
18.4532 -7.68036 6.11299
18.4426 -7.63564 6.12433
18.4321 -7.59093 6.13566
18.4215 -7.54623 6.14689
18.411 -7.50155 6.15804
18.3998 -7.45707 6.16935
18.3886 -7.41265 6.1808
18.3779 -7.36811 6.19196
18.3671 -7.32358 6.20303
18.3564 -7.27907 6.21392
18.3456 -7.23457 6.2248
18.3349 -7.19007 6.23555
18.3236 -7.14578 6.24648
18.3126 -7.10133 6.2573
18.3017 -7.05679 6.2682
18.2896 -7.01264 6.27961
18.2773 -6.96856 6.29101
18.2659 -6.9242 6.30198
18.2538 -6.88003 6.31323
18.2397 -6.83679 6.32517
18.2253 -6.79377 6.33715
18.2107 -6.75086 6.34901
18.1961 -6.70793 6.36082
18.1815 -6.66514 6.37252
18.1674 -6.62225 6.38405
18.1542 -6.57915 6.39513
18.1409 -6.53609 6.40606
18.1277 -6.49312 6.41727
18.1142 -6.45041 6.4289
18.1101 -6.40362 6.43685
18.0878 -6.36502 6.4537
18.0726 -6.32322 6.46779
18.0561 -6.28171 6.48235
18.0397 -6.24027 6.49698
18.0233 -6.19869 6.51172
18.0094 -6.15637 6.52481
18.0004 -6.1122 6.53451
17.991 -6.06826 6.54449
17.9815 -6.02425 6.5544
17.9756 -5.97903 6.56145
17.9728 -5.93326 6.5664
17.9698 -5.88714 6.57108
17.9634 -5.8414 6.57741
17.9594 -5.79527 6.58241
17.9572 -5.74927 6.5868
17.953 -5.70397 6.59244
17.945 -5.65953 6.60005
17.9369 -5.61523 6.60828
17.9266 -5.57153 6.61758
17.9129 -5.52909 6.62862
17.8993 -5.48674 6.63959
17.8855 -5.44429 6.6505
17.8731 -5.40111 6.6607
17.8609 -5.35768 6.67061
17.8491 -5.31414 6.68016
17.8372 -5.27053 6.68955
17.8255 -5.22673 6.69877
17.8161 -5.18207 6.7069
17.8067 -5.13737 6.71504
17.7975 -5.09252 6.72314
17.7889 -5.04744 6.73104
17.7838 -5.0015 6.73763
17.7722 -4.95743 6.74713
17.7641 -4.91255 6.7553
17.756 -4.86761 6.76352
17.7479 -4.82259 6.7718
17.7398 -4.77752 6.78007
17.7318 -4.73225 6.7882
17.7242 -4.68678 6.79608
17.7167 -4.64114 6.8038
17.7083 -4.59574 6.81203
17.6999 -4.55023 6.82003
17.6886 -4.50545 6.82929
17.6758 -4.46097 6.83901
17.6643 -4.41606 6.84809
17.6528 -4.37108 6.85704
17.6411 -4.32605 6.86591
17.6295 -4.28106 6.8748
17.6181 -4.23619 6.88388
17.6066 -4.19139 6.89294
17.5951 -4.14658 6.90186
17.5834 -4.10173 6.91056
17.5718 -4.05683 6.91922
17.56 -4.01187 6.92759
17.5494 -3.96645 6.93517
17.5387 -3.92096 6.94261
17.5281 -3.87545 6.95028
17.5173 -3.82996 6.95782
17.5044 -3.78514 6.96595
17.4915 -3.7402 6.97371
17.4786 -3.69523 6.9814
17.4657 -3.65023 6.98884
17.4527 -3.60521 6.99611
17.4411 -3.55967 7.00272
17.4267 -3.5152 7.01078
17.4137 -3.47023 7.01821
17.4007 -3.42526 7.02551
17.3877 -3.38031 7.03261
17.3746 -3.33535 7.03968
17.3632 -3.28978 7.04579
17.3512 -3.2444 7.05199
17.3391 -3.19902 7.05808
17.3271 -3.15365 7.06427
17.3153 -3.10825 7.07032
17.3035 -3.06281 7.07624
17.2919 -3.01736 7.08201
17.2802 -2.97192 7.08778
17.2685 -2.92649 7.09349
17.2563 -2.88124 7.09941
17.2438 -2.83603 7.10536
17.2314 -2.79079 7.1113
17.219 -2.74555 7.11728
17.2066 -2.70034 7.12334
17.1944 -2.65513 7.12941
17.1826 -2.60977 7.13525
17.1716 -2.56424 7.14092
17.1597 -2.51908 7.14722
17.1478 -2.47399 7.15375
17.1372 -2.42845 7.15966
17.1266 -2.38296 7.16565
17.1148 -2.33791 7.1721
17.1043 -2.29253 7.17834
17.094 -2.24709 7.18507
17.0841 -2.20155 7.19164
17.0745 -2.15586 7.19814
17.0762 -2.10689 7.19814
17.0545 -2.06473 7.21047
17.0437 -2.01914 7.21643
17.0329 -1.97352 7.22232
17.0221 -1.92791 7.22835
17.0115 -1.88234 7.23455
17.0011 -1.83681 7.24103
16.9911 -1.79129 7.24755
16.9811 -1.74584 7.25433
16.9712 -1.70037 7.26107
16.9613 -1.65501 7.26818
16.952 -1.60965 7.27548
16.9446 -1.56397 7.28229
16.9372 -1.5183 7.28915
16.9301 -1.47272 7.29627
16.923 -1.42718 7.30359
16.9159 -1.38161 7.31083
16.9081 -1.33602 7.31794
16.9002 -1.29043 7.32497
16.8924 -1.24491 7.33217
16.8849 -1.19954 7.33965
16.8773 -1.1542 7.3472
16.8701 -1.10906 7.35516
16.8631 -1.06401 7.36334
16.8569 -1.01893 7.37148
16.8506 -0.97371 7.37946
16.8442 -0.928681 7.38784
16.8377 -0.883883 7.39662
16.8315 -0.83928 7.40568
16.8254 -0.794706 7.41481
16.8194 -0.75033 7.4241
16.8135 -0.706087 7.43349
16.8059 -0.662286 7.44361
16.8005 -0.617685 7.45211
16.7934 -0.573552 7.46133
16.7855 -0.529781 7.47109
16.7777 -0.48616 7.48096
16.77 -0.442591 7.49092
16.7625 -0.399161 7.50114
16.7551 -0.355811 7.51152
16.7478 -0.312466 7.52208
16.7404 -0.268974 7.5325
16.7331 -0.225493 7.54312
16.726 -0.182077 7.55394
16.7203 -0.138479 7.56439
16.7169 -0.0943706 7.5736
16.7138 -0.0502369 7.58295
16.7107 -0.00611622 7.59243
16.7077 0.0379278 7.60191
16.7045 0.0818731 7.61117
16.7014 0.125814 7.62037
16.6982 0.169822 7.62966
16.6951 0.213958 7.63908
16.6917 0.258069 7.64877
16.687 0.302098 7.65936
16.6824 0.34628 7.67004
16.6801 0.391098 7.67951
16.6779 0.435691 7.6889
16.6756 0.480489 7.69831
16.6734 0.525546 7.70774
16.6712 0.5709 7.71724
16.6689 0.616209 7.7268
16.6656 0.66162 7.73691
16.6629 0.707827 7.74677
16.6737 0.755843 7.74959
16.6609 0.800416 7.76469
16.66 0.846371 7.77353
16.6588 0.892567 7.78235
16.6576 0.939057 7.79108
16.6564 0.985619 7.79982
16.6549 1.03249 7.80854
16.653 1.07952 7.81729
16.6502 1.12661 7.82648
16.6472 1.17351 7.83587
16.6438 1.2205 7.84537
16.6404 1.26763 7.85475
16.6368 1.31495 7.86398
16.6332 1.3623 7.87317
16.6314 1.41008 7.88121
16.6301 1.45794 7.88887
16.6289 1.50582 7.89643
16.628 1.55364 7.90406
16.6271 1.60137 7.91166
16.6262 1.64907 7.91915
16.6251 1.69672 7.92648
16.6241 1.7444 7.93378
16.6229 1.79203 7.94088
16.6224 1.83966 7.94747
16.6212 1.88718 7.95426
16.6186 1.93454 7.96199
16.616 1.98187 7.96956
16.6132 2.0292 7.97701
16.6104 2.07631 7.98419
16.6075 2.12307 7.99121
16.6053 2.17001 7.99764
16.605 2.21693 8.00274
16.5882 2.26303 8.01869
16.604 2.31255 8.01292
16.6027 2.36079 8.01873
16.6006 2.40815 8.0257
16.5984 2.45533 8.0326
16.596 2.50243 8.03947
16.5917 2.5489 8.04752
16.5871 2.59525 8.05536
16.5824 2.64136 8.06303
16.5773 2.68729 8.07149
16.5715 2.7328 8.08024
16.5654 2.77812 8.08883
16.559 2.82321 8.09703
16.5526 2.8683 8.10515
16.5458 2.91329 8.11291
16.5389 2.95821 8.12044
16.5319 3.00322 8.12792
16.5246 3.04827 8.13622
16.5167 3.09322 8.14489
16.5087 3.1381 8.15333
16.5027 3.18354 8.15963
16.4954 3.22845 8.16698
16.4877 3.27307 8.17393
16.4789 3.31722 8.18148
16.4703 3.3614 8.18832
16.4618 3.4058 8.19522
16.4532 3.45004 8.20191
16.4445 3.49405 8.20845
16.4357 3.53775 8.21476
16.4268 3.58143 8.22098
16.418 3.62479 8.2272
16.4096 3.66793 8.23331
16.3947 3.70873 8.2458
16.394 3.75407 8.24566
16.387 3.79729 8.2519
16.3807 3.84062 8.25803
16.3745 3.88378 8.26418
16.3682 3.92688 8.27022
16.3617 3.96985 8.27601
16.355 4.01275 8.28166
16.3482 4.05566 8.28709
16.3414 4.0987 8.29265
16.334 4.1417 8.29818
16.3247 4.18419 8.30491
16.3148 4.22667 8.31145
16.3043 4.26898 8.31847
16.2934 4.31126 8.32512
16.2822 4.35353 8.3315
16.2712 4.39562 8.33762
16.2607 4.43741 8.34408
16.2502 4.4791 8.35045
16.2393 4.52092 8.35653
16.2279 4.56299 8.36231
16.2163 4.60515 8.36812
16.204 4.64782 8.37346
16.1911 4.6908 8.37865
16.1778 4.73408 8.38352
16.1648 4.77699 8.38847
16.1515 4.82039 8.39311
16.1374 4.86413 8.39801
16.1219 4.90837 8.40343
16.1063 4.95266 8.40879
16.0902 4.99777 8.41415
16.0739 5.04353 8.42011
16.0508 5.08613 8.4325
16.0404 5.13418 8.43425
16.024 5.17931 8.44155
16.0087 5.22561 8.44777
15.9933 5.27268 8.45371
15.978 5.32004 8.45943
15.9627 5.36829 8.46443
15.9472 5.41695 8.46912
15.9315 5.46585 8.47361
15.9145 5.51375 8.47963
15.8963 5.56131 8.4861
15.8786 5.60953 8.49145
15.8603 5.65783 8.49655
15.8415 5.70592 8.50196
15.8223 5.75416 8.50694
15.8028 5.80244 8.51161
15.7833 5.851 8.51595
