BEGIN_Polyline
-3.62543 17.3425 7.55267
-3.67605 17.3274 7.55977
-3.7272 17.3131 7.56597
-3.77807 17.299 7.57184
-3.82901 17.2847 7.57758
-3.8802 17.2703 7.58329
-3.93166 17.2557 7.58889
-3.98317 17.2409 7.5944
-4.03399 17.2241 7.6022
-4.08511 17.207 7.6098
-4.13663 17.1899 7.61752
-4.18824 17.1732 7.62559
-4.23973 17.1557 7.63422
-4.29026 17.1362 7.64455
-4.34088 17.1163 7.65438
-4.39156 17.0963 7.66416
-4.44129 17.0747 7.67446
-4.48858 17.0498 7.68776
-4.53585 17.0245 7.7007
-4.58339 16.9997 7.71386
-4.62979 16.9737 7.72775
-4.6761 16.9474 7.74083
-4.72194 16.9206 7.75306
-4.76774 16.8936 7.76517
-4.813 16.8662 7.77654
-4.85783 16.8386 7.78743
-4.89251 16.8003 7.8115
-4.94743 16.7841 7.80973
-4.99213 16.7572 7.82109
-5.03633 16.7303 7.83193
-5.07978 16.7031 7.84199
-5.1236 16.6761 7.85134
-5.1667 16.6489 7.85974
-5.20926 16.6214 7.86759
-5.25142 16.5938 7.87494
-5.29373 16.566 7.88315
-5.3352 16.5374 7.89168
-5.37631 16.5085 7.89972
-5.41681 16.4792 7.90718
-5.45686 16.4497 7.91493
-5.497 16.4203 7.92168
-5.53722 16.391 7.92784
-5.57756 16.3615 7.9339
-5.61833 16.3322 7.94031
-5.65935 16.3028 7.94672
-5.70027 16.2733 7.95298
-5.74101 16.2439 7.95912
-5.78325 16.2165 7.96354
-5.8258 16.1899 7.96708
-5.86728 16.1621 7.97152
-5.90891 16.135 7.97508
-5.95059 16.1081 7.97819
-5.99246 16.0818 7.98083
-6.03508 16.0566 7.98275
-6.07722 16.0308 7.98569
-6.11873 16.0041 7.9895
-6.161 15.9784 7.99313
-6.20385 15.9528 7.99649
-6.26552 15.9554 7.97866
-6.29052 15.9015 8.00322
-6.33424 15.8763 8.00647
-6.37784 15.8514 8.00991
-6.42146 15.8269 8.01376
-6.4648 15.8021 8.01783
-6.5092 15.7794 8.02102
-6.55387 15.7573 8.02429
-6.59849 15.7351 8.02798
-6.64312 15.7126 8.03154
-6.68756 15.6903 8.03525
-6.73178 15.6683 8.03915
-6.77574 15.6468 8.04327
-6.81987 15.6254 8.04748
-6.86343 15.6042 8.05184
-6.90659 15.5833 8.05619
-6.94969 15.5633 8.05953
-6.99371 15.5449 8.06125
-7.03764 15.5269 8.06226
-7.08242 15.5117 8.06162
-7.12701 15.4966 8.06114
-7.17144 15.4818 8.06089
-7.21599 15.4671 8.06104
-7.26093 15.4532 8.06108
-7.30682 15.4405 8.06039
-7.35291 15.4271 8.05944
-7.39826 15.4102 8.06092
-7.44414 15.3941 8.06267
-7.4904 15.3794 8.06468
-7.53541 15.3625 8.06802
-7.58068 15.3459 8.07204
-7.62594 15.3297 8.07672
-7.65 15.26 8.11722
-7.72244 15.2897 8.08668
-7.76748 15.2712 8.09429
-7.81275 15.2531 8.10207
-7.85498 15.2332 8.11224
-7.89615 15.2127 8.12244
-7.93666 15.1927 8.13265
-7.9773 15.1728 8.14313
-8.01806 15.1529 8.15367
-8.05908 15.1327 8.16415
-8.10025 15.1123 8.17444
-8.14143 15.0921 8.18457
-8.1827 15.0719 8.19409
-8.22402 15.0516 8.20326
-8.264 15.0298 8.21351
-8.30339 15.0074 8.22409
-8.34256 14.9854 8.23485
-8.38175 14.964 8.24623
-8.42078 14.9427 8.25759
-8.4597 14.9211 8.26857
-8.49864 14.899 8.27875
-8.5382 14.8774 8.28817
-8.57808 14.8553 8.29622
-8.61802 14.8326 8.30352
-8.65789 14.8095 8.3102
-8.69751 14.7871 8.31761
-8.73725 14.7641 8.32433
-8.77716 14.7405 8.33029
-8.81765 14.7156 8.33485
-8.85777 14.6894 8.33945
-8.89806 14.6607 8.34385
-8.9387 14.6314 8.34756
-8.9534 14.5686 8.37662
-9.02057 14.5737 8.35669
-9.06161 14.5453 8.36211
-9.1029 14.5163 8.3669
-9.14445 14.4864 8.37068
-9.186 14.4562 8.3742
-9.22673 14.4238 8.37712
-9.26619 14.3889 8.38035
-9.30531 14.3532 8.38289
-9.34416 14.3184 8.38621
-9.38261 14.2833 8.38871
-9.42092 14.2476 8.39029
-9.45898 14.211 8.39053
-9.49669 14.1738 8.39091
-9.53402 14.1357 8.39055
-9.57156 14.0975 8.38929
-9.60947 14.0594 8.38774
-9.64781 14.0218 8.38709
-9.68415 13.9823 8.38852
-9.71944 13.9421 8.39008
-9.75701 13.9044 8.38872
-9.79466 13.8669 8.38695
-9.83167 13.8294 8.38439
-9.86676 13.7905 8.3826
-9.90161 13.7514 8.38029
-9.93683 13.7119 8.37834
-9.97011 13.6708 8.37741
-10.0017 13.629 8.37707
-10.0328 13.5876 8.37653
-10.0637 13.5463 8.37579
-10.0941 13.5057 8.37516
-10.1241 13.4651 8.37511
-10.1428 13.4173 8.38106
-10.1823 13.3834 8.37732
-10.2113 13.3431 8.37897
-10.2401 13.3034 8.38064
-10.2705 13.2664 8.3815
-10.301 13.2293 8.38213
-10.3308 13.1929 8.38254
-10.36 13.1571 8.38287
-10.389 13.1218 8.38295
-10.4188 13.0863 8.38299
-10.4481 13.051 8.38267
-10.4771 13.0161 8.38206
-10.5054 12.9816 8.38097
-10.5337 12.9472 8.37986
-10.5615 12.9132 8.37833
-10.5891 12.8792 8.37649
-10.617 12.8455 8.37435
-10.6456 12.8117 8.37254
-10.6744 12.7776 8.37057
-10.703 12.7436 8.36826
-10.7313 12.7095 8.36545
-10.7597 12.6755 8.36258
-10.7877 12.6416 8.35915
-10.8156 12.6077 8.35533
-10.8433 12.5738 8.35114
-10.871 12.5399 8.34719
-10.8985 12.5061 8.34298
-10.926 12.4723 8.33852
-10.9545 12.4394 8.33314
-10.9832 12.4067 8.32748
-11.012 12.3738 8.32171
-11.041 12.3408 8.31594
-11.0754 12.3129 8.30776
-11.0994 12.2748 8.30554
-11.129 12.2418 8.3009
-11.1587 12.2086 8.29624
-11.1887 12.1752 8.29139
-11.2187 12.1419 8.28629
-11.249 12.1086 8.28067
-11.2796 12.0754 8.27465
-11.3091 12.0409 8.26919
-11.3385 12.0066 8.26386
-11.3678 11.9721 8.25814
-11.397 11.9375 8.25209
-11.4261 11.9026 8.24554
-11.4552 11.8676 8.23893
-11.4845 11.8329 8.23166
-11.512 11.7965 8.22539
-11.5388 11.7598 8.21949
-11.5657 11.7234 8.21404
-11.5924 11.6872 8.20855
-11.6188 11.6506 8.20296
-11.6447 11.6136 8.19714
-11.6709 11.5766 8.19109
-11.6978 11.54 8.1839
-11.7245 11.5031 8.1764
-11.7512 11.466 8.16865
-11.7782 11.4291 8.16102
-11.8055 11.3923 8.15295
-11.8316 11.3543 8.14552
-11.8572 11.3157 8.13819
-11.8829 11.2771 8.13091
-11.9087 11.2381 8.12342
-11.9343 11.1995 8.11607
-11.9319 11.1361 8.13249
-11.9876 11.1143 8.09755
-12.0106 11.0727 8.09333
-12.0303 11.0314 8.09218
-12.0531 10.9931 8.08708
-12.0775 10.953 8.08207
-12.103 10.9125 8.07627
-12.1294 10.8735 8.06898
-12.1558 10.8344 8.06152
-12.1819 10.7947 8.05465
-12.2061 10.7534 8.04926
-12.2301 10.7119 8.04363
-12.254 10.6702 8.03769
-12.2774 10.628 8.03233
-12.2978 10.5839 8.02908
-12.3178 10.5396 8.02592
-12.3398 10.4967 8.02056
-12.3618 10.454 8.01545
-12.3837 10.4115 8.01024
-12.4053 10.3689 8.00478
-12.4267 10.3264 7.99912
-12.448 10.2834 7.9941
-12.4711 10.2419 7.98631
-12.494 10.2003 7.97826
-12.5166 10.1583 7.96969
-12.539 10.1162 7.9609
-12.5578 10.0713 7.95581
-12.576 10.0259 7.95091
-12.5943 9.9812 7.94644
-12.6133 9.93865 7.94334
-12.6347 9.89677 7.93697
-12.6563 9.85315 7.9327
-12.6385 9.78594 7.96832
-12.7003 9.76259 7.9281
-12.7209 9.71809 7.92491
-12.7408 9.67361 7.92225
-12.7591 9.62859 7.92079
-12.7769 9.58449 7.91914
-12.7924 9.54027 7.91895
-12.8074 9.49561 7.91964
-12.822 9.45119 7.92007
-12.8364 9.40687 7.92003
-12.8498 9.36264 7.91967
-12.8618 9.3181 7.91988
-12.8737 9.27359 7.91987
-12.8864 9.22918 7.91971
-12.8992 9.18475 7.91927
-12.912 9.14029 7.91862
-12.923 9.09517 7.91886
-12.9358 9.05042 7.9183
-12.9488 9.00574 7.91723
-12.9596 8.96045 7.91726
-12.9702 8.91517 7.91705
-12.9818 8.87015 7.91633
-12.9947 8.82557 7.91461
-13.008 8.78114 7.91248
-13.0223 8.73706 7.90967
-13.0366 8.69306 7.90695
-13.0508 8.64903 7.90417
-13.0651 8.60492 7.90132
-13.0793 8.56071 7.89836
-13.0935 8.51652 7.89529
-13.1077 8.47218 7.89225
-13.1219 8.42776 7.88919
-13.1766 8.39743 7.86491
-13.1526 8.33841 7.8854
-13.1675 8.2937 7.88198
-13.1827 8.24928 7.87907
-13.1979 8.20477 7.87609
-13.2131 8.16024 7.87309
-13.2282 8.11564 7.86993
-13.2433 8.07101 7.86665
-13.2583 8.02639 7.86326
-13.2744 7.98225 7.85935
-13.2904 7.93812 7.85527
-13.3064 7.89399 7.85103
-13.3222 7.84984 7.84652
-13.3391 7.80615 7.8413
-13.3562 7.76257 7.83571
-13.3732 7.71898 7.83
-13.3902 7.6754 7.82425
-13.4073 7.63184 7.81866
-13.4243 7.58832 7.81305
-13.4419 7.54508 7.80699
-13.4596 7.50207 7.8005
-13.4786 7.45967 7.79321
-13.4974 7.41722 7.78573
-13.5172 7.37524 7.77756
-13.5377 7.33381 7.76861
-13.5581 7.29223 7.75989
-13.5772 7.24995 7.75194
-13.5963 7.20763 7.74398
-13.6154 7.16531 7.73593
-13.6344 7.12304 7.72778
-13.6534 7.08074 7.71969
-13.6734 7.03772 7.71212
-13.7159 7.0099 7.68686
-13.7104 6.95333 7.69887
-13.7293 6.90966 7.69217
-13.7507 6.86792 7.6832
-13.773 6.82627 7.67378
-13.7929 6.78444 7.66527
-13.8121 6.74276 7.65689
-13.8314 6.70109 7.6486
-13.8506 6.65942 7.64025
-13.8699 6.61756 7.63189
-13.8892 6.57561 7.62345
-13.9077 6.53326 7.61561
-13.9258 6.49076 7.60802
-13.9447 6.44887 7.59967
-13.9635 6.40702 7.59128
-13.9823 6.36518 7.58286
-14.0012 6.32324 7.5744
-14.0202 6.28127 7.5658
-14.0395 6.23936 7.55703
-14.0588 6.1975 7.54825
-14.078 6.15573 7.53949
-14.0972 6.11397 7.5307
-14.114 6.07092 7.52406
-14.1303 6.02782 7.51791
-14.1473 5.98527 7.51104
-14.1642 5.94262 7.50415
-14.1812 5.90016 7.4973
-14.1981 5.8579 7.49052
-14.2149 5.81591 7.48381
-14.2317 5.77393 7.47708
-14.2484 5.73221 7.47045
-14.2652 5.69068 7.46387
-14.2872 5.65214 7.4524
-14.2989 5.60758 7.45087
-14.316 5.56607 7.44433
-14.3333 5.5249 7.43764
-14.3506 5.48393 7.43104
-14.3678 5.44301 7.42442
-14.385 5.40227 7.41784
-14.4021 5.36165 7.41128
-14.4193 5.32107 7.40473
-14.4365 5.28035 7.39818
-14.4526 5.239 7.39263
-14.4685 5.1977 7.38716
-14.4856 5.15724 7.38031
-14.5039 5.11755 7.37219
-14.5221 5.07791 7.36406
-14.5403 5.03829 7.3559
-14.5584 4.99878 7.34777
-14.5766 4.95937 7.33971
-14.5947 4.91997 7.33164
-14.6127 4.88052 7.32349
-14.6308 4.84089 7.31522
-14.6486 4.801 7.30719
-14.6664 4.76083 7.29909
-14.6841 4.7205 7.29089
-14.7017 4.68018 7.28262
-14.7204 4.64104 7.27318
-14.7391 4.60173 7.26362
-14.7579 4.56216 7.25388
-14.777 4.52219 7.24365
-14.7977 4.48246 7.23198
-14.8192 4.44362 7.21931
-14.8379 4.40191 7.20968
-14.8395 4.3481 7.21845
-14.8753 4.31856 7.19049
-14.894 4.277 7.18094
-14.9127 4.23516 7.17126
-14.9315 4.19292 7.1614
-14.9502 4.15054 7.15164
-14.9687 4.10763 7.1419
-14.9873 4.06449 7.13205
-15.0059 4.02115 7.12209
-15.0244 3.97796 7.1122
-15.0415 3.93385 7.10368
-15.0586 3.88963 7.09507
-15.0758 3.84528 7.08634
-15.0934 3.8011 7.07714
-15.1111 3.75691 7.06791
-15.1287 3.71277 7.05867
-15.1448 3.66805 7.0508
-15.1594 3.62273 7.04432
-15.1732 3.5771 7.03864
-15.1857 3.53087 7.0343
-15.1981 3.48449 7.03017
-15.2104 3.43813 7.02604
-15.2229 3.39167 7.02199
-15.2354 3.34516 7.01799
-15.248 3.29853 7.01404
-15.2606 3.25185 7.01002
-15.2742 3.2055 7.00516
-15.2878 3.1591 7.00041
-15.3013 3.11283 6.99603
-15.3149 3.06689 6.99187
-15.33 3.02157 6.9864
-15.3456 2.9767 6.98066
-15.3457 2.92485 6.98758
-15.3766 2.88677 6.96885
-15.392 2.84169 6.96275
-15.4074 2.79671 6.95668
-15.4228 2.75188 6.9507
-15.4389 2.70743 6.94415
-15.4552 2.6632 6.93769
-15.4715 2.61914 6.9313
-15.4878 2.57515 6.92498
-15.5044 2.53107 6.91834
-15.5191 2.48611 6.91357
-15.5321 2.44071 6.91024
-15.5459 2.39572 6.9065
-15.5597 2.35075 6.90274
-15.5735 2.30591 6.89908
-15.585 2.26024 6.89744
-15.5953 2.21422 6.8967
-15.6058 2.16803 6.89538
-15.6207 2.12364 6.89091
-15.6357 2.07939 6.88649
-15.6507 2.03538 6.88198
-15.6678 1.99221 6.87625
-15.6813 1.94769 6.87293
-15.6938 1.90324 6.8701
-15.7064 1.85891 6.86736
-15.7185 1.81432 6.86495
-15.7296 1.76949 6.86319
-15.7411 1.7249 6.86115
-15.7526 1.68046 6.85911
-15.7641 1.63606 6.85709
-15.7755 1.59176 6.85492
-15.7869 1.54753 6.85266
-15.8056 1.50529 6.84604
-15.8093 1.4585 6.84739
-15.8214 1.41411 6.84395
-15.8337 1.3701 6.84057
-15.8451 1.326 6.83726
-15.8567 1.28181 6.83413
-15.8683 1.23769 6.83098
-15.8794 1.19357 6.82786
-15.8925 1.15011 6.82394
-15.9058 1.10673 6.81998
-15.9191 1.06341 6.81604
-15.9324 1.02013 6.81209
-15.9457 0.976899 6.80812
-15.9594 0.933753 6.80402
-15.974 0.890992 6.79953
-15.9888 0.848343 6.79497
-16.0038 0.805752 6.79043
-16.0188 0.763179 6.78591
-16.0336 0.72053 6.78153
-16.0475 0.677499 6.77762
-16.0614 0.634418 6.77374
-16.0753 0.591336 6.76983
-16.0892 0.548169 6.76591
-16.1031 0.504928 6.76202
-16.1177 0.461837 6.75789
-16.1331 0.419212 6.75331
-16.1487 0.376494 6.74873
-16.1646 0.333756 6.74401
-16.1799 0.290594 6.73957
-16.195 0.247349 6.73518
-16.2103 0.204018 6.73073
-16.2256 0.160674 6.72613
-16.2569 0.123733 6.71326
-16.2595 0.0742573 6.7167
-16.2763 0.0318688 6.71106
-16.2931 -0.010681 6.70544
-16.3098 -0.0533748 6.69976
-16.3266 -0.0961386 6.6941
-16.3435 -0.139128 6.6884
-16.3605 -0.182254 6.68268
-16.3775 -0.225514 6.67695
-16.3934 -0.269142 6.67186
-16.4089 -0.313167 6.66713
-16.4244 -0.357343 6.66243
-16.4401 -0.401743 6.65775
-16.4565 -0.445839 6.65262
-16.4734 -0.489953 6.64735
-16.4903 -0.534159 6.64211
-16.5072 -0.578315 6.63686
-16.5236 -0.622471 6.6318
-16.5377 -0.667477 6.62798
-16.5524 -0.712404 6.624
-16.5685 -0.756914 6.61921
-16.5846 -0.801464 6.6144
-16.6006 -0.846316 6.60984
-16.6158 -0.891625 6.60588
-16.6311 -0.937058 6.60196
-16.6463 -0.982392 6.59799
-16.6616 -1.02785 6.59407
-16.677 -1.07344 6.5902
-16.6925 -1.11922 6.58641
-16.708 -1.165 6.58264
-16.7236 -1.21093 6.57894
-16.7392 -1.25701 6.57543
-16.7468 -1.30624 6.57717
-16.7699 -1.34939 6.56862
-16.7851 -1.39548 6.56522
-16.8003 -1.44161 6.56186
-16.8156 -1.48779 6.55858
-16.831 -1.53399 6.55533
-16.8464 -1.58024 6.55215
-16.8618 -1.62652 6.54899
-16.8772 -1.67283 6.5458
-16.8925 -1.71918 6.54255
-16.9077 -1.76554 6.53933
-16.9204 -1.81284 6.53767
-16.9358 -1.85914 6.53472
-16.9518 -1.90516 6.53144
-16.9678 -1.95115 6.52821
-16.9838 -1.99713 6.52503
-16.9999 -2.04314 6.52188
-17.016 -2.08926 6.51872
-17.0321 -2.13537 6.51556
-17.0481 -2.1814 6.51241
-17.0641 -2.22731 6.50922
-17.0795 -2.27342 6.50624
-17.0948 -2.31936 6.50327
-17.11 -2.36514 6.5003
-17.1263 -2.41039 6.49693
-17.1427 -2.4557 6.49364
-17.1591 -2.50085 6.49036
-17.1754 -2.54581 6.48707
-17.1916 -2.59057 6.48367
-17.2079 -2.63545 6.48018
-17.2232 -2.68037 6.47685
-17.2379 -2.72546 6.47368
-17.2366 -2.77601 6.47577
-17.2651 -2.81665 6.46747
-17.2788 -2.86168 6.46401
-17.2941 -2.9065 6.46059
-17.3093 -2.95109 6.45715
-17.3245 -2.99564 6.45364
-17.3395 -3.03988 6.45006
-17.3545 -3.08392 6.44646
-17.3693 -3.12777 6.44282
-17.383 -3.17221 6.43971
-17.3966 -3.21652 6.43662
-17.4101 -3.26063 6.43351
-17.4234 -3.30448 6.43036
-17.4365 -3.34839 6.42732
-17.4491 -3.39223 6.42443
-17.4616 -3.43596 6.42155
-17.4744 -3.47957 6.41856
-17.4874 -3.52326 6.41548
-17.5005 -3.56697 6.41242
-17.5135 -3.6106 6.40937
-17.5264 -3.65413 6.40632
-17.5394 -3.69762 6.40325
-17.5514 -3.74128 6.40056
-17.563 -3.78503 6.39807
-17.5746 -3.82875 6.39561
-17.5862 -3.87248 6.39319
-17.5978 -3.91623 6.39078
-17.6095 -3.96009 6.38842
-17.6206 -4.00395 6.38609
-17.6308 -4.04748 6.38365
-17.6426 -4.09101 6.38077
-17.6553 -4.1342 6.3772
-17.6418 -4.1869 6.38692
-17.6815 -4.22213 6.37036
-17.695 -4.26681 6.36718
-17.7085 -4.31167 6.36407
-17.7196 -4.35726 6.36233
-17.7303 -4.40243 6.36069
-17.741 -4.44741 6.35909
-17.7517 -4.49254 6.35752
-17.7624 -4.53765 6.35595
-17.7731 -4.58272 6.35436
-17.7838 -4.62771 6.35274
-17.7945 -4.67266 6.3511
-17.8051 -4.71754 6.34945
-17.8157 -4.7624 6.34778
-17.8266 -4.80716 6.34598
-17.837 -4.85197 6.34432
-17.8472 -4.8969 6.34277
-17.8574 -4.94199 6.34124
-17.8668 -4.98725 6.34001
-17.8757 -5.03254 6.33904
-17.8841 -5.07773 6.33817
-17.8926 -5.12285 6.33725
-17.9012 -5.1677 6.33625
-17.9097 -5.21237 6.33523
-17.9182 -5.25693 6.33418
-17.9267 -5.3017 6.33314
-17.9343 -5.34647 6.33255
-17.9414 -5.39105 6.33211
-17.9485 -5.43528 6.33163
-17.9556 -5.47948 6.33113
-17.963 -5.52326 6.33047
-17.9704 -5.56678 6.32977
-17.9805 -5.60965 6.3279
-17.9853 -5.65371 6.32852
-17.9928 -5.69715 6.32796
-18.0002 -5.74038 6.32741
-18.0076 -5.7833 6.32686
-18.015 -5.82619 6.32628
-18.0224 -5.86881 6.32565
-18.0295 -5.91129 6.32506
-18.0381 -5.95339 6.32375
-18.0473 -5.99548 6.32223
-18.0562 -6.03764 6.32077
-18.065 -6.07973 6.31927
-18.0738 -6.12178 6.31769
-18.0823 -6.16391 6.31622
-18.0905 -6.20608 6.31486
-18.0985 -6.24824 6.31346
-18.1091 -6.28975 6.31092
-18.1196 -6.33106 6.30842
-18.1301 -6.37243 6.30593
-18.1407 -6.41394 6.3034
-18.1512 -6.45572 6.3008
-18.1617 -6.49754 6.29822
-18.1723 -6.53973 6.29554
-18.1829 -6.58219 6.29278
-18.1933 -6.62491 6.29003
-18.2033 -6.66748 6.28753
-18.2133 -6.71034 6.28496
-18.2234 -6.75352 6.28234
-18.234 -6.79711 6.27943
-18.2447 -6.84075 6.2764
-18.2556 -6.88482 6.27331
-18.2666 -6.92923 6.27039
-18.2857 -6.97127 6.26308
-18.2904 -7.01726 6.26338
-18.3027 -7.0607 6.25952
-18.3151 -7.10445 6.25562
-18.3263 -7.14912 6.25236
-18.3374 -7.19395 6.2492
-18.3485 -7.23938 6.24595
-18.3595 -7.28526 6.24282
-18.3704 -7.33147 6.23963
-18.3813 -7.37738 6.23644
-18.3925 -7.42348 6.23303
-18.4043 -7.46974 6.22935
-18.4162 -7.51644 6.22563
-18.4282 -7.5632 6.22189
-18.4402 -7.61027 6.21819
-18.4523 -7.65755 6.21461
-18.4626 -7.70533 6.21189
-18.4704 -7.75326 6.21005
-18.4825 -7.80056 6.20669
-18.4953 -7.84735 6.20318
-18.5081 -7.89422 6.19974
-18.5209 -7.94116 6.19627
-18.5338 -7.9882 6.1928
-18.5466 -8.03528 6.18935
-18.5542 -8.08391 6.18771
-18.5623 -8.13222 6.18573
-18.5709 -8.18045 6.18359
-18.5804 -8.22856 6.18124
-18.5898 -8.27665 6.17889
-18.5993 -8.32468 6.17655
-18.61 -8.37242 6.1738
-18.6201 -8.42039 6.17121
-18.6247 -8.46936 6.1698
-18.6365 -8.51701 6.16656
-18.6447 -8.5652 6.16408
-18.6528 -8.61329 6.16157
-18.6608 -8.66121 6.15903
-18.6693 -8.70908 6.15644
-18.6784 -8.7566 6.15373
-18.6875 -8.80396 6.15106
-18.6971 -8.85105 6.1483
-18.7091 -8.89762 6.14502
-18.7206 -8.94429 6.14191
-18.7317 -8.99093 6.13894
-18.7427 -9.03743 6.1361
-18.7544 -9.08371 6.13315
-18.7661 -9.12993 6.1304
-18.7779 -9.17614 6.12782
-18.7895 -9.2226 6.1255
-18.8009 -9.26931 6.12317
-18.8125 -9.31616 6.12101
-18.824 -9.36295 6.11899
-18.8356 -9.40963 6.11712
-18.8471 -9.45627 6.11525
-18.8586 -9.50263 6.11343
-18.8703 -9.54878 6.11165
-18.8848 -9.59386 6.10908
-18.9009 -9.63843 6.10591
-18.9171 -9.68288 6.10285
-18.9333 -9.7272 6.09984
-18.9494 -9.77131 6.09694
-18.9656 -9.81539 6.0941
-18.9817 -9.85929 6.0912
-18.9976 -9.90309 6.08822
-19.0184 -9.94484 6.08303
-19.0292 -9.99054 6.08136
-19.0423 -10.0353 6.07855
-19.0548 -10.0803 6.076
-19.0679 -10.125 6.07333
-19.0811 -10.1696 6.07076
-19.0942 -10.2141 6.06834
-19.1072 -10.2583 6.06601
-19.1203 -10.3025 6.06364
-19.1333 -10.3468 6.061
-19.1492 -10.3901 6.05759
-19.1647 -10.4333 6.05442
-19.1784 -10.4769 6.05256
-19.1912 -10.5209 6.05124
-19.2041 -10.5646 6.05031
-19.2171 -10.6083 6.04966
-19.2302 -10.6519 6.04921
-19.2432 -10.6956 6.04853
-19.2563 -10.7393 6.04803
-19.2696 -10.783 6.04778
-19.2829 -10.8266 6.04786
-19.2963 -10.8702 6.04793
-19.3099 -10.9137 6.04825
-19.3248 -10.9568 6.04813
-19.3403 -10.9997 6.04799
-19.3556 -11.0426 6.04794
-19.371 -11.0856 6.04801
-19.3883 -11.128 6.047
-19.4069 -11.17 6.04527
-19.4256 -11.2119 6.0437
-19.4442 -11.2539 6.04188
-19.4625 -11.2961 6.03986
-19.4805 -11.3385 6.03733
-19.4916 -11.3833 6.03797
-19.506 -11.4272 6.03648
-19.5204 -11.4712 6.03485
-19.5348 -11.5155 6.03313
-19.5492 -11.5596 6.03151
-19.5638 -11.6039 6.03017
-19.579 -11.648 6.02879
-19.5947 -11.6921 6.02754
-19.6115 -11.7358 6.02585
-19.6269 -11.78 6.02512
-19.6425 -11.8242 6.02479
-19.6582 -11.8683 6.02511
-19.6739 -11.9124 6.02549
-19.6898 -11.9563 6.02641
-19.7083 -11.9992 6.02695
-19.7287 -12.0411 6.02688
-19.7488 -12.083 6.0261
-19.7692 -12.1247 6.02544
-19.7901 -12.166 6.02519
-19.8112 -12.2072 6.02569
-19.8322 -12.2485 6.02627
-19.8535 -12.2896 6.02771
-19.875 -12.3306 6.02975
-19.8969 -12.3716 6.03246
-19.9148 -12.4144 6.03672
-19.932 -12.458 6.04208
-19.949 -12.5018 6.04794
-19.9635 -12.5466 6.05552
-19.978 -12.5914 6.06331
-19.9925 -12.6364 6.07096
-20.006 -12.6817 6.07891
-20.0115 -12.729 6.08866
-20.0293 -12.7735 6.09301
-20.0399 -12.8189 6.0986
-20.0549 -12.8636 6.10253
-20.0696 -12.9081 6.10647
-20.0827 -12.9531 6.11118
-20.0973 -12.9975 6.11626
-20.1138 -13.0411 6.12136
-20.1305 -13.0846 6.12712
-20.1472 -13.1283 6.13253
-20.1641 -13.1719 6.13897
-20.1819 -13.215 6.14623
-20.2013 -13.2571 6.15421
-20.2171 -13.3004 6.16334
-20.2367 -13.3418 6.17259
-20.2565 -13.383 6.18264
-20.2758 -13.4243 6.19296
-20.2936 -13.4666 6.20246
-20.3114 -13.509 6.21218
-20.3306 -13.5506 6.22243
-20.3514 -13.5913 6.2335
-20.3722 -13.6319 6.24466
-20.3928 -13.6723 6.2573
-20.4135 -13.7125 6.27088
-20.4343 -13.7524 6.28554
-20.4552 -13.7925 6.29981
-20.4777 -13.8317 6.31449
-20.5016 -13.87 6.32942
-20.5258 -13.9083 6.34527
-20.5504 -13.9464 6.36132
-20.5758 -13.9843 6.3773
-20.6004 -14.0222 6.39307
-20.6522 -14.0461 6.40115
-20.6488 -14.0999 6.42234
-20.673 -14.1394 6.43582
-20.6961 -14.1794 6.44947
-20.7214 -14.2178 6.46243
-20.7466 -14.256 6.47553
-20.772 -14.2936 6.48927
-20.799 -14.3301 6.50317
-20.8261 -14.3662 6.51767
-20.8531 -14.4027 6.53154
-20.879 -14.4393 6.54664
-20.9039 -14.476 6.563
-20.9288 -14.512 6.58072
-20.954 -14.5477 6.59846
-20.9792 -14.5827 6.61739
-21.0039 -14.6176 6.6374
-21.0287 -14.6523 6.6577
-21.0533 -14.6877 6.677
-21.0758 -14.724 6.69746
-21.098 -14.7599 6.71882
-21.1204 -14.7954 6.74108
-21.1429 -14.8309 6.76342
-21.1656 -14.8656 6.78682
-21.1885 -14.8999 6.8109
-21.2102 -14.9339 6.83635
-21.2308 -14.9683 6.862
-21.2513 -15.0023 6.88821
-21.2718 -15.0362 6.91475
-21.2925 -15.0698 6.94169
-21.318 -15.1017 6.96652
-21.3407 -15.135 6.99271
-21.3621 -15.1689 7.0193
-21.3808 -15.2045 7.04604
-21.4004 -15.2404 7.07166
-21.4193 -15.2773 7.09649
-21.4394 -15.3142 7.12054
-21.4603 -15.3509 7.14391
-21.4813 -15.3872 7.16751
-21.5026 -15.4229 7.19133
-21.5242 -15.4582 7.21525
-21.5458 -15.493 7.23949
-21.5675 -15.5284 7.26348
-21.5892 -15.5629 7.28816
-21.611 -15.5965 7.31347
-21.6321 -15.6289 7.3401
-21.6577 -15.6597 7.36465
-21.6837 -15.6893 7.39006
-21.7097 -15.7179 7.41616
-21.7355 -15.7458 7.44259
-21.7612 -15.7744 7.46817
-21.7865 -15.8024 7.49415
-21.8109 -15.8301 7.52114
-21.8372 -15.8554 7.54828
-21.8637 -15.8809 7.57546
-21.8899 -15.9054 7.60374
-21.9152 -15.9298 7.63315
-21.9377 -15.9549 7.66416
-21.9603 -15.9802 7.69481
-21.9827 -16.005 7.72588
-22.0078 -16.0283 7.75637
-22.0337 -16.0512 7.78737
-22.0607 -16.073 7.81878
-22.0888 -16.0951 7.8497
-22.1174 -16.118 7.88064
-22.1572 -16.1345 7.90416
-22.1595 -16.1784 7.93258
-22.181 -16.2111 7.96316
-22.2027 -16.2441 7.99368
-22.2247 -16.2775 8.02458
-22.248 -16.3098 8.05531
-22.272 -16.3408 8.08622
-22.3024 -16.3656 8.11771
-22.3328 -16.389 8.14985
-22.3613 -16.4124 8.18184
-22.3869 -16.4365 8.21365
-22.412 -16.4602 8.24535
-22.4364 -16.4834 8.27717
-22.4616 -16.5063 8.30952
-22.4901 -16.5237 8.34235
-22.5205 -16.5377 8.37472
-22.5508 -16.5523 8.40758
-22.581 -16.5684 8.44038
-22.6114 -16.5846 8.4734
-22.6416 -16.6007 8.50664
-22.6714 -16.6166 8.5397
-22.7023 -16.6298 8.5721
-22.7346 -16.6381 8.60468
-22.7667 -16.6462 8.63813
-22.7986 -16.6541 8.67279
-22.8324 -16.6583 8.70681
-22.8667 -16.66 8.74238
-22.9005 -16.661 8.7789
-22.9338 -16.661 8.81745
-22.9675 -16.6606 8.85701
-23.0009 -16.659 8.89613
-23.0338 -16.6555 8.93448
-23.1042 -16.5796 8.9364
-23.1027 -16.6454 9.0201
-23.1383 -16.6371 9.06022
-23.1702 -16.6307 9.08939
-23.1981 -16.6262 9.11873
-23.2311 -16.6239 9.14996
-23.2661 -16.6231 9.18126
-23.3006 -16.6212 9.21098
-23.3351 -16.6201 9.24071
-23.3701 -16.6194 9.27054
-23.4052 -16.6186 9.30057
-23.4401 -16.6173 9.33075
-23.4748 -16.6151 9.36121
-23.5113 -16.6116 9.38934
-23.5469 -16.6069 9.41845
-23.5808 -16.6015 9.44956
-23.6147 -16.5955 9.48085
-23.6489 -16.5905 9.51216
-23.6851 -16.5844 9.54126
-23.7225 -16.577 9.56853
-23.7585 -16.5683 9.59757
-23.793 -16.5597 9.62843
-23.8275 -16.5497 9.65933
-23.8621 -16.5387 9.69024
-23.8967 -16.5264 9.72114
-23.934 -16.5144 9.74888
-23.9728 -16.502 9.77536
-24.0118 -16.4891 9.80204
-24.0508 -16.4769 9.8287
-24.0891 -16.466 9.85488
-24.1247 -16.4554 9.88551
-24.1605 -16.4463 9.91558
-24.2228 -16.4326 9.91338
-24.2369 -16.4332 9.97504
-24.2744 -16.4257 10.0046
-24.3121 -16.4187 10.034
-24.3497 -16.4122 10.0633
-24.3874 -16.4055 10.0926
-24.4242 -16.3991 10.1225
-24.4601 -16.3931 10.1527
-24.4957 -16.3868 10.1827
-24.5335 -16.3795 10.2099
-24.571 -16.3715 10.2371
-24.6081 -16.363 10.2641
-24.6446 -16.3538 10.2909
-24.6811 -16.3448 10.3177
-24.7172 -16.3351 10.3444
-24.7525 -16.325 10.3719
-24.7875 -16.3145 10.3998
-24.8235 -16.3036 10.427
-24.8596 -16.2924 10.4543
-24.8953 -16.281 10.4817
-24.9306 -16.2696 10.5087
-24.9655 -16.2586 10.5353
-25.0028 -16.245 10.5571
-25.0407 -16.2306 10.5775
-25.0784 -16.2158 10.5993
-25.1167 -16.1999 10.6183
-25.1574 -16.1818 10.6341
-25.1993 -16.1633 10.6507
-25.2423 -16.1443 10.6683
-25.2841 -16.1254 10.6856
-25.3276 -16.1064 10.7033
-25.3724 -16.087 10.7215
-25.4573 -16.0333 10.6132
-25.4738 -16.0568 10.7614
-25.523 -16.0368 10.7817
-25.5747 -16.0171 10.8027
-25.625 -15.9978 10.8198
-25.673 -15.9791 10.8326
-25.7199 -15.96 10.8394
-25.7692 -15.9384 10.8402
-25.8175 -15.9175 10.841
-25.8631 -15.8984 10.842
-25.9065 -15.8802 10.8429
-25.9497 -15.8612 10.8404
-25.9928 -15.8411 10.8374
-26.0368 -15.82 10.835
-26.0818 -15.7981 10.8357
-26.1266 -15.7757 10.8366
-26.1717 -15.7531 10.8374
-26.2169 -15.7313 10.8381
-26.2619 -15.7095 10.8388
-26.3071 -15.687 10.8379
-26.35 -15.6623 10.8294
-26.3925 -15.6374 10.8207
-26.435 -15.6119 10.8122
-26.4774 -15.5859 10.8038
-26.5198 -15.5593 10.7932
-26.5624 -15.5328 10.7825
-26.6051 -15.5061 10.7717
-26.6475 -15.4791 10.7611
-26.6894 -15.4523 10.7506
-26.7314 -15.4263 10.7402
-26.7732 -15.4014 10.7321
-26.8141 -15.3766 10.7242
-26.8408 -15.3404 10.6788
-26.8976 -15.3218 10.7037
-26.9346 -15.2957 10.6917
-26.9709 -15.2699 10.6801
-27.0063 -15.2443 10.6701
-27.0437 -15.2189 10.6602
-27.0821 -15.1954 10.6591
-27.1186 -15.1712 10.6554
-27.1538 -15.1465 10.6484
-27.1902 -15.1218 10.6411
-27.2264 -15.0966 10.6339
-27.2619 -15.071 10.6262
-27.2952 -15.0444 10.6145
-27.3283 -15.0177 10.6028
-27.3606 -14.9904 10.5898
-27.3918 -14.9621 10.5741
-27.4197 -14.9346 10.5526
-27.4478 -14.9086 10.5312
-27.4801 -14.8821 10.5165
-27.5118 -14.8544 10.5023
-27.5414 -14.827 10.4835
-27.5735 -14.7981 10.4709
-27.6055 -14.7676 10.4587
-27.6384 -14.7363 10.4503
-27.6703 -14.7044 10.4386
-27.7022 -14.673 10.4283
-27.7342 -14.6417 10.419
-27.7657 -14.6101 10.4074
-27.7976 -14.5782 10.397
-27.8279 -14.5461 10.3831
-27.8595 -14.5141 10.371
-27.8896 -14.482 10.3535
-27.9188 -14.4511 10.3309
-27.9484 -14.4207 10.3083
-27.9788 -14.391 10.2854
-28.011 -14.3609 10.2648
-28.0454 -14.3303 10.2496
-28.0819 -14.2989 10.2408
-28.1176 -14.2675 10.2315
-28.1482 -14.2379 10.212
-28.1816 -14.2067 10.1995
-28.2154 -14.1752 10.1882
-28.249 -14.1432 10.1751
-28.2819 -14.1108 10.162
-28.3154 -14.0769 10.1532
-28.3485 -14.0431 10.1427
-28.381 -14.0089 10.1311
-28.4132 -13.9744 10.1195
-28.446 -13.94 10.1097
-28.4802 -13.9062 10.1033
-28.5147 -13.8726 10.0975
-28.5485 -13.8385 10.0904
-28.5818 -13.804 10.0847
-28.6151 -13.7694 10.0793
-28.6475 -13.7342 10.0743
-28.677 -13.6979 10.0619
-28.7054 -13.6611 10.0482
-28.7346 -13.6249 10.0368
-28.7637 -13.5887 10.027
-28.7925 -13.5524 10.0172
-28.8209 -13.5157 10.0078
-28.8492 -13.4783 9.99846
-28.8747 -13.4403 9.98397
-28.8994 -13.4026 9.96762
-28.9221 -13.3656 9.94739
-28.9508 -13.3278 9.94073
-28.9796 -13.2917 9.92838
-29.0082 -13.2556 9.91606
-29.0366 -13.2195 9.90379
-29.0646 -13.1831 9.89156
-29.0917 -13.1462 9.87935
-29.1182 -13.1091 9.86668
-29.1441 -13.0718 9.8541
-29.1704 -13.0347 9.84146
-29.196 -12.9972 9.82893
-29.2203 -12.9594 9.81479
-29.243 -12.9215 9.79887
-29.2659 -12.8832 9.78439
-29.2885 -12.8436 9.77305
-29.3102 -12.8037 9.76162
-29.3317 -12.7637 9.74964
-29.3542 -12.7243 9.7376
-29.3765 -12.6848 9.72557
-29.3983 -12.645 9.71358
-29.4188 -12.6052 9.69971
-29.4395 -12.565 9.68761
-29.4591 -12.5246 9.67474
-29.478 -12.4839 9.6619
-29.4961 -12.443 9.64845
-29.5145 -12.4022 9.63471
-29.5325 -12.3611 9.62143
-29.5502 -12.3199 9.60859
-29.5672 -12.279 9.59421
-29.584 -12.2378 9.5796
-29.6009 -12.1971 9.56409
-29.6177 -12.1569 9.54751
-29.6338 -12.12 9.52202
-29.6542 -12.077 9.51778
-29.6742 -12.0368 9.50394
-29.6945 -11.9967 9.49071
-29.7149 -11.9571 9.47718
-29.7346 -11.9182 9.46097
-29.7541 -11.8788 9.44744
-29.7733 -11.8394 9.43395
-29.7916 -11.8007 9.41723
-29.8103 -11.762 9.40046
-29.8284 -11.7226 9.38435
-29.8459 -11.6831 9.36833
-29.8622 -11.6432 9.35256
-29.8789 -11.6025 9.33986
-29.8946 -11.5615 9.32723
-29.9096 -11.5203 9.31463
-29.9241 -11.479 9.30142
-29.9393 -11.4384 9.28662
-29.9542 -11.3976 9.27181
-29.9686 -11.3554 9.26031
-29.9822 -11.3125 9.25056
-29.9955 -11.2697 9.24084
-30.0076 -11.2267 9.23106
-30.0191 -11.184 9.21828
-30.0298 -11.1421 9.20253
-30.0408 -11.1003 9.18732
-30.0513 -11.0584 9.17204
-30.0615 -11.0162 9.15669
-30.0711 -10.9737 9.14119
-30.0804 -10.9315 9.12425
-30.0898 -10.8895 9.10632
-30.0994 -10.8474 9.08836
-30.1102 -10.811 9.05787
-30.1212 -10.764 9.05274
-30.1334 -10.7227 9.03514
-30.1457 -10.6814 9.01755
-30.1581 -10.6402 8.99997
-30.1703 -10.5985 8.98295
-30.1819 -10.5557 8.96878
-30.1933 -10.5128 8.95432
-30.2037 -10.4704 8.93715
-30.2145 -10.4277 8.91984
-30.2245 -10.3842 8.90408
-30.2338 -10.3397 8.89032
-30.242 -10.2952 8.87737
-30.2507 -10.2498 8.87084
-30.2584 -10.2042 8.86438
-30.2644 -10.1595 8.85069
-30.2707 -10.1141 8.83769
-30.2777 -10.0693 8.8251
-30.2845 -10.0244 8.81279
-30.2907 -9.97937 8.80058
-30.296 -9.93415 8.78861
-30.3009 -9.88892 8.7766
-30.3043 -9.84391 8.76345
-30.3067 -9.79895 8.74984
-30.308 -9.75457 8.73428
-30.3099 -9.70995 8.71946
-30.3111 -9.66533 8.70471
-30.3119 -9.62072 8.69002
-30.3119 -9.57614 8.67541
-30.3115 -9.53153 8.66083
-30.311 -9.48704 8.64631
-30.3106 -9.44266 8.63181
-30.3111 -9.39818 8.61799
-30.312 -9.35428 8.60224
-30.3139 -9.31048 8.58667
-30.3163 -9.26648 8.57214
-30.3186 -9.22253 8.55807
-30.3206 -9.17859 8.54402
-30.3219 -9.13474 8.53016
-30.3227 -9.09097 8.51643
-30.323 -9.0472 8.50282
-30.3237 -9.00337 8.4891
-30.3236 -8.9595 8.47556
-30.3227 -8.91563 8.4622
-30.3207 -8.87174 8.44911
-30.3186 -8.82784 8.43602
-30.3154 -8.78393 8.42318
-30.3115 -8.74002 8.41051
-30.3073 -8.69604 8.39823
-30.3041 -8.65189 8.38664
-30.3006 -8.60769 8.37516
-30.2969 -8.56288 8.3658
-30.2923 -8.51793 8.35657
-30.2878 -8.47301 8.34734
-30.2824 -8.42787 8.33824
-30.2762 -8.38271 8.32854
-30.269 -8.33759 8.31769
-30.2617 -8.29239 8.30679
-30.254 -8.24707 8.296
-30.247 -8.20102 8.28862
-30.2399 -8.1545 8.28178
-30.2328 -8.10769 8.27495
-30.2263 -8.06039 8.26953
-30.2202 -8.01303 8.26401
-30.2235 -7.96124 8.28942
-30.2096 -7.91943 8.25268
-30.2053 -7.87323 8.24667
-30.2014 -7.82692 8.24016
-30.1977 -7.7807 8.23291
-30.1939 -7.73435 8.22553
-30.1899 -7.68788 8.21819
-30.1857 -7.64145 8.21091
-30.1817 -7.59464 8.20557
-30.177 -7.54837 8.19742
-30.1715 -7.50213 8.18895
-30.1655 -7.45585 8.18068
-30.1588 -7.40951 8.17276
-30.1519 -7.36324 8.16475
-30.1443 -7.31693 8.15705
-30.1362 -7.27063 8.14959
-30.1281 -7.22425 8.14214
-30.1209 -7.17779 8.13422
-30.1135 -7.1313 8.12673
-30.1039 -7.08553 8.11708
-30.0935 -7.0399 8.10809
-30.0865 -6.99291 8.10395
-30.0794 -6.94547 8.10169
-30.0687 -6.89881 8.09538
-30.0563 -6.85247 8.08815
-30.0442 -6.80653 8.08087
-30.0318 -6.76068 8.07445
-30.019 -6.71479 8.06845
-30.0053 -6.66891 8.06317
-29.9923 -6.62261 8.05888
-29.9807 -6.57564 8.05714
-29.9688 -6.52869 8.05567
-29.9593 -6.48116 8.05641
-29.947 -6.43468 8.05297
-29.9355 -6.38817 8.04995
-29.9246 -6.34139 8.04779
-29.9136 -6.29466 8.04636
-29.901 -6.24843 8.04355
-29.887 -6.20261 8.04037
-29.8728 -6.15686 8.03752
-29.8583 -6.11115 8.03498
-29.844 -6.0654 8.03219
-29.8295 -6.01969 8.02969
-29.8147 -5.97405 8.02751
-29.7995 -5.92849 8.02575
-29.7844 -5.88292 8.02397
-29.7677 -5.83788 8.0214
-29.7504 -5.7931 8.01864
-29.733 -5.74833 8.01607
-29.7156 -5.70348 8.01343
-29.6984 -5.65858 8.01097
-29.6826 -5.61319 8.00972
-29.6668 -5.56784 8.00844
-29.651 -5.52249 8.00714
-29.6353 -5.4772 8.00571
-29.6197 -5.43197 8.00407
-29.6041 -5.38679 8.00235
-29.5884 -5.34161 8.00086
-29.5728 -5.29645 7.99913
-29.5575 -5.2513 7.99711
-29.5426 -5.20613 7.99456
-29.5272 -5.16118 7.99147
-29.512 -5.11629 7.98749
-29.4971 -5.07139 7.98309
-29.4766 -5.02868 7.97402
-29.4646 -4.98177 7.97233
-29.4468 -4.938 7.96566
-29.4294 -4.89419 7.95853
-29.4125 -4.85038 7.95072
-29.3957 -4.80658 7.94285
-29.3818 -4.7616 7.93618
-29.3684 -4.7167 7.92923
-29.3545 -4.67221 7.92112
-29.34 -4.62768 7.91324
-29.3259 -4.58323 7.90513
-29.3129 -4.5384 7.89754
-29.3025 -4.49285 7.89122
-29.2923 -4.44734 7.88497
-29.2823 -4.40184 7.87848
-29.2742 -4.35571 7.8734
-29.2682 -4.30869 7.87029
-29.2616 -4.2613 7.86731
-29.2563 -4.21353 7.86586
-29.251 -4.16598 7.86439
-29.2454 -4.11891 7.86261
-29.2372 -4.07235 7.8582
-29.2278 -4.02673 7.85269
-29.2148 -3.98281 7.84381
-29.201 -3.93965 7.83392
-29.1873 -3.89665 7.82401
-29.1736 -3.85396 7.81419
-29.1597 -3.81152 7.80425
-29.1457 -3.76929 7.79445
-29.1317 -3.72711 7.78469
-29.1175 -3.68488 7.77506
-29.1021 -3.64139 7.76222
-29.0603 -3.61521 7.73105
-29.0653 -3.55845 7.73395
-29.0464 -3.51882 7.72174
-29.0274 -3.47908 7.70959
-29.0081 -3.43947 7.69793
-28.9888 -3.39972 7.6862
-28.9696 -3.35986 7.67485
-28.9511 -3.31975 7.66409
-28.9325 -3.27967 7.65338
-28.914 -3.23946 7.64249
-28.8945 -3.19994 7.6309
-28.8748 -3.16068 7.61923
-28.8551 -3.12152 7.60772
-28.8353 -3.08234 7.59628
-28.8181 -3.04144 7.58698
-28.8019 -3.00011 7.57846
-28.7858 -2.95871 7.56985
-28.7697 -2.91721 7.56112
-28.7537 -2.87569 7.55226
-28.7377 -2.83424 7.5434
-28.721 -2.79337 7.53391
-28.7053 -2.75196 7.52522
-28.6908 -2.71011 7.51756
-28.6764 -2.66839 7.50995
-28.662 -2.62677 7.50242
-28.6475 -2.58497 7.4949
-28.633 -2.54335 7.48747
-28.6186 -2.50197 7.48009
-28.604 -2.46103 7.47259
-28.589 -2.42025 7.46477
-28.5741 -2.37983 7.45699
-28.5603 -2.33955 7.44981
-28.5389 -2.30291 7.43675
-28.5347 -2.25834 7.43674
-28.5218 -2.21759 7.43016
-28.5091 -2.17702 7.42358
-28.4963 -2.13665 7.41704
-28.4816 -2.09727 7.40904
-28.4657 -2.05847 7.40017
-28.4498 -2.01963 7.39121
-28.434 -1.98081 7.38233
-28.418 -1.94213 7.37366
-28.405 -1.90184 7.36692
-28.3919 -1.86154 7.36029
-28.3768 -1.82206 7.35249
-28.3618 -1.78247 7.3446
-28.3475 -1.74232 7.3373
-28.3334 -1.70205 7.33009
-28.3193 -1.66196 7.323
-28.3053 -1.62225 7.31603
-28.2913 -1.58254 7.3091
-28.2772 -1.5426 7.30215
-28.2629 -1.5022 7.29509
-28.2486 -1.46167 7.28799
-28.2341 -1.4205 7.2807
-28.2195 -1.37887 7.27325
-28.2048 -1.33691 7.26571
-28.1905 -1.29531 7.25858
-28.1761 -1.25326 7.25122
-28.16 -1.21141 7.24258
-28.1437 -1.16866 7.23356
-28.1273 -1.12584 7.22452
-28.1108 -1.08214 7.21507
-28.0945 -1.03742 7.20585
-28.0879 -0.987655 7.20249
-28.0628 -0.947791 7.18732
-28.0471 -0.90313 7.17785
-28.0313 -0.85795 7.16816
-28.0153 -0.81204 7.15813
-27.9994 -0.766 7.14804
-27.9852 -0.718344 7.13898
-27.9722 -0.669704 7.13068
-27.9596 -0.62038 7.12282
-27.948 -0.571152 7.11578
-27.9363 -0.521839 7.10887
-27.9244 -0.472264 7.10197
-27.91 -0.423504 7.09327
-27.8934 -0.375914 7.08277
-27.8767 -0.328037 7.07233
-27.8595 -0.280155 7.06175
-27.8421 -0.232117 7.05117
-27.8248 -0.184074 7.04046
-27.8073 -0.136054 7.02992
-27.7898 -0.0880853 7.01958
-27.7722 -0.0402841 7.00953
-27.7547 0.00748188 6.99945
-27.737 0.0549439 6.98975
-27.7186 0.10178 6.9799
-27.7004 0.148582 6.97046
-27.6829 0.196142 6.96132
-27.6654 0.243359 6.95249
-27.6478 0.290061 6.94381
-27.6302 0.335965 6.9355
-27.6125 0.381785 6.92733
-27.5949 0.426899 6.91949
-27.5775 0.471511 6.91185
-27.5431 0.507466 6.89418
-27.5445 0.561379 6.89585
-27.5274 0.606101 6.88756
-27.5106 0.650278 6.87948
-27.4938 0.693641 6.87185
-27.477 0.736861 6.86431
-27.4598 0.779006 6.8571
-27.4427 0.820633 6.85021
-27.4256 0.861831 6.8437
-27.4084 0.903464 6.83694
-27.3909 0.944649 6.83047
-27.3725 0.985033 6.82404
-27.3555 1.02547 6.8187
-27.3384 1.06584 6.81338
-27.3213 1.10583 6.80849
-27.3036 1.14534 6.80363
-27.2852 1.1845 6.79858
-27.2669 1.22392 6.79315
-27.2486 1.2635 6.78775
-27.23 1.30309 6.78259
-27.2114 1.34263 6.77761
-27.193 1.38195 6.77251
-27.1744 1.42136 6.76774
-27.1555 1.46088 6.76318
-27.136 1.50088 6.75926
-27.116 1.54126 6.75579
-27.0957 1.58195 6.75256
-27.0755 1.62274 6.74922
-27.0531 1.66152 6.74362
-27.0252 1.69373 6.73182
-27.0016 1.73228 6.72521
-26.9818 1.77128 6.71983
-26.9506 1.80405 6.70507
-26.9417 1.85117 6.70816
-26.9212 1.89231 6.70193
-26.8997 1.93321 6.69471
-26.8779 1.97461 6.68694
-26.8562 2.01571 6.67935
-26.8328 2.05593 6.6704
-26.808 2.09544 6.6602
-26.7832 2.13501 6.64997
-26.7591 2.17476 6.6402
-26.737 2.21588 6.63243
-26.7148 2.25706 6.62476
-26.6923 2.2983 6.61723
-26.6699 2.33962 6.60964
-26.6472 2.38099 6.60229
-26.6243 2.42239 6.59511
-26.6023 2.4645 6.58942
-26.5816 2.50742 6.58502
-26.5627 2.55149 6.58281
-26.5424 2.59508 6.57997
-26.5209 2.63774 6.575
-26.4997 2.68031 6.56989
-26.4785 2.72274 6.56483
-26.4572 2.76505 6.55988
-26.4362 2.80782 6.55608
-26.4152 2.85101 6.55249
-26.394 2.8941 6.54901
-26.373 2.93688 6.54558
-26.3535 2.98029 6.54563
-26.3337 3.02342 6.54537
-26.3138 3.06602 6.54494
-26.294 3.10834 6.54454
-26.2883 3.15717 6.56695
-26.2553 3.1931 6.54318
-26.2363 3.23552 6.54223
-26.2175 3.27762 6.54131
-26.1987 3.31927 6.54049
-26.1798 3.36086 6.53974
-26.1608 3.40196 6.53921
-26.1417 3.44275 6.53882
-26.1225 3.48331 6.5386
-26.1038 3.52434 6.53889
-26.0849 3.56522 6.53938
-26.0657 3.60586 6.54012
-26.0462 3.64616 6.54116
-26.0266 3.68644 6.54224
-26.0067 3.72644 6.54358
-25.9866 3.76629 6.54512
-25.9664 3.80604 6.54672
-25.9465 3.84592 6.54808
-25.9261 3.88562 6.54874
-25.9058 3.92544 6.55025
-25.8851 3.96524 6.55199
-25.8644 4.00507 6.55374
-25.8432 4.04489 6.55575
-25.8217 4.08476 6.55793
-25.7999 4.12453 6.56029
-25.7785 4.16414 6.56285
-25.7569 4.20389 6.56567
-25.7346 4.24355 6.56816
-25.7128 4.28411 6.57124
-25.6913 4.32545 6.57337
-25.668 4.36645 6.57286
-25.6448 4.40781 6.57219
-25.6045 4.43907 6.54901
-25.5987 4.48967 6.57101
-25.5756 4.52999 6.57071
-25.5527 4.57089 6.57096
-25.5306 4.61237 6.57262
-25.5085 4.65442 6.57408
-25.4861 4.69686 6.57568
-25.4634 4.73928 6.57749
-25.4403 4.78164 6.57955
-25.4174 4.82384 6.58156
-25.3934 4.8655 6.58285
-25.3688 4.90694 6.58407
-25.344 4.94845 6.58551
-25.3192 4.99002 6.58688
-25.2942 5.03165 6.58842
-25.269 5.07328 6.59011
-25.2437 5.11485 6.59174
-25.2179 5.15619 6.59279
-25.192 5.19747 6.59394
-25.1661 5.23869 6.59523
-25.1369 5.2777 6.59388
-25.1074 5.31637 6.59251
-25.0782 5.35513 6.59142
-25.0489 5.39383 6.5904
-25.0195 5.43254 6.58943
-24.9901 5.47138 6.58836
-24.9608 5.51013 6.58732
-24.9315 5.54885 6.58629
-24.9025 5.58708 6.58543
-24.8737 5.62472 6.58482
-24.8453 5.6626 6.58451
-24.8192 5.70142 6.58592
-24.7689 5.72488 6.56777
-24.7667 5.77986 6.58851
-24.7402 5.81953 6.58961
-24.7139 5.85908 6.59067
-24.6879 5.89839 6.59162
-24.6605 5.93658 6.59134
-24.6327 5.97398 6.59054
-24.6049 6.01127 6.5898
-24.5768 6.04779 6.58857
-24.5489 6.08441 6.58736
-24.5227 6.12168 6.58764
-24.4938 6.15676 6.58518
-24.465 6.19172 6.58249
-24.4362 6.22661 6.57993
-24.4074 6.26146 6.57746
-24.3786 6.29631 6.575
-24.3496 6.33122 6.57268
-24.3204 6.36621 6.57042
-24.2911 6.40125 6.56836
-24.2618 6.43634 6.56644
-24.2326 6.4716 6.56479
-24.2035 6.50688 6.5631
-24.1744 6.54207 6.56145
-24.1452 6.57724 6.55985
-24.1186 6.61427 6.56005
-24.0923 6.65122 6.56038
-24.066 6.68815 6.56067
-24.0397 6.72524 6.56086
-24.012 6.76138 6.5602
-23.9838 6.79676 6.55921
-23.9555 6.83223 6.5583
-23.9271 6.86772 6.55732
-23.9181 6.91983 6.56908
-23.8685 6.94016 6.55596
-23.8409 6.9786 6.55669
-23.8153 7.01663 6.55736
-23.7897 7.05484 6.55799
-23.7643 7.09314 6.55868
-23.7388 7.1316 6.55931
-23.7132 7.17016 6.55992
-23.6876 7.20881 6.56052
-23.662 7.24737 6.56116
-23.6364 7.286 6.5618
-23.6114 7.32565 6.56284
-23.5911 7.36774 6.56635
-23.5682 7.40855 6.56845
-23.5445 7.44905 6.57008
-23.5208 7.48962 6.57173
-23.497 7.53012 6.57356
-23.473 7.5704 6.57536
-23.4476 7.60975 6.57639
-23.4222 7.64901 6.57752
-23.3964 7.68844 6.57886
-23.3704 7.72834 6.58028
-23.3423 7.76682 6.5801
-23.3097 7.80157 6.57589
-23.2765 7.83565 6.57101
-23.2438 7.86901 6.56651
-23.2113 7.90205 6.56218
-23.1788 7.93521 6.55764
-23.1458 7.96856 6.55339
-23.1135 8.00335 6.55069
-23.0822 8.04022 6.54937
-23.0506 8.07731 6.54822
-23.0414 8.13417 6.55959
-22.9896 8.15134 6.53885
-22.9558 8.18766 6.5354
-22.924 8.2255 6.53312
-22.8942 8.26454 6.53259
-22.8675 8.30422 6.53318
-22.8405 8.34292 6.53335
-22.8133 8.38179 6.5337
-22.7861 8.42068 6.53407
-22.7589 8.45969 6.5343
-22.7316 8.49878 6.53453
-22.704 8.5377 6.53467
-22.676 8.57628 6.53459
-22.6498 8.61614 6.53587
-22.6234 8.65588 6.53714
-22.5969 8.69555 6.53844
-22.5705 8.7352 6.53975
-22.5441 8.77485 6.54094
-22.5177 8.81445 6.54214
-22.4915 8.85425 6.54362
-22.4678 8.89538 6.54682
-22.4439 8.93661 6.54999
-22.42 8.97776 6.55334
-22.3959 9.01881 6.55668
-22.3692 9.058 6.55852
-22.3426 9.09703 6.56037
-22.3159 9.1359 6.56236
-22.2893 9.17486 6.5644
-22.2624 9.21363 6.56647
-22.2351 9.25189 6.56826
-22.2076 9.29027 6.57014
-22.1802 9.32866 6.57198
-22.1858 9.39082 6.59503
-22.1233 9.40791 6.57623
-22.0964 9.44949 6.57955
-22.071 9.49005 6.58232
-22.0457 9.53049 6.58511
-22.0204 9.57086 6.588
-21.9963 9.61181 6.59179
-21.9732 9.65325 6.59611
-21.95 9.69444 6.60058
-21.927 9.73545 6.60506
-21.9045 9.77636 6.61002
-21.8821 9.81716 6.61513
-21.8622 9.85909 6.62183
-21.8427 9.90123 6.62873
-21.8216 9.94276 6.63489
-21.8003 9.9841 6.64112
-21.7791 10.0254 6.64732
-21.7578 10.0668 6.65336
-21.7367 10.1082 6.65936
-21.7155 10.1494 6.66544
-21.6944 10.1905 6.67162
-21.6732 10.2316 6.67781
-21.6521 10.2724 6.68416
-21.6308 10.3131 6.69056
-21.6092 10.3535 6.69691
-21.5867 10.3936 6.70272
-21.5646 10.4338 6.70888
-21.5426 10.4739 6.71526
-21.5206 10.5139 6.72179
-21.4987 10.5537 6.72826
-21.4767 10.5936 6.73487
-21.4548 10.6333 6.74136
-21.401 10.659 6.73135
-21.4091 10.7142 6.75677
-21.3846 10.7543 6.76392
-21.3608 10.7938 6.76865
-21.3361 10.8324 6.7728
-21.3112 10.8706 6.77731
-21.2863 10.9085 6.78209
-21.2615 10.9465 6.7868
-21.2366 10.9843 6.79159
-21.2117 11.0223 6.79642
-21.1867 11.0602 6.80132
-21.1623 11.0984 6.80663
-21.1381 11.1367 6.81206
-21.114 11.1749 6.81744
-21.0899 11.2131 6.82276
-21.0634 11.2499 6.82656
-21.0363 11.2864 6.82992
-21.011 11.3239 6.83436
-20.9858 11.3614 6.83872
-20.9605 11.399 6.84305
-20.9352 11.4366 6.84741
-20.9096 11.474 6.85163
-20.8825 11.5106 6.85505
-20.8554 11.5473 6.85836
-20.8284 11.5841 6.86147
-20.8023 11.6212 6.86493
-20.7768 11.6588 6.86847
-20.7512 11.6966 6.87191
-20.7255 11.7346 6.87528
-20.6999 11.7724 6.87869
-20.6741 11.8105 6.88211
-20.6482 11.8487 6.88574
-20.5871 11.8656 6.87491
-20.595 11.9285 6.89109
-20.5673 11.9685 6.89344
-20.5377 12.0045 6.89663
-20.5078 12.0404 6.90005
-20.4781 12.0765 6.90297
-20.4483 12.1126 6.90567
-20.4184 12.1489 6.90843
-20.3885 12.1852 6.91109
-20.3586 12.2215 6.91375
-20.3287 12.2578 6.91623
-20.2999 12.2952 6.91903
-20.2702 12.3319 6.92128
-20.2401 12.3682 6.92336
-20.2097 12.4045 6.92525
-20.1794 12.4408 6.92703
-20.149 12.4771 6.92882
-20.1185 12.5134 6.93081
-20.0881 12.5496 6.93272
-20.0578 12.5859 6.93448
-20.0276 12.6223 6.93594
-19.9981 12.6591 6.93762
-19.9689 12.6961 6.93907
-19.9397 12.733 6.94032
-19.9106 12.77 6.94148
-19.8813 12.807 6.94293
-19.8521 12.844 6.94428
-19.8232 12.8811 6.94543
-19.7947 12.9183 6.94643
-19.7663 12.9556 6.94746
-19.7379 12.9929 6.9482
-19.7097 13.0301 6.9488
-19.7135 13.0913 6.96211
-19.6536 13.1046 6.94885
-19.6252 13.1416 6.94858
-19.5965 13.1785 6.94893
-19.5679 13.2154 6.94915
-19.5394 13.2522 6.9493
-19.5111 13.289 6.94926
-19.4829 13.3256 6.94914
-19.4548 13.3621 6.94895
-19.4266 13.3988 6.94885
-19.3985 13.4353 6.94869
-19.3705 13.4717 6.94844
-19.3417 13.5071 6.94765
-19.3144 13.5438 6.94753
-19.2901 13.5824 6.9487
-19.2661 13.621 6.94987
-19.2422 13.6596 6.95098
-19.2185 13.6983 6.95219
-19.1959 13.7376 6.95391
-19.1736 13.777 6.95574
-19.1511 13.8165 6.95766
-19.1285 13.856 6.95968
-19.1049 13.8951 6.96128
-19.0813 13.9342 6.96289
-19.0578 13.9732 6.96432
-19.0345 14.0121 6.96548
-19.0113 14.051 6.96656
-18.9873 14.0894 6.96745
-18.9629 14.1281 6.9683
-18.9382 14.1676 6.96887
-18.9136 14.2069 6.9699
-18.8905 14.2483 6.97199
-18.9189 14.3165 7.00579
-18.8445 14.3309 6.97739
-18.8216 14.3714 6.98071
-18.7986 14.4117 6.98427
-18.7761 14.4519 6.98843
-18.755 14.4923 6.9932
-18.7339 14.5326 6.99812
-18.7127 14.573 7.00322
-18.6914 14.6135 7.00842
-18.6701 14.654 7.01352
-18.6487 14.6948 7.01858
-18.627 14.7355 7.02343
-18.6046 14.7762 7.02794
-18.5816 14.8165 7.03206
-18.5579 14.8568 7.03573
-18.5342 14.8971 7.03933
-18.5106 14.9375 7.04291
-18.4869 14.9777 7.04661
-18.4653 15.0189 7.05139
-18.4438 15.0603 7.05609
-18.4216 15.1017 7.0602
-18.3984 15.1426 7.06374
-18.3744 15.1834 7.06659
-18.3504 15.2245 7.06927
-18.3285 15.2668 7.07313
-18.3068 15.3089 7.07721
-18.2851 15.3513 7.08117
-18.2634 15.3939 7.08497
-18.2417 15.4368 7.08856
-18.22 15.4797 7.09214
-18.1982 15.5228 7.0955
-18.1764 15.566 7.09875
-18.1616 15.6125 7.10625
-18.1326 15.6522 7.10559
-18.1107 15.6952 7.10916
-18.0887 15.7382 7.11263
-18.0669 15.7814 7.11592
-18.045 15.8246 7.11916
-18.0232 15.8681 7.12212
-18.0015 15.9116 7.12492
-17.9798 15.9553 7.12756
-17.958 15.9989 7.13037
-17.9363 16.0426 7.13301
-17.9147 16.0864 7.13545
-17.8931 16.1302 7.1376
-17.8717 16.1741 7.13971
-17.8499 16.2179 7.14135
-17.8279 16.2615 7.14263
-17.8059 16.3051 7.14381
-17.7839 16.3487 7.14517
-17.762 16.3921 7.1465
-17.7401 16.4356 7.14769
-17.7183 16.479 7.14874
-17.6965 16.5224 7.14978
-17.6748 16.5657 7.15068
-17.6532 16.6091 7.15148
-17.6326 16.6528 7.15265
-17.6126 16.6969 7.15437
-17.59 16.7396 7.15441
-17.5674 16.7823 7.1545
-17.5443 16.8247 7.15431
-17.5208 16.8668 7.1538
-17.4977 16.9091 7.15383
-17.4764 16.9524 7.15534
-17.453 16.9949 7.15585
-17.4331 17.0394 7.15891
-17.4111 17.0831 7.16096
-17.3891 17.1267 7.16314
-17.3671 17.1703 7.16549
-17.3451 17.2137 7.16781
-17.3232 17.2569 7.17013
-17.3014 17.2999 7.17246
-17.2793 17.3425 7.17439
-17.2558 17.3846 7.17532
-17.2325 17.4265 7.1761
-17.2094 17.4681 7.1768
-17.1872 17.5095 7.17768
-17.1661 17.5514 7.17925
-17.1453 17.593 7.1807
-17.1246 17.6344 7.18201
-17.1027 17.6751 7.18268
-17.08 17.7159 7.18333
-17.0564 17.7562 7.18334
-17.0327 17.7962 7.1829
-17.0094 17.8359 7.18201
-16.9862 17.8755 7.18107
-16.9635 17.9147 7.1796
-16.9413 17.9537 7.17779
-16.9194 17.9925 7.17567
-16.8969 18.0313 7.17371
-16.8739 18.0693 7.17101
-16.8513 18.1072 7.16793
-16.8292 18.1449 7.16426
-16.8072 18.1824 7.16048
-16.7856 18.2199 7.15622
-16.7641 18.2573 7.15166
-16.7315 18.2877 7.14047
-16.7205 18.3327 7.14318
-16.6982 18.3706 7.1391
-16.6761 18.4085 7.13454
-16.6544 18.4462 7.12959
-16.6301 18.4819 7.12273
-16.6056 18.5172 7.11517
-16.5813 18.5525 7.10738
-16.5573 18.5877 7.09939
-16.5332 18.6228 7.09158
-16.5094 18.6576 7.08362
-16.4859 18.6923 7.07551
-16.4626 18.7268 7.06716
-16.4394 18.7615 7.05875
-16.4163 18.7959 7.05023
-16.3935 18.8302 7.04164
-16.3712 18.8643 7.03339
-16.3467 18.8963 7.02359
-16.3195 18.9257 7.01208
-16.2923 18.9551 7.00042
-16.265 18.9849 6.98857
-16.2376 19.0146 6.97678
-16.2099 19.0446 6.96488
-16.1821 19.0748 6.95291
-16.1542 19.1051 6.94081
-16.1266 19.1352 6.92864
-16.0988 19.1655 6.91651
-16.0706 19.1959 6.90451
-16.0414 19.2269 6.89256
-16.009 19.2547 6.87891
-15.975 19.2828 6.86523
-15.9404 19.3113 6.85179
-15.891 19.3182 6.83007
-15.8719 19.3677 6.82537
-15.8379 19.3964 6.81296
-15.8031 19.4244 6.80058
-15.7667 19.4516 6.78813
-15.7303 19.4784 6.77559
-15.6933 19.5056 6.7633
-15.6548 19.5312 6.75055
-15.616 19.557 6.73787
-15.5776 19.5826 6.72509
-15.5385 19.6072 6.71189
-15.4986 19.631 6.6983
-15.4575 19.6537 6.6842
-15.4163 19.6764 6.67014
-15.3747 19.6994 6.65594
-15.333 19.7225 6.64161
-15.2912 19.7449 6.62701
-15.2488 19.7655 6.61198
-15.2063 19.7853 6.59657
-15.1636 19.8041 6.58073
-15.1209 19.823 6.56466
-15.0782 19.8419 6.54859
-15.0353 19.8601 6.53209
-14.9922 19.8775 6.51519
-14.9491 19.8949 6.49817
-14.9053 19.9111 6.48071
-14.8629 19.9312 6.46468
-14.8202 19.9495 6.44792
-14.7779 19.9676 6.43106
-14.7357 19.9858 6.41408
-14.6938 20.0026 6.39674
-14.6521 20.0186 6.3792
-14.6095 20.0301 6.36057
-14.5681 20.0488 6.34412
-14.5262 20.0633 6.32672
-14.4848 20.0777 6.30934
-14.4443 20.0919 6.29196
-14.4038 20.1061 6.27456
-14.3643 20.1201 6.25702
-14.3253 20.134 6.23937
-14.2869 20.1478 6.22154
-14.2481 20.1617 6.20373
-14.2099 20.1769 6.18604
-14.1722 20.1916 6.1681
-14.1351 20.2063 6.14993
-14.0988 20.223 6.13256
-14.0629 20.2404 6.11534
-14.0273 20.2577 6.09803
-13.9914 20.2751 6.08086
-13.9548 20.2925 6.06396
-13.918 20.31 6.04718
-13.8811 20.3269 6.03007
-13.8444 20.3427 6.01235
-13.8076 20.3571 5.99396
