BEGIN_0
-25.3773041910385295 6.2968055943693066 7.3013745668252863
-25.2728530883350579 6.4810163076796741 7.2391495463208386
-25.1665224656376836 6.6609257344952937 7.1749272266890163
-25.0592934982842195 6.8373705365751718 7.1107969247855340
-24.9518566999523408 7.0123363263621030 7.0489535575208935
-24.8452666265804289 7.1878861825905673 6.9920382192130104
-24.7413531710816734 7.3653441555622372 6.9432586970449126
-24.6422490171131621 7.5455459768066397 6.9059173061152030
-24.5494453165739621 7.7292855198907162 6.8826274182485960
-24.4631345780993321 7.9169963328118271 6.8746905301785128
-24.3821696939869668 8.1081516833342491 6.8818725604235471
-24.3044822905766473 8.3014910327579443 6.9025998890296698
-24.2276471404588669 8.4958434259042193 6.9344041094366053
-24.1494260488774160 8.6903209216390245 6.9743733759524540
-24.0681208157474629 8.8841086794671753 7.0195546719388009
-23.9827240066279899 9.0767787494133358 7.0673288174492468
-23.8931652769842700 9.2686848904771111 7.1155899979874562
-23.8006471408847169 9.4606182654605675 7.1626218352399800
-23.7073654773587883 9.6534078566013761 7.2069640400258947
-23.6153516638563623 9.8481945505201836 7.2475100272561663
-23.5254126225897586 10.0464942444626644 7.2836018055449134
-23.4372603399731574 10.2491141671372077 7.3148475413688256
-23.3504904120180150 10.4549711536601535 7.3408410847030305
-23.2651847903089077 10.6614486696422333 7.3610531336526117
-23.1816027741449915 10.8662680251739943 7.3748328446208049
-23.0996112195131076 11.0690043042580868 7.3812912786714939
-23.0186241126024953 11.2707626264134717 7.3790970838617618
-22.9379878033915325 11.4726686677135419 7.3665130770270508
-22.8574460737372398 11.6745572275499327 7.3417796776412345
-22.7773174991328702 11.8749305370125242 7.3035068655916788
-22.6981235345335186 12.0722280107526672 7.2508044140316565
-22.6201103429708752 12.2656634297496154 7.1833747292655747
-22.5432546568574956 12.4545713741495447 7.1018303491536336
-22.4674825769355451 12.6376110036399609 7.0079091163889604
-22.3924858485790210 12.8132924529707708 6.9041121615536269
-22.3173023421628471 12.9811472390817002 6.7930050191047773
-22.2402664035863467 13.1422124671737919 6.6768333041446457
-22.1595813507217230 13.2985768604698933 6.5578218595122824
-22.0741119896532325 13.4526745406299000 6.4388991517015004
-21.9837345699107125 13.6070619385511051 6.3240350526665230
-21.8891915261638523 13.7645659729213961 6.2176711114171939
-21.7919274761843269 13.9278970371230599 6.1236228838270126
-21.6939070537726870 14.0986025054467632 6.0440040742763266
-21.5969755202488436 14.2763381826865725 5.9786656607606448
-21.5020232206841300 14.4592607725007127 5.9256544970546798
-21.4087240859183332 14.6453367274022384 5.8823960120135839
-21.3160323914500367 14.8333330325394357 5.8466893956919161
-21.2228936428380024 15.0227929156839366 5.8170504160249186
-21.1285837329318937 15.2136377909442544 5.7925570994223712
-21.0327221885374058 15.4058576362683723 5.7725745409728679
-20.9352562874481407 15.5992398042566194 5.7565942826869074
-20.8363636989839343 15.7934002967356761 5.7441691427854487
-20.7362592606095326 15.9880444139317817 5.7348859378987598
-20.6349304516036369 16.1832018228702879 5.7283815721320970
-20.5316474883553646 16.3796775623438151 5.7243883280396322
-20.4246962891456185 16.5791947295130697 5.7227913934269701
-20.3120976232324750 16.7832467547634536 5.7236819355975390
-20.1929055700884952 16.9913361478647928 5.7273464849267732
-20.0678099775392482 17.2003701455900924 5.7341539447804948
-19.9385176094160705 17.4059235434319746 5.7444025129008587
-19.8066094538935751 17.6042314764048697 5.7582413588628967
-19.6727369116470605 17.7934623657884430 5.7757197610208042
-19.5363510854056592 17.9739264775987166 5.7969184127971420
-19.3959146605228554 18.1475203804654655 5.8220399629479402
-19.2497660870888687 18.3165096693828104 5.8513163884483523
-19.0974282512944029 18.4819893636870916 5.8847363216260762
-18.9402080905170536 18.6431880858387302 5.9218517651054725
-18.7802564562098944 18.7983205441293890 5.9618994351187418
-18.6190303418792737 18.9460011739980061 6.0041088337523441
-18.4565050608677055 19.0860995264017035 6.0479331852214830
-18.2914954631695146 19.2198540835436305 6.0930646052606576
-18.1228129373245501 19.3493651813024385 6.1391985212658176
-17.9506528177220197 19.4767099964132484 6.1856681085251930
-17.7770404874802956 19.6033019486914952 6.2313011986101268
-17.6047244533809923 19.7299665275948897 6.2747432511675267
-17.4356134708720738 19.8573744921148005 6.3150230397960376
-17.2700289774510374 19.9862409340339795 6.3519892926965662
-17.1069696555152646 20.1172377797712727 6.3863986803124853
-16.9448937837210210 20.2508815943860014 6.4195824476991490
-16.7824370187330487 20.3874771384852806 6.4528415135649952
-16.6187896204267602 20.5270023801085273 6.4869330234350517
-16.4538621158384366 20.6689025277981955 6.5218966674884680
-16.2882769286873845 20.8120335245707224 6.5571881811640935
-16.1228498395576132 20.9550977043900630 6.5919956017669810
-15.9575809010021104 21.0974482408495163 6.6256051838293404
-15.7912048081438954 21.2393454158100923 6.6575985369453097
-15.6221582192558692 21.3810405538186927 6.6877537791368855
-15.4499822342832243 21.5216530989108463 6.7158272444795939
-15.2754983324564613 21.6592802843692240 6.7414720734733802
-15.0995544171736675 21.7924221759179559 6.7643520180593093
-14.9219021363179287 21.9212688520067545 6.7842377223595705
-14.7414434721279424 22.0476566453967493 6.8008817476599672
-14.5571605174998258 22.1742312046934416 6.8139093433734281
-14.3686664172584564 22.3037707566822831 6.8232070616620870
-14.1763956393222088 22.4387880055757165 6.8297522494259724
-13.9818676090855050 22.5811512670797256 6.8358212465553683
-13.7879040685234742 22.7316062729099286 6.8436773332625993
-13.5981556957714069 22.8892914562913248 6.8538683477995992
-13.4156577483808999 23.0516099055375889 6.8652206812918388
-13.2413319573737436 23.2148677664359369 6.8764168201839455
-13.0736637256340220 23.3755546056697412 6.8872085824996443
-12.9095122360773189 23.5316025934751778 6.8983151422795768
-12.7452015474128864 23.6828066970014959 6.9107040095213650
-12.5776733195466477 23.8299900906574251 6.9250744469533334
-12.4057078229516460 23.9734756073662112 6.9416815969455214
-12.2302995265302332 24.1123194945131729 6.9603729704089758
-12.0534356366641084 24.2451073750194723 6.9807688935599366
-11.8763285724043044 24.3712827203713260 7.0024756130663679
-11.6986518219409525 24.4916686462478594 7.0251856743321444
-11.5192686066113019 24.6079055900225185 7.0485957847865395
-11.3377101853605584 24.7214539913865750 7.0722134892734925
-11.1548745456331293 24.8331858849656228 7.0952508800156862
-10.9721649833923287 24.9439990334430419 7.1167194847199475
-10.7902678735803441 25.0556335592656865 7.1355829484083273
-10.6090845580282878 25.1706530356471632 7.1508017457089501
-10.4287163042520490 25.2914558364885380 7.1613227854675383
-10.2500504871196672 25.4190717494458269 7.1661980766849780
-10.0741859484769396 25.5525881804263193 7.1648740878851758
-9.9016643654133176 25.6895481272049864 7.1574403630312968
-9.7323014056499542 25.8272675844040407 7.1446095358351611
-9.5652307565292780 25.9643427231739494 7.1274395944118103
-9.3990431011832616 26.1010680312463563 7.1070390768827973
-9.2324099297986741 26.2383066091991211 7.0844644959397831
-9.0647863697847235 26.3761023054199413 7.0607538372159944
-8.8963580210933948 26.5136047508340340 7.0368969079468604
-8.7271964554741697 26.6502388916359365 7.0136896150113568
-8.5566968576386806 26.7864515036076938 6.9916466628146452
-8.3840834878770725 26.9228361802639640 6.9711112951860681
-8.2091219036738021 27.0585888934167969 6.9524246038660138
-8.0318527727046245 27.1911951905071234 6.9359503580469548
-7.8515295586636746 27.3179217972587267 6.9219525771495842
-7.6661670137530713 27.4376340344579290 6.9105029505826217
-7.4734979857927542 27.5512544995304367 6.9015413282308096
-7.2722949261175636 27.6609190346631095 6.8950116188642525
-7.0629141563201552 27.7687430838895750 6.8909383548165613
-6.8471385241710134 27.8757458141118946 6.8894013822026050
-6.6277383000700283 27.9812405178345358 6.8904582380921626
-6.4077560413663699 28.0830120540222623 6.8940861633205248
-6.1895552062548340 28.1782592911829326 6.9001832888211876
-5.9740527371385959 28.2647831551162341 6.9086234776811279
-5.7604435080567029 28.3417926257070150 6.9193351148388977
-5.5465199659695266 28.4099165628163490 6.9323440135230747
-5.3298769112317066 28.4705325162527672 6.9477020824040761
-5.1097493297180847 28.5249793560106255 6.9653131008254761
-4.8878442990109150 28.5740716349474866 6.9848141444612661
-4.6670565270948074 28.6179658200617553 7.0056359270102053
-4.4494705700295096 28.6561740534773648 7.0271581463275012
-4.2353721825059267 28.6876200635660155 7.0488276232231080
-4.0234057648129653 28.7107992800675831 7.0701993408112891
-3.8113524528204952 28.7241186007395655 7.0908986192794625
-3.5973191882880631 28.7263921450364350 7.1104986251886402
-3.3809340619253661 28.7173419880849181 7.1283567846867086
-3.1634775774979271 28.6980455505442933 7.1435304563173645
-2.9465964344555609 28.6713338657074530 7.1548603170136573
-2.7310502496097406 28.6417438549471512 7.1611573652194451
-2.5166521008191980 28.6143089487630817 7.1614168632921835
-2.3027693753961307 28.5924094438388821 7.1550493670320154
-2.0885146886390755 28.5763047403806283 7.1420327013686897
-1.8730553351489090 28.5637167691611396 7.1229066105823717
-1.6562815448958070 28.5516937302934366 7.0986692782105472
-1.4391892720198958 28.5380190095181163 7.0706334276173433
-1.2232472812048971 28.5214922361654573 7.0401993151960598
-1.0089417604792759 28.5015334126479374 7.0085521889245221
-0.7949798266556343 28.4777645156769736 6.9764883986760831
-0.5793070230361619 28.4498989012500374 6.9445431282441907
-0.3609798702186657 28.4178743274325996 6.9132630138015445
-0.1411035208381735 28.3819734971935063 6.8833423320059506
0.0780771030494791 28.3426981386689221 6.8555040463927597
0.2953390543581809 28.3003913461110130 6.8302381696530805
0.5118769240945422 28.2549439737151431 6.8076695113435202
0.7305118553697580 28.2059003388163845 6.7877020835284991
0.9537954369149304 28.1528251923140118 6.7702557877543175
1.1825903283778216 28.0956526485717006 6.7553695970808763
1.4154094285148693 28.0349170467794764 6.7431490912924001
1.6484672568619794 27.9717503170126776 6.7336507885375898
1.8770302377976185 27.9073987688167620 6.7267836710952063
2.0980975430238233 27.8423398521999417 6.7222769795483952
2.3125020970728736 27.7757592320095554 6.7197287813740108
2.5243551822855341 27.7060039269601148 6.7187000949896039
2.7382180660333590 27.6316016196039129 6.7187978429184039
2.9559712729363206 27.5521309541364943 6.7197062536148966
3.1757099736925678 27.4684512779946246 6.7211636725364023
3.3935030676532740 27.3820579118506799 6.7229774355470084
3.6059488258671060 27.2940217161574381 6.7251743524969179
3.8114825840293705 27.2042606792359720 6.7281645218937136
4.0105261686162983 27.1115804422171252 6.7326011252963465
4.2051585026644291 27.0144407698898945 6.7388847292549237
4.3980996358171129 26.9119688472099909 6.7467791482056461
4.5909649035229236 26.8045842638357001 6.7555663248713183
4.7832492684324546 26.6937692772733612 6.7645478954264613
4.9733758654068758 26.5811360789699052 6.7733458909547304
5.1606587541104121 26.4675308173754757 6.7818478496068391
5.3461792742944265 26.3527344015801930 6.7900483379937455
5.5319396884552550 26.2359099639342688 6.7979608957964395
5.7192403865911405 26.1166047594362638 6.8055562258799931
5.9079760975718418 25.9955569842763552 6.8126850648695907
6.0974943102305019 25.8744997813711919 6.8190803581244008
6.2876877477174791 25.7551632813667624 6.8245116527110472
6.4790996153648877 25.6384090190733218 6.8289662553694255
6.6722404854366850 25.5241464903615167 6.8326549048856275
6.8668132026544715 25.4118629177961850 6.8358504047160711
7.0614286857371296 25.3011541527700459 6.8387376132429969
7.2542631873727688 25.1917127823553173 6.8413810605523366
7.4444416436446854 25.0827677616053819 6.8437763147201967
7.6328585032641820 24.9726976863447447 6.8459043962186810
7.8214398184254694 24.8594456017646692 6.8477486403509786
8.0116120141333305 24.7413938260728443 6.8492884778776517
8.2032223719037969 24.6180437655963971 6.8504960590943647
8.3944483352480859 24.4901425033350009 6.8513425896360705
8.5828446120258626 24.3590333744401661 6.8518074556740682
8.7671127786072365 24.2254144832825773 6.8518821091721573
8.9481024699728238 24.0885508579040746 6.8515661303996929
9.1279268536737899 23.9468318632205097 6.8508609018969198
9.3081431521926739 23.7991182709455416 6.8497698239542739
9.4885088677443967 23.6458389124196984 6.8483071236038509
9.6669882538967453 23.4892652260225816 6.8465052067834620
9.8412134545300773 23.3326558430678759 6.8444063875999985
10.0108308804465462 23.1786059686875987 6.8420498770568701
10.1786476344307282 23.0281202410168007 6.8395209587318568
10.3489038055793170 22.8814013449072178 6.8371431523758792
10.5242478090176501 22.7390075505807445 6.8357542436218566
10.7045736415354931 22.6018661925621771 6.8367609025551772
10.8885050145001046 22.4705687260070022 6.8416867736832847
11.0750326155325229 22.3451813773578465 6.8515012156543396
11.2633803191507909 22.2257452066731958 6.8664045549741939
11.4522793723630407 22.1125992490148491 6.8861333984812081
11.6404361865078911 22.0059079285024950 6.9102561806364449
11.8275699587383833 21.9049810844289610 6.9382528306874933
12.0144862941935067 21.8083401793329941 6.9695429160960494
12.2021583350022294 21.7144300774922598 7.0033975090412541
12.3909743738206188 21.6220176301184566 7.0387393278321877
12.5807145871688295 21.5301022918239440 7.0742234563511701
12.7707674513063001 21.4380970829209971 7.1085759399708017
12.9604747995504681 21.3461787357254806 7.1409481449149066
13.1497725035171307 21.2550080225317330 7.1712762530120937
13.3395471941898034 21.1650721950765046 7.2003861188824194
13.5311214125501991 21.0764633286528493 7.2295290706568043
13.7252682054804431 20.9891295145977992 7.2595988904195785
13.9217433085962501 20.9028581300928096 7.2906782809955146
14.1196364698734023 20.8166458081578796 7.3221844752453347
14.3177394894925367 20.7282738378627585 7.3532617982268764
14.5143804761618416 20.6348839906900210 7.3830112446797633
14.7074432450046757 20.5338778848470724 7.4105784934759891
14.8950841550405322 20.4232237996593895 7.4352635611696485
15.0762601126251656 20.3014566598961679 7.4565949943220158
15.2503669375571711 20.1679607693151297 7.4742698741223705
15.4170393101841192 20.0231519189434763 7.4880711872741532
15.5770168308479438 19.8681712678093660 7.4978849889917356
15.7329555322138663 19.7047925730703923 7.5037752456535500
15.8885500647646616 19.5359744409289107 7.5060633213435004
16.0463121206790404 19.3658209262472809 7.5054569515023672
16.2060339941205314 19.1981109449819201 7.5031913778667629
16.3654999172785978 19.0347062679211234 7.5009436270937435
16.5226339679204486 18.8751566439799348 7.5002936848931814
16.6768047330339186 18.7170683692020035 7.5019771166132427
16.8284134926803688 18.5570492725391674 7.5056644874424450
16.9777546687777345 18.3924613336775025 7.5105565085550143
17.1243659749705159 18.2230130933213914 7.5162209283652430
17.2672428886455229 18.0506034799315245 7.5231076267349977
17.4056749777974069 17.8774626747879850 7.5324882123284258
17.5398582781796932 17.7045140450428349 7.5456576073362136
17.6707360108926288 17.5313941858839399 7.5629471287245194
17.7993261758920376 17.3576401638786706 7.5834528498743978
17.9264204646296363 17.1834618249468747 7.6055524771866994
18.0531165079524918 17.0093168948980278 7.6276095798650871
18.1812487212290712 16.8353652949623225 7.6483491157936729
18.3128855848742553 16.6618614899098887 7.6668901347694334
18.4496159801296571 16.4898662656665920 7.6827201670741072
18.5925323648407144 16.3212518841360463 7.6957532440600200
18.7424021198075295 16.1581443426419042 7.7063406422146317
18.8992936108198926 16.0022468396131856 7.7151062947437810
19.0622371660268755 15.8541091886840206 7.7226797134173832
19.2297561053651727 15.7125740600558856 7.7295093888536641
19.4005838396669965 15.5750062233954267 7.7358290114116830
19.5734361063775957 15.4384758280955552 7.7417039310624212
19.7463383927257965 15.3009342694771888 7.7470902397679939
19.9168110991370497 15.1612936155625917 7.7518972787599152
20.0830418753356632 15.0184702367112237 7.7560482038523313
20.2446721678726824 14.8706515190878434 7.7595095431066818
20.4021284933957538 14.7158042490384986 7.7622761678614340
20.5552752428836278 14.5529002507474203 7.7643437628816265
20.7027907181772548 14.3826053749849834 7.7657018954618202
20.8428537998282053 14.2066370876456247 7.7663461835494427
20.9746588945689574 14.0261334536822062 7.7662914140151802
21.0995172450231721 13.8406796327298167 7.7655801438540957
21.2207632374646629 13.6492465363359443 7.7643000220827307
21.3429316579827528 13.4519986378402123 7.7626195465945633
21.4705052195306578 13.2510638550764597 7.7608223847129461
21.6060396184260561 13.0496052459783698 7.7593024196759561
21.7485840858670407 12.8501762095788976 7.7585156471794816
21.8941132984106446 12.6539005699218734 7.7589362376504223
22.0378332830928834 12.4608885625686625 7.7610321514136835
22.1763002933601321 12.2709519578549475 7.7651859245318295
22.3081218213755967 12.0837965014778490 7.7715429797721436
22.4337301644697149 11.8987266362568391 7.7799630342057622
22.5549112082454748 11.7143890949952691 7.7901984586972013
22.6739660675005972 11.5292006952835635 7.8020946498774313
22.7924907886053845 11.3425033970600566 7.8155657733043844
22.9107466334983734 11.1551166103055692 7.8304561521289262
23.0283199754210735 10.9682264568276508 7.8465291529765029
23.1451294382340365 10.7818949671028648 7.8635563102171071
23.2615154420783625 10.5950469142367893 7.8813134761113179
23.3774606195627932 10.4068891166966893 7.8994433420048384
23.4921035640099518 10.2179738468898549 7.9173556469329567
23.6042769103203618 10.0297544511492873 7.9343135648127703
23.7134908756415399 9.8435495727433064 7.9496328778610312
23.8205080769536295 9.6600799026303861 7.9628591884219189
23.9272238966629764 9.4795521362666193 7.9738765483785432
24.0360212874401071 9.3017611006219738 7.9829245051104767
24.1489391578128298 9.1260264599445868 7.9904854715627600
24.2670281888733612 8.9512135022048440 7.9970746383876063
24.3901095390558496 8.7761027577917581 8.0030587382279954
24.5168449994093436 8.5999908319222094 8.0085978103209641
24.6450298093309357 8.4230349514303633 8.0136934698018685
24.7722630666899697 8.2458008822615732 8.0182774838858872
24.8969142011264601 8.0681247218219205 8.0222891742903482
25.0186086227529110 7.8884729459524294 8.0257089151373560
25.1376273473400502 7.7047812594314422 8.0285430700672986
25.2538420651877900 7.5160256252503750 8.0307954855593167
25.3662163166452181 7.3230334375911781 8.0324587483569161
25.4732889591552976 7.1277002007454477 8.0335252047114842
25.5742325389458713 6.9310616732159041 8.0339987972995406
25.6694818549337391 6.7319931998378024 8.0338941462084605
25.7603710699762587 6.5278344180186991 8.0332269975117345
25.8484869397689074 6.3159997031031629 8.0320135042796643
25.9355837992184419 6.0951818179126178 8.0302931253821885
26.0239157616494801 5.8660056276950847 8.0281773023728125
26.1161230684759609 5.6313752243883251 8.0259040632256724
26.2141563324118998 5.3959961100078644 8.0238493477044841
26.3179846331991030 5.1645637767483379 8.0224509822971228
26.4254983150036473 4.9397568442564150 8.0220783442786683
26.5337579667385732 4.7218538488156909 8.0229506720394355
26.6402698381744720 4.5097895644424675 8.0251543655381639
26.7433968903531785 4.3022365593922487 8.0287051438188701
26.8422278227397797 4.0979744602642150 8.0335870246805534
26.9364748063023498 3.8955813813521942 8.0397717854035520
27.0265036250048283 3.6928335504068599 8.0472614124883037
27.1132716148911541 3.4865888417099562 8.0561319752483840
27.1978989129637654 3.2739795892739068 8.0664925031052572
27.2809338281344580 3.0545146352502677 8.0783537736098197
27.3620039096218122 2.8309680933021681 8.0915393422006296
27.4403410609556246 2.6077050676077391 8.1057448460406007
27.5155599139149629 2.3881201503273068 8.1206740932596837
27.5879431556187420 2.1732762315048682 8.1361158761008543
27.6583247173868649 1.9619248683464505 8.1519210133831450
27.7279377114479395 1.7512883615804604 8.1679433225067797
27.7982067410449041 1.5385008346395530 8.1839766504634586
27.8703501942520155 1.3224049609248958 8.1996574648709846
27.9450572515452187 1.1043084947782482 8.2143924385044098
28.0225865502636111 0.8868173972112920 8.2274228953626682
28.1031274642839861 0.6721183170031395 8.2379964528019762
28.1871332379178412 0.4612294637752825 8.2455182564084133
28.2754119244027251 0.2540495861212477 8.2495874282989590
28.3686920766767230 0.0494767198427404 8.2499489835689594
28.4668172078567920 -0.1543032412767751 8.2464965685774274
28.5682591118262721 -0.3589640802700877 8.2393734270323531
28.6703699524010673 -0.5648968142847153 8.2290701309941579
28.7701770896055002 -0.7707009090104364 8.2163677592084507
28.8652979985647207 -0.9741281698347244 8.2020744052008254
28.9546518635891879 -1.1740494982469230 8.1867255363079607
29.0386364866512494 -1.3716301738985699 8.1705071939330942
29.1185450931843697 -1.5695907907009996 8.1534369822233224
29.1957303007101103 -1.7706587149351947 8.1355714775060921
29.2712343641228934 -1.9766773635334864 8.1170765685868869
29.3458727081636859 -2.1885962349280454 8.0981898701412689
29.4202888246256755 -2.4066890371326686 8.0791646008117759
29.4948295557014646 -2.6303785760778027 8.0602605552746578
29.5693796983411481 -2.8576668874869711 8.0417894150109426
29.6433044343132330 -3.0849226260865272 8.0241473849562936
29.7157490206268733 -3.3080477873656484 8.0077382628868108
29.7863461263019147 -3.5248902172915635 7.9927955711000891
29.8556708348533526 -3.7367536318637526 7.9792809437417356
29.9247950160430420 -3.9473252357754198 7.9669850933489066
29.9943727298409719 -4.1604735963374289 7.9557084217800700
30.0640957427574236 -4.3789601236926750 7.9453581088150784
30.1328163645817959 -4.6041652260834987 7.9359453978786387
30.1990892761307812 -4.8359007140537109 7.9275355967418744
30.2617052501322163 -5.0719593626354431 7.9201706132440250
30.3200305494713405 -5.3080677447636582 7.9137667004476242
30.3742814878418663 -5.5392916391400711 7.9080163447187681
30.4256191829386893 -5.7627205073368515 7.9023417882016052
30.4757589181409188 -5.9791673055829833 7.8959429692525518
30.5262078793454599 -6.1921505500666854 7.8879574806033155
30.5776851304108845 -6.4053564916575851 7.8776914789489823
30.6300278762122176 -6.6205396192786665 7.8647934614484170
30.6825704098982364 -6.8372240972171738 7.8492098287284815
30.7347704366964400 -7.0542162634669534 7.8309673498509129
30.7865912070641521 -7.2708716263037765 7.8100573120393513
30.8384509391154396 -7.4867590950878640 7.7865156374954463
30.8911444020653079 -7.7010080123334639 7.7604974463074541
30.9458881050910932 -7.9127731256946330 7.7322220150716046
31.0038476875784141 -8.1218950632629294 7.7019507513467467
31.0649869437040138 -8.3285681249913566 7.6701019992067607
31.1274959544545489 -8.5326990256598254 7.6373056216808521
31.1888691323532470 -8.7340558157577952 7.6041829292178456
31.2477806065458772 -8.9328375195356085 7.5709340467446431
31.3050612850054080 -9.1298833428958375 7.5369899395574311
31.3629084373742444 -9.3265257391737801 7.5010034023507242
31.4229171663589995 -9.5244438600352996 7.4613616631857971
31.4846570297989885 -9.7255800315459275 7.4170618284134271
31.5458693882556496 -9.9320401855610037 7.3684031855455592
31.6034153794930184 -10.1461879240144981 7.3169732252866222
31.6538434043968735 -10.3710219824638301 7.2648972187769800
31.6937878622029743 -10.6096544950917266 7.2140318867452091
31.7208610189559543 -10.8622579772484738 7.1658548373379274
31.7347089244178484 -11.1226075221689182 7.1216377693292383
31.7371710069982420 -11.3802204412538419 7.0819692573725650
31.7310697659317178 -11.6277459218314814 7.0463291477058458
31.7184497268428807 -11.8642922954869583 7.0139308538259586
31.6996353850624004 -12.0923170640726152 6.9847032837911822
31.6736437067854979 -12.3141462941795368 6.9592229359373068
31.6394029938279289 -12.5311636869726861 6.9383759984136395
31.5968933396614027 -12.7439332520780351 6.9238487611737547
31.5477302140446589 -12.9523257471451423 6.9191515965220862
31.4953108853814143 -13.1562129078538916 6.9297016664679330
31.4444707292970911 -13.3565035483069181 6.9612873224589853
31.3999164322655915 -13.5550458558424438 7.0183355580544635
31.3633390892360708 -13.7527539020713423 7.1028062829291168
31.3313229521241290 -13.9476389304147297 7.2126906000483002
31.2967915389023581 -14.1349546144709244 7.3412557224026465
31.2540014972806759 -14.3099369960243017 7.4793337209410353
31.2035332531534131 -14.4706865136782064 7.6194496704364401
31.1534401014696236 -14.6181889530962330 7.7582110846939667
31.1156580524748136 -14.7547560435845426 7.8962551621274786
31.1000115691028292 -14.8834115911046574 8.0369042063299858
31.1096760733471172 -15.0077044091954743 8.1838664350272055
31.1409330919418075 -15.1306515640690655 8.3389863824899457
31.1867384271581649 -15.2536678167699691 8.5017789048071499
31.2406039397883077 -15.3764484242720574 8.6702976927764741
31.2978420499041015 -15.4981686772783647 8.8426538733122619
31.3544407030271621 -15.6192240462403475 9.0186833736585257
31.4058118709830225 -15.7417099886869671 9.2002648566113105
31.4469733585740485 -15.8682637462582719 9.3899339359613130
31.4738380783961844 -16.0001557957936527 9.5885028264161605
31.4844765308378243 -16.1359220819770925 9.7931669387040117
31.4791821893884958 -16.2721422352976965 9.9985541529921349
31.4591987350794220 -16.4060235895626931 10.2003854845078568
31.4253910953706566 -16.5364007647525320 10.3966420570642590
31.3776997750723510 -16.6629823789070954 10.5861732372694313
31.3148317323765006 -16.7857811520203413 10.7679889936092597
31.2340072026091846 -16.9046829302274624 10.9408896093809958
31.1316891520899226 -17.0189704257364482 11.1024969982046180
31.0056711491656074 -17.1271999607644076 11.2486731864089968
30.8568136649443581 -17.2274013152393053 11.3742660884619688
30.6882256857922897 -17.3177016305173126 11.4749445474319636
30.5028876371943340 -17.3973697551326936 11.5488707372213923
30.3027105041247218 -17.4673739590249895 11.5972631112682585
30.0898975718320578 -17.5298967074220080 11.6243485056632139
29.8689536009844403 -17.5874175759391775 11.6371073629733282
29.6464693165012214 -17.6423786534523508 11.6444909885884798
29.4281389850841926 -17.6973937609054239 11.6556144239544626
29.2164723887439202 -17.7549445986388150 11.6768441531497427
29.0110559174108289 -17.8164707200443679 11.7092534682608331
28.8098264888119999 -17.8820935185038046 11.7490825045484684
28.6103899980999508 -17.9515597936259397 11.7918175940818770
28.4114270470128716 -18.0254093909627358 11.8367237878135825
28.2135704108490231 -18.1052924751811304 11.8881663803100217
28.0195050994292920 -18.1934058387203557 11.9532379678580902
27.8333775329342537 -18.2915703256281255 12.0378089572623637
27.6586054794128096 -18.4003189803147720 12.1432682394950753
27.4945940576904917 -18.5181707845401746 12.2657307876710533
27.3360237990377364 -18.6415340073958689 12.3981100528510737
27.1759566023601131 -18.7659495182943665 12.5335052087383563
27.0096758509544301 -18.8882810217504371 12.6676145346455318
26.8365466715748440 -19.0077518920087023 12.7986702324684281
26.6593793868919953 -19.1248264094317371 12.9255728868427902
26.4818879469120319 -19.2392720523171086 13.0461866717221557
26.3054457530531423 -19.3491665541829150 13.1567681150166464
26.1271697224462613 -19.4510204495583494 13.2519865962790675
25.9409692907510845 -19.5403175733124179 13.3254656237987774
25.7411429365432909 -19.6125521519749206 13.3716081487750884
25.5259512139818732 -19.6652273054689282 13.3884005493412204
25.2984954351958073 -19.6996175692630580 13.3790265678990217
25.0642309069998603 -19.7202658378382338 13.3505402764652210
24.8270362171737808 -19.7325785982424442 13.3106914416541251
24.5875661121007703 -19.7408792352262310 13.2656158451489503
24.3456598343581803 -19.7481838672219041 13.2197435251421709
24.1040404794911503 -19.7569867617831569 13.1771104550255895
23.8684159674361638 -19.7698979610710630 13.1423520589113689
23.6434984499582370 -19.7896666779546599 13.1204737586057529
23.4295672882011949 -19.8184890493686119 13.1154813501139529
23.2230444204021218 -19.8567677657824717 13.1282971361996168
23.0192137007865476 -19.9023011628806152 13.1549623465212875
22.8138751255380612 -19.9509322410486547 13.1869044486081535
22.6035093318751841 -19.9981490305280936 13.2139996957187211
22.3855291173326734 -20.0404279326393819 13.2286158150988697
22.1592853590560672 -20.0757487182219307 13.2278699743681436
21.9268961816443806 -20.1033876919433787 13.2129835818812360
21.6926926559848816 -20.1233629717571461 13.1869506092977566
21.4609528697547276 -20.1359847140931691 13.1523049021404166
21.2338285046517363 -20.1415612032450966 13.1100306592588609
21.0117587737783111 -20.1399861733271983 13.0598212318784004
20.7953924245900907 -20.1302389390438243 13.0007290699054767
20.5871692737783825 -20.1099401979202739 12.9309757964460879
20.3913248829010065 -20.0749362443646291 12.8475129928369238
20.2118822230935713 -20.0198210935705205 12.7473902609311747
20.0500800724170993 -19.9406580907491708 12.6311982003442136
19.9033100293453344 -19.8379466206066439 12.5054374031018511
19.7665243407841267 -19.7164384628921852 12.3808687218870936
19.6343754028248405 -19.5820395720514497 12.2687239130501382
19.5023463893987881 -19.4390434503960705 12.1778244341820070
19.3673020610811584 -19.2896565863587242 12.1132032749403322
19.2280973320575050 -19.1348387753317226 12.0750604492906817
19.0859830012038714 -18.9748960191555867 12.0583494675499328
18.9445056285555786 -18.8097625965749558 12.0549027389032872
18.8085203632175393 -18.6392504801530912 12.0574038908304537
18.6822328635593848 -18.4630728517169977 12.0618088054659669
18.5673343135205045 -18.2808753669841870 12.0669896638004808
18.4626610846874968 -18.0927959564167615 12.0730873630966293
18.3655011479558148 -17.9000785340047486 12.0801913805131793
18.2733729228009381 -17.7048113232128088 12.0879944593115667
18.1848959883974288 -17.5085609266119704 12.0961268778498123
18.0997199659220662 -17.3110447483049086 12.1044812522835361
18.0183458818132785 -17.1102543473165767 12.1132199139553620
17.9419346351552420 -16.9041472973855527 12.1226082098232730
17.8715051600027905 -16.6923926732376025 12.1328549355477140
17.8067453550429207 -16.4766209450732006 12.1439729725477061
17.7455937888617399 -16.2592557828422350 12.1556982230149426
17.6850997642641268 -16.0422017307515574 12.1675540414293621
17.6229611303615954 -15.8264660248820732 12.1789930876421000
17.5585305044478588 -15.6125381877213982 12.1895640009114423
17.4924714229382552 -15.4009187035664787 12.1990305079005150
17.4253892646282367 -15.1922959466184331 12.2073187976434774
17.3567188806158796 -14.9872623139472481 12.2143701619534859
17.2848596684319382 -14.7858488438576359 12.2200965318579975
17.2082791464999580 -14.5872636148519206 12.2244664303496009
17.1264403521388715 -14.3900733835527799 12.2275661514447087
17.0398968799413417 -14.1928476328549635 12.2295460779839829
16.9499869551722924 -13.9949202328251001 12.2305256377719225
16.8585961965415976 -13.7966979084781940 12.2305945837071626
16.7676786709584285 -13.5990811943824532 12.2299276036739979
16.6785153484313398 -13.4021680828835148 12.2288258056680306
16.5914307799793264 -13.2044976024359872 12.2275903930634477
16.5063178643525106 -13.0039432295907105 12.2264113535305832
16.4233989873706001 -12.7994463438970314 12.2253826883588204
16.3435304702579387 -12.5919174573871366 12.2245654074020464
16.2678292455950455 -12.3833972509651957 12.2240204707159812
16.1969230358642733 -12.1750009152620411 12.2238175124051391
16.1305194065289257 -11.9655670991843799 12.2240565996114423
16.0676990326987550 -11.7523985492603238 12.2249205873324538
16.0074976379831924 -11.5330948927942227 12.2267344127657083
15.9492561674051299 -11.3069698034947326 12.2299655515371803
15.8927203117985503 -11.0757492033654241 12.2351025432452190
15.8379905311208571 -10.8435209586809140 12.2424374368899684
15.7852297223524420 -10.6152845622503840 12.2518595540263924
15.7341811030388712 -10.3940917695673587 12.2627204127442972
15.6839100551803696 -10.1788623317704250 12.2738082291700223
15.6330326723032886 -9.9651075517058878 12.2835506181056804
15.5802682950257996 -9.7480247703238874 12.2904043741634776
15.5250949050671387 -9.5257150949762259 12.2931719383075482
15.4681044493981652 -9.3002012941527621 12.2912030608824985
15.4105741408936314 -9.0755212811047006 12.2846240383391105
15.3533749405359430 -8.8549103900059070 12.2744354725457789
15.2959880274724060 -8.6391710606158014 12.2621112237670467
15.2365313380392706 -8.4266843593025520 12.2487661468718834
15.1729854044340211 -8.2148652460548472 12.2345331869705962
15.1046054042314370 -8.0023871309888222 12.2187542631131461
15.0321127473043195 -7.7903441737954715 12.2009150579432646
14.9565188576154888 -7.5810194094636767 12.1814741233536097
14.8780626511889942 -7.3755749806777704 12.1616460078722284
14.7963648117633966 -7.1729418413992256 12.1423477031482019
14.7112257707705325 -6.9707877269559333 12.1237045010486302
14.6230340210478325 -6.7675568799022070 12.1057625835440721
14.5325515456033045 -6.5635385272914419 12.0892712848406028
14.4404054835944891 -6.3600406585641522 12.0753658034689142
14.3466287979593599 -6.1580439173251840 12.0646026291837209
14.2504646256479326 -5.9578133408343206 12.0564477547970803
14.1506725480838877 -5.7594066869287559 12.0495725157556173
14.0464145770395188 -5.5632417722511356 12.0425093113039772
13.9381767735612865 -5.3701380133090666 12.0340933447248908
13.8277927873759250 -5.1806690330560983 12.0235550925198051
13.7173142772555412 -4.9942041919401525 12.0105089821586812
13.6077036926151465 -4.8086513768794283 11.9950750912758046
13.4985793734702053 -4.6214015765906709 11.9780047354831272
13.3891008003921694 -4.4306316920022226 11.9604884018898741
13.2791113663627893 -4.2361101749070009 11.9437112285761948
13.1696691832670680 -4.0392175129028089 11.9284889556359683
13.0625786244403894 -3.8419403586467169 11.9151321768049119
12.9591966180803535 -3.6451197764829146 11.9035396648447893
12.8595437476333956 -3.4474222772802818 11.8934949988756493
12.7625797074779435 -3.2461396447981450 11.8849697662566278
12.6672286306192490 -3.0388445959116233 11.8781408485770790
12.5732096690303603 -2.8246102511415820 11.8731732855259420
12.4811987249052319 -2.6046487182857128 11.8701510803159813
12.3923791980488307 -2.3823051079704065 11.8692620372900866
12.3075326231856437 -2.1616949420276725 11.8709935027818787
12.2260542668792382 -1.9451060675120253 11.8760782930242179
12.1458150049265221 -1.7314905289772611 11.8851022019658057
12.0643574610283615 -1.5180897761070682 11.8979669695123249
11.9804061913166446 -1.3035057371399681 11.9136263692621327
11.8943360513634495 -1.0889500728162815 11.9303294689477681
11.8074649084310135 -0.8768506685857247 11.9461419411876832
11.7210738863112880 -0.6688208663244311 11.9593476906887553
11.6358232648174784 -0.4647189916976195 11.9685546154319109
11.5517149096645362 -0.2628999856506624 11.9725287618678458
11.4686367637786066 -0.0611958565963846 11.9699502433132281
11.3872277307919507 0.1419658554345418 11.9594863311658628
11.3091978130592210 0.3471256444533886 11.9404070571552410
11.2364857746057130 0.5541083347435212 11.9132291900623191
11.1699776944878941 0.7624117721111219 11.8795703926512779
11.1090605181870110 0.9715003900197878 11.8413819030471572
11.0523027643057858 1.1806420535938820 11.8004595820810909
10.9982586934803983 1.3887271399609027 11.7584471130779455
10.9456686707213979 1.5951261623192217 11.7168039728196174
10.8934765252171761 1.8007947898894408 11.6765630768866018
10.8410825849794676 2.0079176818699978 11.6382979544721064
10.7885622572361921 2.2181011773206691 11.6024900371720072
10.7364841091098526 2.4309368424553917 11.5698336967740723
10.6854754865025221 2.6443261764005044 11.5409855464292015
10.6359999780527357 2.8561216024449081 11.5159754342115761
10.5883869979244363 3.0657823544462914 11.4939126487992187
10.5428085003923346 3.2747798274020425 11.4733150516329943
10.4991503866060025 3.4853262076887930 11.4528146609689614
10.4569294976202833 3.6985877025093714 11.4317163739616667
10.4153548804677882 3.9139118971460860 11.4101092241649926
10.3734505172826630 4.1296839060652566 11.3885910041672673
10.3301658508511647 4.3451470758463806 11.3677917180197863
10.2845141420999528 4.5613828987157845 11.3479946901830502
10.2356802019611379 4.7802260363150317 11.3291853004701935
10.1829351523889535 5.0022289603860024 11.3114999112426062
10.1254991412738207 5.2257251094609245 11.2955839924259003
10.0627257575215623 5.4479643980964312 11.2823163354696145
9.9944310155027694 5.6673590414323023 11.2721540104074975
9.9207674220240527 5.8844567959391405 11.2650315504767420
9.8418928592587971 6.1005102755557594 11.2608831341219293
9.7581613659225681 6.3155483705422242 11.2599039458660588
9.6706077454024690 6.5282010045087588 11.2622829824597659
9.5807288221440992 6.7372169601350578 11.2680092331489519
9.4896406028491249 6.9428091276114081 11.2768946590130774
9.3979384858425696 7.1464345266919231 11.2882346110170033
9.3067296463920339 7.3495747816520591 11.3001991169912444
9.2185796933569168 7.5529656576232682 11.3102265676338796
9.1368842209415124 7.7568726738327527 11.3169397993380692
9.0638076571147277 7.9615339283264781 11.3216659118953658
8.9985609961990942 8.1669549518016531 11.3274386802305251
8.9376209664183239 8.3724312104774441 11.3365713103808972
8.8765025201021270 8.5766530180873666 11.3494503957789910
8.8116791253492615 8.7784591095699014 11.3650678199484219
8.7414076916889822 8.9774689072346554 11.3820790674273695
8.6652679605732956 9.1738547433422291 11.3994794137689865
8.5832476665189841 9.3677194264998320 11.4168388691292879
8.4952131878916806 9.5589998885979455 11.4342971504544053
8.4011091047118356 9.7477487976581614 11.4523492760498584
8.3015267558500181 9.9341917838079823 11.4714683909775150
8.1978540016134929 10.1185763673986813 11.4917908769289525
8.0916990047408035 10.3012130945819820 11.5130319015218880
7.9841522596660264 10.4827146117405192 11.5345970042878747
7.8755465120440347 10.6640455285801821 11.5557687473367441
7.7658423845519007 10.8462251643221279 11.5757980901507231
7.6551728139591670 11.0298361232296145 11.5938538142313430
7.5438308473786408 11.2148231438188901 11.6091486876520200
7.4319830790920456 11.4007637221768050 11.6212767947459703
7.3197355196479057 11.5873317674034126 11.6302648386565153
7.2070249652363172 11.7746443227556767 11.6363504680963388
7.0932155934044143 11.9630749666438803 11.6400332165089324
6.9773215961804356 12.1524853391957919 11.6422902093275482
6.8587636227912903 12.3417236671880559 11.6444470623324179
6.7376652501131851 12.5291166035495820 11.6477586535704063
6.6146353339348334 12.7134317132146037 11.6529977911293621
6.4905774956256268 12.8941877062339643 11.6603417474451323
6.3664966928479112 13.0714272433326002 11.6695973733641907
6.2431593116960276 13.2456963272138566 11.6805084677138744
6.1210009023569301 13.4180032196607328 11.6929368747295257
6.0003785210904912 13.5894842721699050 11.7069801673006353
5.8817852867506719 13.7611032093431334 11.7231971262683885
5.7659611723269730 13.9335819535404326 11.7429050716507426
5.6541402535476237 14.1076392049129922 11.7681385609402902
5.5484881595778219 14.2844875332064234 11.8007414958611463
5.4521617031779872 14.4661024875652373 11.8407588033171347
5.3682804784956097 14.6545101982872623 11.8853468759289882
5.2979920530969071 14.8504554372627524 11.9293225563575795
5.2390387982807667 15.0527984940966491 11.9670481127181247
5.1861950095661138 15.2591075143490755 11.9944041950013762
5.1334822219203327 15.4667901802453542 12.0098805792001695
5.0764865176895029 15.6739513482909700 12.0146521687902137
5.0131078876746633 15.8794102143982201 12.0118775254209567
4.9427509956235749 16.0820763051211912 12.0054341517995411
4.8647545624571302 16.2801474403772701 11.9988943960609262
4.7768055504140472 16.4704229444418715 11.9957970013784667
4.6748427499856708 16.6482450619356825 12.0005594688224662
4.5555599517515235 16.8090085938380227 12.0179872589673629
4.4195180032419552 16.9515055248514770 12.0505369314754311
4.2715375594503691 17.0804509803507543 12.0955134416780936
4.1180055564947953 17.2045693377621660 12.1452507243938879
3.9637195098021776 17.3311930073413976 12.1903355154779085
3.8105970020454119 17.4627085147994379 12.2233347573987245
3.6586807831761479 17.5978939759886046 12.2410895654680978
3.5079789201835734 17.7355191853712526 12.2449365672775698
3.3591297604058288 17.8759762352673235 12.2392227799044839
3.2127639779860706 18.0203525990138687 12.2296037691156787
3.0687655286921398 18.1687662459986683 12.2223277588119679
2.9260769569767202 18.3194435650885126 12.2235329633645406
2.7831454108579159 18.4694130585503018 12.2372129508460326
2.6385495885283596 18.6161763425687923 12.2627075527012401
2.4910703270629089 18.7586002046472089 12.2943586431872820
2.3392225622762410 18.8961037116662283 12.3243054222328254
2.1810646842643253 19.0271341338907050 12.3463484811635507
2.0146200762203867 19.1487670232861404 12.3580244307044644
1.8384427000544366 19.2579220329666185 12.3599248949957641
1.6520540106342920 19.3527089712847200 12.3540015671710268
1.4562228517242757 19.4325342663745602 12.3429229315554601
1.2528789502969329 19.4973103560385681 12.3299878725325414
1.0446413371994232 19.5469444795063296 12.3181851426925242
0.8341480836423980 19.5814889141499577 12.3088871461344365
0.6233029832003214 19.6014604783996162 12.3016526859399029
0.4130385378709112 19.6078649984766784 12.2952259677811799
0.2037381505671263 19.6020534472696255 12.2886513828603317
-0.0043067595530377 19.5856674141940488 12.2819381531059637
-0.2106792056093381 19.5605764445498949 12.2765654033433762
-0.4147647930209715 19.5286037480124790 12.2760231433432843
-0.6158193983584364 19.4912014020409146 12.2856173818140704
-0.8134816273944656 19.4495711546478134 12.3102090631020396
-1.0086677014371594 19.4052975844330788 12.3503007943983718
-1.2039674834345093 19.3606118220260726 12.4000284443601423
-1.4026078578042727 19.3177608369902174 12.4498713980614646
-1.6066384554579214 19.2784249214568817 12.4914776933994851
-1.8160698318869657 19.2438957604274634 12.5200185541881854
-2.0295418437132637 19.2153591627512910 12.5330507610338362
-2.2451747073928185 19.1934034792271646 12.5284289902798420
-2.4605116003507845 19.1769507984273844 12.5038832905059785
-2.6724129008950923 19.1625555212784349 12.4587235210279221
-2.8781754298597328 19.1448016013628504 12.3959567668720041
-3.0771206456439328 19.1181734838361734 12.3227943099933022
-3.2711899413387941 19.0795619707726516 12.2492416353092057
-3.4640875816498102 19.0297882694845697 12.1854314809803128
-3.6595768096719441 18.9733360796274440 12.1383256115664224
-3.8599582947353959 18.9166274098442599 12.1093054919854630
-4.0654281978881350 18.8658318126663147 12.0947347015928734
-4.2747114231668464 18.8251597738603849 12.0890982133324254
-4.4864020202560404 18.7961089495527389 12.0878889274189145
-4.6995885094041476 18.7775593189680237 12.0885527396060954
-4.9134618900860989 18.7661605903142714 12.0900852921468029
-5.1267913251391324 18.7565650688066654 12.0924607287469463
-5.3377529833820159 18.7416736746827013 12.0963785761753737
-5.5441271627012032 18.7135341113587970 12.1030941494183217
-5.7437765071911357 18.6653162122221090 12.1138760518188384
-5.9352599144442131 18.5936626415570174 12.1290884151866543
-6.1181403608985043 18.4995928330463997 12.1476102079653767
-6.2927956495871236 18.3870082032340818 12.1671236794922031
-6.4600240182297535 18.2603049370791695 12.1847896206431088
-6.6207920881444231 18.1232134117605668 12.1976802330499563
-6.7762335910907234 17.9790761942629587 12.2031307960254747
-6.9277214750855602 17.8310376225741152 12.1996411633695665
-7.0767515598058868 17.6813397456284207 12.1880427282147537
-7.2249766372006041 17.5308478685425513 12.1713653052568969
-7.3746442242371000 17.3801469218867339 12.1529488451112222
-7.5285470921702675 17.2315149119334663 12.1347294991779719
-7.6891078406800943 17.0895611553448248 12.1172756531695924
-7.8577088617571658 16.9595792647446402 12.1007752109684628
-8.0348502488484197 16.8452155131834047 12.0855612720084409
-8.2204139024086320 16.7475292157117650 12.0718290746722694
-8.4134963234714473 16.6654182626591165 12.0592013832328586
-8.6120458925931782 16.5959098862787044 12.0469097009225194
-8.8125961772501267 16.5337956589447046 12.0344429288707673
-9.0101898942651744 16.4712596320024787 12.0220399874112882
-9.1984293941066859 16.3984251356171811 12.0107309167264216
-9.3698075408994903 16.3054216837487544 12.0020001152589639
-9.5167687095999423 16.1855368273717488 11.9973149145651483
-9.6340184947095224 16.0376172973078610 11.9975567832883883
-9.7214726748194398 15.8660328799873724 12.0019609841346409
-9.7855820198902279 15.6785419609868484 12.0068917693307462
-9.8372451102349032 15.4837034246042791 12.0061971408289150
-9.8877014614031786 15.2888548992917137 11.9939075327363796
-9.9452880388904976 15.0985856563366099 11.9678830009774622
-10.0143950365427301 14.9139975578424568 11.9313640539663908
-10.0959104053852737 14.7333986308089777 11.8901376759809505
-10.1880222600133710 14.5540293395656519 11.8481100384304288
-10.2870896577230031 14.3733742571176180 11.8068815977346766
-10.3882899538944038 14.1894679771609304 11.7683930335470315
-10.4863524243313400 14.0009416121576322 11.7350877454499418
-10.5769767133462587 13.8074230198014192 11.7074681785470069
-10.6579546097555156 13.6098584962878704 11.6830431692405199
-10.7291270325266623 13.4100431402661044 11.6577811255663946
-10.7914644944811648 13.2094746290260616 11.6283031477559078
-10.8459190558136562 13.0086257404807384 11.5933163188587258
-10.8928920175729651 12.8071491285639425 11.5537485075289403
-10.9326764614691463 12.6044934798729571 11.5118359204012926
-10.9661245578602777 12.4004461147968712 11.4699394966069832
-10.9944730867831986 12.1953610860795152 11.4297844370925379
-11.0182663032048023 11.9898762304395561 11.3921729096868916
-11.0367181497642601 11.7839099722417942 11.3566237061795707
-11.0486356242668329 11.5755918205556299 11.3210810825361392
-11.0541369374866925 11.3621239478894580 11.2828057665305472
-11.0554062942118172 11.1431982407694079 11.2404805529912917
-11.0559602359063938 10.9225750142203850 11.1954534052050398
-11.0593990930862951 10.7045707943664752 11.1507131355770142
-11.0686817168745826 10.4905163856852965 11.1090962549885184
-11.0860379087049221 10.2790682683748713 11.0724001919596322
-11.1130609464409602 10.0683812382287527 11.0414808190866331
-11.1506317025283792 9.8574149168713987 11.0168068861047086
-11.1986801109438616 9.6456806665247257 10.9989517812164905
-11.2559565836311766 9.4325594355302300 10.9886986808462268
-11.3200406595153620 9.2173949011426615 10.9867344398259128
-11.3879444350096843 9.0001074769956944 10.9930370750422988
-11.4572282706284518 8.7816436548038084 11.0063016221053545
-11.5268000905593890 8.5638471199374102 11.0238505982333930
-11.5965731813408528 8.3485701950747178 11.0420966264677922
-11.6661199036508521 8.1366881515314340 11.0572396447312951
-11.7337989935413187 7.9278681343883441 11.0657650087155037
-11.7978132147568431 7.7213245491867966 11.0644970258810602
-11.8586819253507603 7.5169275518159715 11.0509023564248423
-11.9205932047880907 7.3154248715106966 11.0246686432663736
-11.9893786161972304 7.1174614887952181 10.9892697559645889
-12.0684654605024324 6.9226474809065301 10.9508766591226951
-12.1567917946080861 6.7298328358010906 10.9150453794085358
-12.2499560847737516 6.5379303309427748 10.8841673890651798
