#CW. Done reversal (Created by Banna)
15.9617 4.0520 7.8025 -0.9668 -0.2504 0.0511
15.9077 4.2493 7.8153 -0.9668 -0.2419 0.0822
15.8546 4.4487 7.8269 -0.9671 -0.2367 0.0929
15.8021 4.6503 7.8376 -0.9685 -0.2308 0.0929
15.7504 4.8538 7.8472 -0.9694 -0.2247 0.0989
15.6993 5.0590 7.8559 -0.9702 -0.2257 0.0884
15.6489 5.2658 7.8636 -0.9715 -0.2184 0.0920
15.5991 5.4738 7.8706 -0.9731 -0.2058 0.1034
15.5498 5.6826 7.8768 -0.9754 -0.1967 0.0997
15.5010 5.8917 7.8823 -0.9772 -0.1833 0.1068
15.4526 6.1006 7.8872 -0.9810 -0.1559 0.1159
15.4047 6.3090 7.8917 -0.9806 -0.1469 0.1297
15.3572 6.5162 7.8957 -0.9837 -0.1220 0.1322
15.3101 6.7218 7.8996 -0.9817 -0.1131 0.1535
15.2632 6.9252 7.9033 -0.9773 -0.1077 0.1826
15.2164 7.1260 7.9070 -0.9724 -0.1069 0.2076
15.1698 7.3236 7.9109 -0.9120 -0.1473 0.3829
15.1232 7.5179 7.9151 -0.8750 -0.1720 0.4524
15.0765 7.7082 7.9197 -0.8745 -0.1752 0.4522
15.0296 7.8946 7.9249 -0.8740 -0.1807 0.4511
14.9823 8.0766 7.9309 -0.8697 -0.1957 0.4531
14.9345 8.2542 7.9376 -0.8657 -0.2079 0.4554
14.8862 8.4275 7.9454 -0.8636 -0.2176 0.4548
14.8370 8.5963 7.9541 -0.8622 -0.2245 0.4541
14.7870 8.7609 7.9640 -0.8615 -0.2267 0.4544
14.7361 8.9214 7.9750 -0.8593 -0.2350 0.4542
14.6840 9.0781 7.9872 -0.8537 -0.2490 0.4574
14.6307 9.2313 8.0007 -0.8487 -0.2631 0.4588
14.5761 9.3814 8.0154 -0.8469 -0.2692 0.4585
14.5202 9.5289 8.0314 -0.8431 -0.2798 0.4592
14.4629 9.6740 8.0486 -0.8342 -0.2997 0.4629
14.4041 9.8173 8.0670 -0.8306 -0.3065 0.4649
14.3439 9.9593 8.0865 -0.8244 -0.3150 0.4702
14.2822 10.1005 8.1072 -0.8180 -0.3262 0.4738
14.2191 10.2413 8.1290 -0.8138 -0.3320 0.4770
14.1547 10.3822 8.1519 -0.8079 -0.3364 0.4838
14.0889 10.5237 8.1758 -0.8038 -0.3462 0.4839
14.0218 10.6664 8.2007 -0.8012 -0.3455 0.4887
13.9536 10.8107 8.2265 -0.7994 -0.3457 0.4914
13.8843 10.9571 8.2532 -0.8226 -0.3765 0.4262
13.8140 11.1059 8.2808 -0.8400 -0.3905 0.3766
13.7429 11.2578 8.3092 -0.8527 -0.3910 0.3465
13.6710 11.4129 8.3384 -0.8633 -0.3957 0.3133
13.5985 11.5716 8.3683 -0.8708 -0.3965 0.2907
13.5256 11.7340 8.3988 -0.8829 -0.3861 0.2671
13.4523 11.9004 8.4298 -0.8901 -0.3768 0.2565
13.3789 12.0707 8.4614 -0.8922 -0.3760 0.2503
13.3054 12.2447 8.4933 -0.9014 -0.3605 0.2400
13.2322 12.4221 8.5255 -0.9110 -0.3483 0.2209
13.1592 12.6027 8.5579 -0.9218 -0.3243 0.2124
13.0867 12.7858 8.5904 -0.9240 -0.3019 0.2348
13.0148 12.9707 8.6229 -0.9305 -0.2874 0.2272
12.9437 13.1568 8.6553 -0.9360 -0.2727 0.2227
12.8733 13.3432 8.6874 -0.9401 -0.2584 0.2223
12.8037 13.5291 8.7193 -0.9467 -0.2313 0.2243
12.7350 13.7136 8.7509 -0.9487 -0.2101 0.2364
12.6670 13.8959 8.7822 -0.9358 -0.2075 0.2851
12.5996 14.0752 8.8132 -0.9204 -0.2097 0.3300
12.5327 14.2509 8.8438 -0.9235 -0.2068 0.3231
12.4659 14.4226 8.8742 -0.8961 -0.2344 0.3768
12.3990 14.5899 8.9044 -0.8424 -0.2685 0.4671
12.3316 14.7526 8.9344 -0.7925 -0.3120 0.5240
12.2633 14.9107 8.9643 -0.7895 -0.3148 0.5269
12.1936 15.0643 8.9942 -0.7872 -0.3159 0.5297
12.1222 15.2137 9.0241 -0.7796 -0.3218 0.5372
12.0484 15.3593 9.0542 -0.7784 -0.3181 0.5412
11.9720 15.5014 9.0843 -0.7752 -0.3225 0.5432
11.8925 15.6407 9.1144 -0.7698 -0.3275 0.5479
11.8095 15.7775 9.1445 -0.7681 -0.3289 0.5494
11.7228 15.9123 9.1744 -0.7624 -0.3303 0.5564
11.6322 16.0455 9.2040 -0.7558 -0.3362 0.5619
11.5375 16.1774 9.2330 -0.7529 -0.3362 0.5658
11.4388 16.3084 9.2613 -0.7474 -0.3348 0.5739
11.3359 16.4386 9.2886 -0.7429 -0.3361 0.5789
11.2291 16.5680 9.3146 -0.7355 -0.3455 0.5827
11.1185 16.6968 9.3389 -0.7294 -0.3402 0.5934
11.0042 16.8249 9.3614 -0.7267 -0.3502 0.5910
10.8866 16.9524 9.3818 -0.7244 -0.3539 0.5916
10.7659 17.0790 9.3999 -0.7230 -0.3416 0.6005
10.6423 17.2047 9.4154 -0.7232 -0.3397 0.6013
10.5163 17.3293 9.4283 -0.7227 -0.3200 0.6126
10.3880 17.4529 9.4385 -0.7232 -0.3209 0.6116
10.2579 17.5752 9.4459 -0.7220 -0.3228 0.6120
10.1260 17.6961 9.4506 -0.7225 -0.3202 0.6127
9.9928 17.8155 9.4526 -0.7222 -0.3228 0.6117
9.8584 17.9333 9.4521 -0.7223 -0.3337 0.6058
9.7230 18.0494 9.4494 -0.7231 -0.3407 0.6009
9.5869 18.1637 9.4445 -0.7216 -0.3599 0.5914
9.4501 18.2760 9.4379 -0.7222 -0.3644 0.5879
9.3127 18.3862 9.4298 -0.7221 -0.3712 0.5837
9.1747 18.4943 9.4204 -0.7205 -0.3768 0.5822
9.0363 18.6002 9.4102 -0.7215 -0.3798 0.5790
8.8972 18.7039 9.3994 -0.7202 -0.3816 0.5793
8.7575 18.8053 9.3884 -0.7204 -0.3847 0.5771
8.6169 18.9045 9.3773 -0.7188 -0.3913 0.5746
8.4753 19.0015 9.3665 -0.7180 -0.3901 0.5764
8.3324 19.0964 9.3561 -0.7156 -0.3893 0.5800
8.1881 19.1894 9.3463 -0.7125 -0.3955 0.5796
8.0422 19.2807 9.3372 -0.7106 -0.3897 0.5859
7.8943 19.3703 9.3289 -0.7084 -0.3961 0.5842
7.7444 19.4584 9.3214 -0.7201 -0.4397 0.5367
7.5923 19.5453 9.3147 -0.7381 -0.4843 0.4697
7.4380 19.6310 9.3088 -0.7372 -0.5167 0.4355
7.2815 19.7156 9.3036 -0.7361 -0.5171 0.4368
7.1229 19.7991 9.2991 -0.7416 -0.5168 0.4278
6.9624 19.8815 9.2952 -0.7421 -0.5167 0.4269
6.8004 19.9627 9.2918 -0.7425 -0.5208 0.4213
6.6370 20.0425 9.2889 -0.7399 -0.5127 0.4355
6.4729 20.1208 9.2865 -0.7430 -0.5085 0.4352
6.3083 20.1971 9.2844 -0.7423 -0.5068 0.4384
6.1438 20.2713 9.2827 -0.7429 -0.5110 0.4324
5.9798 20.3429 9.2814 -0.7426 -0.5024 0.4429
5.8166 20.4117 9.2803 -0.7395 -0.4879 0.4638
5.6545 20.4772 9.2795 -0.7415 -0.4930 0.4552
5.4937 20.5393 9.2788 -0.7306 -0.4761 0.4894
5.3343 20.5976 9.2784 -0.7077 -0.4785 0.5197
5.1763 20.6520 9.2780 -0.6878 -0.4703 0.5529
5.0195 20.7024 9.2775 -0.6827 -0.4797 0.5512
4.8636 20.7487 9.2769 -0.6818 -0.4807 0.5514
4.7083 20.7910 9.2759 -0.6815 -0.4839 0.5491
4.5531 20.8293 9.2744 -0.6812 -0.4874 0.5464
4.3975 20.8639 9.2723 -0.6804 -0.4873 0.5474
4.2410 20.8950 9.2694 -0.6799 -0.4906 0.5450
4.0830 20.9228 9.2654 -0.6798 -0.4786 0.5557
3.9233 20.9477 9.2603 -0.6927 -0.5016 0.5183
3.7612 20.9699 9.2538 -0.6990 -0.5131 0.4981
3.5966 20.9898 9.2458 -0.6991 -0.5148 0.4962
3.4293 21.0075 9.2363 -0.7111 -0.5376 0.4530
3.2590 21.0232 9.2251 -0.7147 -0.5462 0.4369
3.0859 21.0373 9.2121 -0.7150 -0.5443 0.4386
2.9101 21.0496 9.1974 -0.7154 -0.5570 0.4219
2.7317 21.0603 9.1809 -0.7098 -0.5513 0.4385
2.5510 21.0694 9.1627 -0.7046 -0.5474 0.4515
2.3684 21.0767 9.1429 -0.6921 -0.5317 0.4882
2.1841 21.0820 9.1214 -0.6924 -0.5328 0.4866
1.9986 21.0854 9.0985 -0.6813 -0.5228 0.5124
1.8122 21.0864 9.0742 -0.6792 -0.5360 0.5013
1.6253 21.0850 9.0487 -0.6798 -0.5462 0.4894
1.4381 21.0809 9.0221 -0.6802 -0.5556 0.4782
1.2509 21.0738 8.9947 -0.6804 -0.5604 0.4723
1.0640 21.0638 8.9665 -0.6799 -0.5590 0.4745
0.8775 21.0505 8.9378 -0.6803 -0.5602 0.4727
0.6917 21.0340 8.9088 -0.6808 -0.5618 0.4701
0.5066 21.0143 8.8797 0.6809 -0.5547 0.4782
0.3224 20.9913 8.8504 0.6812 -0.5529 0.4799
0.1392 20.9653 8.8213 0.6815 -0.5490 0.4839
-0.0430 20.9362 8.7924 0.6813 -0.5365 0.4980
-0.2241 20.9044 8.7639 0.6885 -0.5322 0.4927
-0.4041 20.8700 8.7357 0.7013 -0.5402 0.4651
-0.5828 20.8334 8.7080 0.7106 -0.5513 0.4371
-0.7601 20.7947 8.6807 0.7287 -0.5591 0.3954
-0.9362 20.7542 8.6540 0.7292 -0.5568 0.3979
-1.1107 20.7122 8.6279 0.7225 -0.5695 0.3920
-1.2837 20.6689 8.6023 0.7228 -0.5669 0.3953
-1.4551 20.6244 8.5772 0.7257 -0.5681 0.3880
-1.6248 20.5789 8.5528 0.7263 -0.5686 0.3862
-1.7926 20.5325 8.5290 0.7218 -0.5571 0.4106
-1.9585 20.4852 8.5059 0.7233 -0.5550 0.4108
-2.1224 20.4370 8.4835 0.7159 -0.5554 0.4230
-2.2841 20.3879 8.4619 0.6991 -0.5190 0.4919
-2.4437 20.3377 8.4413 0.6996 -0.5198 0.4903
-2.6011 20.2864 8.4215 0.6958 -0.5143 0.5014
-2.7563 20.2338 8.4029 0.6862 -0.5055 0.5230
-2.9094 20.1797 8.3853 0.6879 -0.5101 0.5163
-3.0606 20.1239 8.3689 0.6896 -0.5095 0.5147
-3.2099 20.0664 8.3538 0.6901 -0.5055 0.5179
-3.3578 20.0069 8.3399 0.6907 -0.5022 0.5203
-3.5043 19.9454 8.3272 0.6912 -0.5043 0.5176
-3.6500 19.8818 8.3158 0.6919 -0.5026 0.5183
-3.7951 19.8161 8.3056 0.6928 -0.5011 0.5186
-3.9400 19.7483 8.2964 0.6942 -0.4894 0.5278
-4.0852 19.6784 8.2883 0.7075 -0.4836 0.5154
-4.2310 19.6066 8.2811 0.7207 -0.4879 0.4924
-4.3778 19.5331 8.2748 0.7313 -0.4861 0.4785
-4.5259 19.4580 8.2691 0.7458 -0.4978 0.4427
-4.6756 19.3816 8.2641 0.7544 -0.5124 0.4103
-4.8271 19.3040 8.2596 0.7555 -0.5124 0.4083
-4.9807 19.2257 8.2556 0.7558 -0.5192 0.3991
-5.1364 19.1468 8.2520 0.7541 -0.5220 0.3987
-5.2943 19.0677 8.2487 0.7537 -0.5353 0.3814
-5.4543 18.9885 8.2460 0.7543 -0.5352 0.3803
-5.6162 18.9094 8.2436 0.7508 -0.5403 0.3801
-5.7800 18.8308 8.2417 0.7449 -0.5477 0.3809
-5.9452 18.7526 8.2405 0.7456 -0.5547 0.3693
-6.1115 18.6750 8.2399 0.7454 -0.5562 0.3675
-6.2785 18.5981 8.2401 0.7456 -0.5574 0.3652
-6.4458 18.5217 8.2412 0.7408 -0.5509 0.3844
-6.6129 18.4459 8.2434 0.7346 -0.5421 0.4081
-6.7792 18.3703 8.2466 0.7356 -0.5346 0.4160
-6.9444 18.2949 8.2509 0.7214 -0.4839 0.4954
-7.1080 18.2192 8.2563 0.7001 -0.4422 0.5606
-7.2696 18.1431 8.2629 0.7031 -0.4418 0.5572
-7.4290 18.0660 8.2705 0.7042 -0.4422 0.5554
-7.5859 17.9876 8.2791 0.7060 -0.4416 0.5537
-7.7403 17.9073 8.2883 0.7082 -0.4343 0.5566
-7.8921 17.8249 8.2982 0.7095 -0.4354 0.5540
-8.0414 17.7397 8.3083 0.7110 -0.4264 0.5591
-8.1882 17.6514 8.3184 0.7122 -0.4203 0.5623
-8.3327 17.5596 8.3282 0.7126 -0.4126 0.5674
-8.4750 17.4640 8.3374 0.7150 -0.4084 0.5675
-8.6153 17.3643 8.3456 0.7154 -0.3954 0.5761
-8.7536 17.2605 8.3526 0.7169 -0.3878 0.5794
-8.8901 17.1524 8.3581 0.7190 -0.3808 0.5813
-9.0247 17.0401 8.3617 0.7217 -0.3773 0.5803
-9.1572 16.9237 8.3634 0.7245 -0.3666 0.5837
-9.2876 16.8036 8.3628 0.7252 -0.3449 0.5959
-9.4155 16.6800 8.3599 0.7271 -0.3424 0.5951
-9.5407 16.5532 8.3544 0.7275 -0.3366 0.5979
-9.6627 16.4238 8.3464 0.7309 -0.3392 0.5922
-9.7811 16.2919 8.3358 0.7763 -0.3539 0.5216
-9.8955 16.1582 8.3225 0.7376 -0.3444 0.5808
-10.0056 16.0228 8.3066 0.7413 -0.3418 0.5776
-10.1109 15.8861 8.2880 0.7447 -0.3413 0.5736
-10.2111 15.7482 8.2669 0.7476 -0.3394 0.5709
-10.3060 15.6092 8.2432 0.7511 -0.3383 0.5669
-10.3955 15.4689 8.2171 0.7554 -0.3290 0.5668
-10.4796 15.3273 8.1885 0.7631 -0.3460 0.5458
-10.5583 15.1840 8.1575 0.7676 -0.3328 0.5478
-10.6317 15.0387 8.1242 0.7749 -0.3192 0.5456
-10.7002 14.8910 8.0887 0.7792 -0.3111 0.5441
-10.7640 14.7403 8.0511 0.7816 -0.3041 0.5446
-10.8235 14.5863 8.0115 0.7866 -0.2995 0.5400
-10.8792 14.4286 7.9700 0.8144 -0.2814 0.5075
-10.9314 14.2668 7.9269 0.8555 -0.2548 0.4508
-10.9808 14.1007 7.8822 0.8759 -0.2420 0.4173
-11.0277 13.9302 7.8363 0.8971 -0.2045 0.3916
-11.0726 13.7553 7.7893 0.9053 -0.2021 0.3737
-11.1160 13.5763 7.7416 0.9229 -0.1554 0.3523
-11.1583 13.3933 7.6934 0.9387 -0.1231 0.3220
-11.1998 13.2070 7.6451 0.9526 -0.1037 0.2861
-11.2411 13.0178 7.5969 0.9582 -0.0857 0.2729
-11.2824 12.8263 7.5492 0.9628 -0.0886 0.2552
-11.3241 12.6332 7.5022 0.9694 -0.0984 0.2249
-11.3664 12.4392 7.4563 0.9681 -0.0975 0.2309
-11.4098 12.2449 7.4117 0.9739 -0.1056 0.2010
-11.4545 12.0510 7.3686 0.9756 -0.1149 0.1873
-11.5008 11.8580 7.3275 0.9751 -0.1303 0.1795
-11.5490 11.6663 7.2882 0.9747 -0.1466 0.1689
-11.5993 11.4764 7.2511 0.9719 -0.1746 0.1581
-11.6519 11.2884 7.2162 0.9663 -0.2198 0.1339
-11.7072 11.1025 7.1837 0.9585 -0.2590 0.1193
-11.7651 10.9188 7.1536 0.9516 -0.2821 0.1222
-11.8259 10.7372 7.1260 0.9467 -0.2971 0.1245
-11.8897 10.5577 7.1008 0.9358 -0.3298 0.1241
-11.9563 10.3801 7.0780 0.9242 -0.3626 0.1198
-12.0259 10.2041 7.0577 0.9230 -0.3652 0.1210
-12.0982 10.0295 7.0396 0.9111 -0.3893 0.1357
-12.1729 9.8561 7.0239 0.8989 -0.4089 0.1575
-12.2500 9.6835 7.0104 0.8843 -0.4233 0.1972
-12.3290 9.5116 6.9990 0.8835 -0.4329 0.1789
-12.4095 9.3400 6.9896 0.8768 -0.4352 0.2044
-12.4910 9.1684 6.9822 0.8716 -0.4392 0.2178
-12.5733 8.9965 6.9767 0.8750 -0.4317 0.2190
-12.6558 8.8239 6.9729 0.8701 -0.4004 0.2875
-12.7380 8.6503 6.9709 0.8662 -0.3475 0.3592
-12.8197 8.4751 6.9704 0.8704 -0.3405 0.3557
-12.9004 8.2980 6.9716 0.8753 -0.3309 0.3527
-12.9799 8.1185 6.9741 0.8812 -0.3222 0.3459
-13.0579 7.9360 6.9780 0.8863 -0.3173 0.3373
-13.1343 7.7500 6.9830 0.8908 -0.3071 0.3349
-13.2091 7.5601 6.9893 0.8962 -0.3015 0.3253
-13.2822 7.3657 6.9964 0.9000 -0.2885 0.3268
-13.3538 7.1665 7.0042 0.9094 -0.2693 0.3169
-13.4238 6.9622 7.0127 0.9118 -0.2599 0.3179
-13.4925 6.7526 7.0214 0.9168 -0.2426 0.3172
-13.5599 6.5375 7.0303 0.9209 -0.2281 0.3161
-13.6264 6.3171 7.0390 0.9565 -0.1648 0.2409
-13.6920 6.0916 7.0474 0.9924 -0.0991 0.0735
-13.7570 5.8611 7.0552 0.9984 -0.0548 0.0120
-13.8215 5.6263 7.0621 0.9967 -0.0815 0.0032
-13.8857 5.3874 7.0681 0.9959 -0.0904 -0.0099
-13.9497 5.1452 7.0729 0.9926 -0.1193 -0.0223
-14.0138 4.9002 7.0764 0.9896 -0.1428 -0.0148
-14.0780 4.6529 7.0784 0.9877 -0.1563 -0.0031
-14.1424 4.4041 7.0788 0.9862 -0.1655 -0.0033
-14.2073 4.1542 7.0777 0.9817 -0.1901 -0.0093
-14.2726 3.9039 7.0749 0.9748 -0.2225 0.0157
-14.3385 3.6535 7.0704 0.9733 -0.2288 0.0159
-14.4051 3.4035 7.0642 0.9702 -0.2413 0.0211
-14.4723 3.1544 7.0563 0.9678 -0.2502 0.0287
-14.5402 2.9065 7.0468 0.9630 -0.2695 0.0088
-14.6089 2.6601 7.0355 0.9616 -0.2740 0.0160
-14.6782 2.4156 7.0227 0.9607 -0.2766 0.0234
-14.7481 2.1732 7.0083 0.9588 -0.2827 0.0287
-14.8185 1.9334 6.9923 0.9572 -0.2889 0.0195
-14.8891 1.6965 6.9748 0.9547 -0.2976 0.0092
-14.9599 1.4628 6.9558 0.9514 -0.3063 0.0308
-15.0306 1.2328 6.9356 0.9477 -0.3111 0.0714
-15.1008 1.0069 6.9140 0.9460 -0.3118 0.0884
-15.1704 0.7853 6.8914 0.9296 -0.3139 0.1933
-15.2389 0.5686 6.8678 0.9239 -0.3153 0.2168
-15.3061 0.3570 6.8433 0.9045 -0.3013 0.3018
-15.3717 0.1508 6.8182 0.8842 -0.2849 0.3702
-15.4353 -0.0497 6.7927 0.8871 -0.2840 0.3639
-15.4966 -0.2445 6.7670 0.8894 -0.2828 0.3591
-15.5553 -0.4333 6.7411 0.8916 -0.2744 0.3602
-15.6112 -0.6163 6.7155 0.8960 -0.2619 0.3586
-15.6641 -0.7936 6.6902 0.8969 -0.2564 0.3603
-15.7139 -0.9654 6.6654 0.8985 -0.2480 0.3622
-15.7604 -1.1321 6.6412 0.9006 -0.2360 0.3650
-15.8035 -1.2942 6.6178 0.9059 -0.2188 0.3627
-15.8433 -1.4521 6.5952 0.9065 -0.2132 0.3645
-15.8799 -1.6066 6.5734 0.9071 -0.2091 0.3653
-15.9132 -1.7584 6.5526 0.9095 -0.1982 0.3655
-15.9436 -1.9083 6.5326 0.9091 -0.1936 0.3688
-15.9711 -2.0572 6.5134 0.9115 -0.1855 0.3671
-15.9960 -2.2060 6.4950 0.9122 -0.1741 0.3710
-16.0187 -2.3554 6.4772 0.9145 -0.1609 0.3713
-16.0393 -2.5064 6.4601 0.9318 -0.1191 0.3428
-16.0582 -2.6598 6.4435 0.9793 -0.0273 0.2004
-16.0758 -2.8162 6.4273 0.9854 -0.0002 0.1701
-16.0924 -2.9763 6.4115 0.9932 0.0261 0.1136
-16.1082 -3.1407 6.3961 0.9956 0.0346 0.0874
-16.1237 -3.3097 6.3810 0.9982 0.0473 0.0372
-16.1392 -3.4836 6.3664 0.9985 0.0496 0.0226
-16.1550 -3.6626 6.3521 0.9985 0.0541 0.0032
-16.1715 -3.8468 6.3384 0.9977 0.0605 -0.0292
-16.1888 -4.0360 6.3254 0.9959 0.0648 -0.0627
-16.2073 -4.2301 6.3131 0.9953 0.0531 -0.0813
-16.2273 -4.4289 6.3018 0.9956 0.0278 -0.0893
-16.2491 -4.6321 6.2917 0.9970 0.0089 -0.0768
-16.2728 -4.8392 6.2830 0.9946 -0.0020 -0.1038
-16.2987 -5.0499 6.2759 0.9942 -0.0280 -0.1042
-16.3270 -5.2637 6.2706 0.9899 -0.0472 -0.1340
-16.3579 -5.4801 6.2673 0.9870 -0.0813 -0.1389
-16.3914 -5.6985 6.2663 0.9822 -0.1113 -0.1512
-16.4278 -5.9186 6.2678 0.9796 -0.1354 -0.1486
-16.4670 -6.1397 6.2718 0.9743 -0.1568 -0.1614
-16.5092 -6.3614 6.2787 0.9711 -0.1751 -0.1625
-16.5544 -6.5832 6.2885 0.9702 -0.1945 -0.1442
-16.6026 -6.8045 6.3013 0.9668 -0.2098 -0.1461
-16.6537 -7.0248 6.3172 0.9630 -0.2338 -0.1341
-16.7078 -7.2438 6.3363 0.9588 -0.2600 -0.1146
-16.7645 -7.4609 6.3585 0.9553 -0.2778 -0.1012
-16.8240 -7.6757 6.3840 0.9534 -0.2880 -0.0903
-16.8861 -7.8879 6.4126 0.9504 -0.2960 -0.0956
-16.9505 -8.0971 6.4444 0.9484 -0.3066 -0.0805
-17.0172 -8.3029 6.4794 0.9483 -0.3104 -0.0666
-17.0860 -8.5051 6.5176 0.9442 -0.3195 -0.0801
-17.1568 -8.7033 6.5589 0.9442 -0.3212 -0.0722
-17.2294 -8.8972 6.6034 0.9398 -0.3293 -0.0911
-17.3036 -9.0866 6.6511 0.9410 -0.3308 -0.0711
-17.3793 -9.2712 6.7021 0.9397 -0.3341 -0.0732
-17.4563 -9.4507 6.7564 0.9406 -0.3337 -0.0626
-17.5344 -9.6249 6.8140 0.9360 -0.3411 -0.0868
-17.6136 -9.7933 6.8751 0.9363 -0.3427 -0.0761
-17.6936 -9.9558 6.9395 0.9378 -0.3410 -0.0647
-17.7743 -10.1120 7.0075 0.9266 -0.3626 -0.0996
-17.8554 -10.2616 7.0788 0.9237 -0.3695 -0.1010
-17.9370 -10.4043 7.1534 0.9177 -0.3850 -0.0980
-18.0186 -10.5400 7.2313 0.9069 -0.4092 -0.1006
-18.1002 -10.6682 7.3122 0.9081 -0.4097 -0.0872
-18.1815 -10.7888 7.3959 0.9009 -0.4257 -0.0845
-18.2622 -10.9016 7.4820 0.8959 -0.4349 -0.0910
-18.3422 -11.0065 7.5701 0.8940 -0.4451 -0.0516
-18.4210 -11.1033 7.6599 0.8940 -0.4458 -0.0459
-18.4985 -11.1920 7.7506 0.8870 -0.4598 -0.0428
-18.5744 -11.2727 7.8419 0.8808 -0.4721 -0.0371
-18.6482 -11.3453 7.9331 0.8780 -0.4769 -0.0405
-18.7196 -11.4099 8.0235 0.8781 -0.4772 -0.0349
-18.7883 -11.4669 8.1126 0.8734 -0.4859 -0.0318
-18.8539 -11.5164 8.1998 0.8725 -0.4877 -0.0290
-18.9161 -11.5587 8.2844 0.8714 -0.4898 -0.0277
-18.9746 -11.5942 8.3661 0.8720 -0.4894 -0.0131
-19.0289 -11.6234 8.4445 0.8695 -0.4938 -0.0096
-19.0790 -11.6467 8.5191 0.8697 -0.4935 -0.0030
-19.1245 -11.6648 8.5897 0.8682 -0.4962 0.0021
-19.1653 -11.6782 8.6563 0.8646 -0.5024 -0.0031
-19.2012 -11.6874 8.7189 0.8642 -0.5032 0.0039
-19.2322 -11.6931 8.7776 0.8638 -0.5037 0.0094
-19.2583 -11.6959 8.8327 0.8608 -0.5088 0.0123
-19.2796 -11.6962 8.8846 0.8600 -0.5100 0.0183
-19.2962 -11.6946 8.9337 0.8653 -0.5004 0.0306
-19.3083 -11.6915 8.9806 0.8631 -0.5040 0.0319
-19.3161 -11.6872 9.0259 0.8628 -0.5047 0.0302
-19.3199 -11.6820 9.0702 0.8617 -0.5064 0.0317
-19.3201 -11.6760 9.1143 0.8617 -0.5065 0.0306
-19.3170 -11.6693 9.1588 0.8625 -0.5049 0.0328
-19.3111 -11.6620 9.2044 0.8589 -0.5099 0.0484
-19.3026 -11.6539 9.2516 0.8578 -0.5112 0.0531
-19.2921 -11.6451 9.3011 0.8576 -0.5116 0.0526
-19.2801 -11.6355 9.3531 0.8576 -0.5111 0.0583
-19.2671 -11.6248 9.4082 0.8624 -0.5023 0.0625
-19.2536 -11.6131 9.4665 0.8626 -0.5007 0.0714
-19.2402 -11.6003 9.5280 0.8607 -0.5039 0.0731
-19.2275 -11.5862 9.5929 0.8600 -0.5034 0.0836
-19.2162 -11.5710 9.6609 0.8622 -0.4989 0.0881
-19.2068 -11.5546 9.7317 0.8620 -0.4945 0.1114
-19.2001 -11.5371 9.8050 0.8606 -0.4933 0.1265
-19.1968 -11.5185 9.8801 0.8593 -0.4946 0.1300
-19.1975 -11.4991 9.9566 0.8621 -0.4887 0.1341
-19.2028 -11.4789 10.0337 0.8623 -0.4848 0.1465
-19.2133 -11.4581 10.1107 0.8635 -0.4769 0.1640
-19.2294 -11.4367 10.1868 0.8633 -0.4666 0.1922
-19.2517 -11.4148 10.2612 0.8657 -0.4550 0.2086
-19.2802 -11.3925 10.3333 0.8657 -0.4530 0.2131
-19.3153 -11.3697 10.4024 0.8676 -0.4338 0.2432
-19.3570 -11.3464 10.4679 0.8672 -0.4257 0.2584
-19.4050 -11.3225 10.5294 0.8670 -0.4212 0.2662
-19.4593 -11.2979 10.5865 0.8691 -0.4116 0.2743
-19.5195 -11.2722 10.6390 0.8700 -0.3961 0.2937
-19.5850 -11.2452 10.6868 0.8678 -0.3847 0.3145
-19.6553 -11.2168 10.7300 -0.8682 -0.3772 0.3224
-19.7298 -11.1865 10.7688 -0.8705 -0.3689 0.3258
-19.8079 -11.1542 10.8034 -0.8682 -0.3531 0.3488
-19.8888 -11.1195 10.8341 -0.8685 -0.3414 0.3595
-19.9719 -11.0823 10.8613 -0.8732 -0.3331 0.3558
-20.0565 -11.0425 10.8855 -0.8698 -0.3377 0.3599
-20.1420 -10.9999 10.9070 -0.8707 -0.3238 0.3702
-20.2278 -10.9545 10.9264 -0.8770 -0.2967 0.3780
-20.3134 -10.9065 10.9439 -0.8744 -0.2978 0.3831
-20.3985 -10.8560 10.9599 -0.8731 -0.2945 0.3886
-20.4827 -10.8033 10.9747 -0.8765 -0.2725 0.3968
-20.5657 -10.7487 10.9885 -0.8753 -0.2797 0.3944
-20.6473 -10.6927 11.0015 -0.8747 -0.2716 0.4014
-20.7274 -10.6357 11.0139 -0.8770 -0.2627 0.4022
-20.8059 -10.5782 11.0258 -0.8765 -0.2667 0.4008
-20.8828 -10.5207 11.0373 -0.8781 -0.2577 0.4031
-20.9581 -10.4638 11.0486 -0.8804 -0.2454 0.4058
-21.0317 -10.4079 11.0597 -0.8807 -0.2575 0.3975
-21.1037 -10.3535 11.0707 -0.8833 -0.2455 0.3994
-21.1741 -10.3010 11.0819 -0.8839 -0.2467 0.3974
-21.2430 -10.2508 11.0935 -0.8843 -0.2634 0.3856
-21.3103 -10.2032 11.1055 -0.8862 -0.2631 0.3813
-21.3761 -10.1585 11.1184 -0.8875 -0.2672 0.3755
-21.4405 -10.1166 11.1324 -0.8875 -0.2764 0.3688
-21.5034 -10.0779 11.1477 -0.8883 -0.2876 0.3580
-21.5649 -10.0423 11.1647 -0.8884 -0.2895 0.3563
-21.6249 -10.0098 11.1836 0.8877 -0.2888 0.3587
-21.6836 -9.9803 11.2046 0.8892 -0.2894 0.3544
-21.7408 -9.9538 11.2281 0.8890 -0.2996 0.3464
-21.7967 -9.9300 11.2540 0.8889 -0.3014 0.3449
-21.8512 -9.9089 11.2826 0.8890 -0.2988 0.3470
-21.9044 -9.8902 11.3130 0.8890 -0.3093 0.3377
-21.9563 -9.8737 11.3478 0.8889 -0.3172 0.3306
-22.0070 -9.8594 11.3842 0.8904 -0.3198 0.3239
-22.0564 -9.8469 11.4231 0.8897 -0.3252 0.3205
-22.1046 -9.8362 11.4641 0.8888 -0.3272 0.3209
-22.1516 -9.8271 11.5069 0.8887 -0.3320 0.3160
-22.1975 -9.8193 11.5515 0.8908 -0.3282 0.3144
-22.2422 -9.8129 11.5972 0.8914 -0.3316 0.3090
-22.2860 -9.8076 11.6440 0.8914 -0.3353 0.3048
-22.3287 -9.8032 11.6914 0.8885 -0.3432 0.3048
-22.3705 -9.7998 11.7391 0.8895 -0.3378 0.3076
-22.4116 -9.7971 11.7869 0.8891 -0.3371 0.3096
-22.4519 -9.7951 11.8346 0.8883 -0.3403 0.3084
-22.4917 -9.7935 11.8819 0.8854 -0.3530 0.3025
-22.5311 -9.7922 11.9286 0.8857 -0.3514 0.3032
-22.5703 -9.7910 11.9748 0.8855 -0.3480 0.3079
-22.6095 -9.7897 12.0203 0.8882 -0.3472 0.3008
-22.6489 -9.7882 12.0650 0.8868 -0.3538 0.2974
-22.6889 -9.7860 12.1091 0.8874 -0.3489 0.3012
-22.7297 -9.7830 12.1524 0.8863 -0.3500 0.3031
-22.7715 -9.7788 12.1953 0.8825 -0.3576 0.3054
-22.8147 -9.7731 12.2375 0.8832 -0.3602 0.3002
-22.8595 -9.7656 12.2791 0.8831 -0.3604 0.3005
-22.9063 -9.7559 12.3203 0.8831 -0.3642 0.2958
-22.9552 -9.7436 12.3609 0.8816 -0.3706 0.2923
-23.0065 -9.7285 12.4009 0.8787 -0.3745 0.2960
-23.0603 -9.7103 12.4402 0.8833 -0.3558 0.3053
-23.1169 -9.6886 12.4786 0.8826 -0.3549 0.3083
-23.1763 -9.6632 12.5161 0.8818 -0.3570 0.3082
-23.2386 -9.6341 12.5520 0.8808 -0.3678 0.2981
-23.3037 -9.6010 12.5864 0.8783 -0.3690 0.3039
-23.3716 -9.5642 12.6187 0.8753 -0.3813 0.2973
-23.4423 -9.5235 12.6486 -0.8731 -0.3836 0.3009
-23.5155 -9.4794 12.6754 -0.8700 -0.3850 0.3079
-23.5911 -9.4319 12.6990 -0.8674 -0.3875 0.3121
-23.6689 -9.3817 12.7186 -0.8669 -0.3887 0.3121
-23.7488 -9.3290 12.7340 -0.8616 -0.4009 0.3113
-23.8304 -9.2744 12.7447 -0.8549 -0.4167 0.3090
-23.9136 -9.2186 12.7502 -0.8533 -0.4187 0.3107
-23.9982 -9.1621 12.7503 -0.8532 -0.4152 0.3157
-24.0839 -9.1055 12.7446 -0.8544 -0.4076 0.3224
-24.1706 -9.0496 12.7330 -0.8498 -0.4191 0.3195
-24.2579 -8.9948 12.7153 -0.8484 -0.4168 0.3264
-24.3458 -8.9418 12.6915 -0.8477 -0.4185 0.3259
-24.4338 -8.8909 12.6617 -0.8518 -0.4078 0.3289
-24.5220 -8.8425 12.6260 -0.8490 -0.4154 0.3266
-24.6098 -8.7971 12.5847 -0.8557 -0.3973 0.3314
-24.6972 -8.7547 12.5381 -0.8560 -0.3849 0.3451
-24.7838 -8.7155 12.4866 -0.8645 -0.3633 0.3474
-24.8692 -8.6795 12.4308 -0.8648 -0.3600 0.3502
-24.9532 -8.6468 12.3712 -0.8725 -0.3316 0.3590
-25.0354 -8.6172 12.3086 -0.8721 -0.3331 0.3584
-25.1154 -8.5906 12.2435 -0.8777 -0.3105 0.3650
-25.1930 -8.5668 12.1767 -0.8827 -0.2980 0.3634
-25.2677 -8.5457 12.1088 -0.8829 -0.2989 0.3622
-25.3392 -8.5269 12.0405 -0.8865 -0.2866 0.3634
-25.4073 -8.5104 11.9725 -0.8878 -0.2855 0.3609
-25.4717 -8.4960 11.9054 -0.8878 -0.2884 0.3586
-25.5321 -8.4834 11.8395 -0.8939 -0.2555 0.3682
-25.5884 -8.4726 11.7754 -0.8966 -0.2436 0.3699
-25.6405 -8.4634 11.7134 -0.8985 -0.2418 0.3665
-25.6882 -8.4558 11.6538 -0.8987 -0.2423 0.3656
-25.7317 -8.4496 11.5968 -0.8999 -0.2323 0.3692
-25.7709 -8.4449 11.5423 -0.9014 -0.2225 0.3714
-25.8058 -8.4415 11.4906 -0.9016 -0.2181 0.3737
-25.8367 -8.4395 11.4416 -0.9021 -0.2193 0.3715
-25.8638 -8.4388 11.3953 -0.9021 -0.2177 0.3725
-25.8871 -8.4393 11.3515 -0.9021 -0.2175 0.3728
-25.9069 -8.4410 11.3103 -0.9019 -0.2141 0.3751
-25.9236 -8.4437 11.2716 -0.9035 -0.2017 0.3781
-25.9374 -8.4475 11.2353 -0.9034 -0.1994 0.3795
-25.9485 -8.4522 11.2013 -0.9049 -0.1978 0.3769
-25.9573 -8.4577 11.1696 -0.9070 -0.1863 0.3777
-25.9641 -8.4637 11.1402 -0.9066 -0.1811 0.3810
-25.9691 -8.4702 11.1130 -0.9067 -0.1814 0.3808
-25.9727 -8.4770 11.0881 -0.9073 -0.1834 0.3785
-25.9751 -8.4839 11.0654 -0.9071 -0.1821 0.3794
-25.9765 -8.4908 11.0449 -0.9071 -0.1821 0.3794
-25.9771 -8.4975 11.0265 -0.9071 -0.1821 0.3794
-25.9772 -8.5040 11.0101 -0.9077 -0.1844 0.3769
-25.9769 -8.5100 10.9959 -0.9077 -0.1839 0.3773
-25.9763 -8.5156 10.9834 -0.9077 -0.1839 0.3773
-25.9756 -8.5207 10.9728 -0.9077 -0.1839 0.3773
-25.9748 -8.5252 10.9637 -0.9077 -0.1839 0.3773
-25.9740 -8.5291 10.9562 -0.9085 -0.1822 0.3762
-25.9733 -8.5325 10.9499 -0.9086 -0.1830 0.3753
-25.9726 -8.5354 10.9448 -0.9086 -0.1830 0.3753
-25.9720 -8.5378 10.9407 -0.9086 -0.1830 0.3753
-25.9715 -8.5397 10.9375 -0.9085 -0.1822 0.3760
-25.9711 -8.5413 10.9350 -0.9085 -0.1822 0.3760
-25.9707 -8.5425 10.9330 -0.9085 -0.1822 0.3760
-25.9705 -8.5435 10.9316 -0.9085 -0.1822 0.3760
-25.9703 -8.5442 10.9305 -0.9085 -0.1822 0.3760
-25.9701 -8.5448 10.9297 -0.9085 -0.1822 0.3760
-25.9700 -8.5452 10.9291 -0.9085 -0.1822 0.3760
-25.9699 -8.5455 10.9287 -0.9085 -0.1822 0.3760
-25.9698 -8.5457 10.9283 -0.9085 -0.1822 0.3760
-25.9698 -8.5459 10.9282 -0.9085 -0.1822 0.3760
-25.9698 -8.5460 10.9281 -0.9085 -0.1822 0.3760
-25.9697 -8.5461 10.9280 -0.9085 -0.1822 0.3760
-25.9697 -8.5461 10.9279 -0.9085 -0.1822 0.3760
-25.9697 -8.5462 10.9278 -0.9085 -0.1822 0.3760
-25.9698 -8.5462 10.9278 -0.9085 -0.1822 0.3760
-25.9699 -8.5462 10.9278 -0.9085 -0.1822 0.3760
-25.9701 -8.5462 10.9278 -0.9085 -0.1822 0.3760
-25.9703 -8.5462 10.9279 -0.9085 -0.1822 0.3760
-25.9705 -8.5462 10.9279 -0.9085 -0.1822 0.3760
-25.9710 -8.5462 10.9279 -0.9085 -0.1822 0.3760
-25.9716 -8.5461 10.9280 -0.9085 -0.1822 0.3760
-25.9725 -8.5460 10.9280 -0.9085 -0.1822 0.3760
-25.9737 -8.5459 10.9281 -0.9085 -0.1822 0.3760
-25.9754 -8.5458 10.9281 -0.9085 -0.1822 0.3760
-25.9777 -8.5455 10.9281 -0.9085 -0.1822 0.3760
-25.9808 -8.5451 10.9281 -0.9085 -0.1822 0.3760
-25.9849 -8.5445 10.9280 -0.9085 -0.1822 0.3760
-25.9902 -8.5437 10.9277 -0.9084 -0.1813 0.3768
-25.9971 -8.5426 10.9273 -0.9084 -0.1813 0.3768
-26.0058 -8.5410 10.9265 -0.9084 -0.1813 0.3768
-26.0166 -8.5389 10.9254 -0.9090 -0.1761 0.3779
-26.0300 -8.5362 10.9237 -0.9089 -0.1787 0.3767
-26.0463 -8.5326 10.9213 -0.9089 -0.1784 0.3770
-26.0659 -8.5280 10.9181 -0.9089 -0.1784 0.3770
-26.0892 -8.5223 10.9137 -0.9096 -0.1801 0.3745
-26.1164 -8.5152 10.9081 -0.9096 -0.1790 0.3751
-26.1479 -8.5064 10.9009 -0.9093 -0.1703 0.3797
-26.1840 -8.4959 10.8918 -0.9104 -0.1642 0.3798
-26.2247 -8.4833 10.8806 -0.9113 -0.1640 0.3776
-26.2702 -8.4683 10.8672 -0.9123 -0.1605 0.3767
-26.3205 -8.4509 10.8511 -0.9126 -0.1488 0.3809
-26.3755 -8.4307 10.8321 -0.9123 -0.1480 0.3819
-26.4349 -8.4076 10.8102 -0.9114 -0.1357 0.3885
-26.4984 -8.3813 10.7851 -0.9107 -0.1195 0.3954
-26.5658 -8.3516 10.7568 -0.9115 -0.1193 0.3937
-26.6364 -8.3183 10.7251 -0.9113 -0.1145 0.3956
-26.7098 -8.2814 10.6902 -0.9098 -0.1046 0.4016
-26.7854 -8.2407 10.6521 -0.9109 -0.1063 0.3986
-26.8626 -8.1961 10.6108 -0.9110 -0.1004 0.3999
-26.9407 -8.1475 10.5660 -0.9096 -0.0910 0.4055
-27.0192 -8.0949 10.5198 -0.9099 -0.0870 0.4055
-27.0974 -8.0383 10.4705 -0.9096 -0.0887 0.4059
-27.1749 -7.9777 10.4191 -0.9097 -0.0770 0.4082
-27.2512 -7.9132 10.3650 -0.9100 -0.0661 0.4094
-27.3258 -7.8449 10.3109 -0.9082 -0.0592 0.4144
-27.3985 -7.7730 10.2548 -0.9085 -0.0586 0.4138
-27.4689 -7.6976 10.1977 -0.9073 -0.0464 0.4179
-27.5369 -7.6189 10.1400 -0.9082 -0.0368 0.4169
-27.6024 -7.5370 10.0817 -0.9076 -0.0345 0.4183
-27.6654 -7.4522 10.0232 -0.9097 -0.0299 0.4141
-27.7258 -7.3646 9.9647 -0.9067 -0.0168 0.4215
-27.7838 -7.2743 9.9061 -0.9055 -0.0046 0.4242
-27.8393 -7.1813 9.8476 -0.9028 0.0089 0.4299
-27.8925 -7.0858 9.7893 -0.9046 0.0110 0.4261
-27.9435 -6.9876 9.7312 -0.9079 0.0013 0.4191
-27.9924 -6.8867 9.6732 -0.9066 0.0152 0.4216
-28.0393 -6.7828 9.6153 -0.9070 0.0138 0.4209
-28.0841 -6.6757 9.5576 -0.9040 0.0243 0.4269
-28.1270 -6.5652 9.4998 -0.9059 0.0268 0.4226
-28.1679 -6.4510 9.4420 -0.9063 0.0266 0.4218
-28.2067 -6.3327 9.3842 -0.9052 0.0386 0.4232
-28.2434 -6.2102 9.3264 -0.9041 0.0549 0.4238
-28.2777 -6.0830 9.2686 -0.8994 0.0609 0.4330
-28.3096 -5.9512 9.2108 -0.9070 0.0538 0.4176
-28.3388 -5.8145 9.1532 -0.9033 0.0677 0.4236
-28.3651 -5.6729 9.0958 -0.9001 0.0810 0.4281
-28.3884 -5.5266 9.0389 -0.8956 0.0856 0.4365
-28.4084 -5.3757 8.9825 -0.9029 0.0862 0.4212
-28.4248 -5.2205 8.9270 -0.8997 0.0928 0.4265
-28.4376 -5.0614 8.8724 -0.9012 0.0914 0.4237
-28.4465 -4.8989 8.8189 -0.8962 0.0985 0.4327
-28.4514 -4.7333 8.7667 -0.9015 0.1027 0.4204
-28.4521 -4.5653 8.7160 -0.9080 0.1118 0.4039
-28.4484 -4.3952 8.6669 -0.9063 0.1149 0.4068
-28.4404 -4.2236 8.6195 -0.9121 0.1254 0.3903
-28.4279 -4.0510 8.5739 -0.9106 0.1342 0.3910
-28.4109 -3.8776 8.5301 -0.9131 0.1425 0.3819
-28.3892 -3.7037 8.4881 -0.9139 0.1486 0.3778
-28.3628 -3.5298 8.4480 -0.9157 0.1622 0.3676
-28.3318 -3.3559 8.4096 -0.9154 0.1747 0.3627
-28.2959 -3.1821 8.3731 -0.9149 0.1857 0.3584
-28.2553 -3.0086 8.3383 -0.9138 0.1946 0.3565
-28.2097 -2.8354 8.3051 -0.9179 0.2131 0.3348
-28.1593 -2.6626 8.2735 -0.9108 0.2270 0.3447
-28.1039 -2.4903 8.2435 -0.9127 0.2416 0.3296
-28.0436 -2.3183 8.2150 -0.9097 0.2590 0.3247
-27.9783 -2.1469 8.1879 -0.9042 0.2720 0.3293
-27.9082 -1.9760 8.1621 -0.8994 0.2901 0.3270
-27.8332 -1.8058 8.1377 -0.8925 0.3054 0.3320
-27.7535 -1.6364 8.1144 -0.8885 0.3147 0.3339
-27.6694 -1.4678 8.0922 -0.8800 0.3375 0.3343
-27.5810 -1.3002 8.0711 -0.8754 0.3497 0.3338
-27.4887 -1.1338 8.0510 -0.8685 0.3537 0.3474
-27.3929 -0.9688 8.0317 -0.8607 0.3599 0.3601
-27.2940 -0.8052 8.0133 -0.8556 0.3765 0.3552
-27.1925 -0.6432 7.9957 -0.8499 0.3765 0.3688
-27.0891 -0.4830 7.9788 -0.8380 0.3818 0.3898
-26.9842 -0.3248 7.9628 -0.8250 0.3863 0.4125
-26.8785 -0.1686 7.9476 -0.8213 0.3794 0.4262
-26.7728 -0.0145 7.9332 -0.8028 0.3643 0.4720
-26.6676 0.1373 7.9198 -0.7707 0.3291 0.5456
-26.5636 0.2870 7.9075 -0.7628 0.3135 0.5655
-26.4614 0.4345 7.8963 -0.7654 0.3189 0.5590
-26.3616 0.5798 7.8864 -0.7662 0.3125 0.5615
-26.2647 0.7233 7.8777 -0.7700 0.3113 0.5570
-26.1710 0.8650 7.8706 -0.7729 0.3067 0.5555
-26.0811 1.0053 7.8649 -0.7767 0.2898 0.5592
-25.9951 1.1445 7.8607 -0.7791 0.2802 0.5608
-25.9132 1.2831 7.8581 -0.7845 0.2661 0.5602
-25.8356 1.4215 7.8569 -0.7858 0.2533 0.5642
-25.7622 1.5602 7.8572 -0.7887 0.2489 0.5622
-25.6931 1.6998 7.8589 -0.7926 0.2245 0.5669
-25.6279 1.8408 7.8617 -0.7933 0.2178 0.5685
-25.5666 1.9836 7.8656 -0.7962 0.2075 0.5683
-25.5089 2.1288 7.8703 -0.7987 0.1991 0.5678
-25.4545 2.2769 7.8757 -0.8030 0.1686 0.5716
-25.4030 2.4281 7.8817 -0.8055 0.1654 0.5691
-25.3542 2.5829 7.8879 -0.8066 0.1513 0.5714
-25.3074 2.7415 7.8942 -0.8123 0.1301 0.5685
-25.2625 2.9039 7.9004 -0.8252 0.1093 0.5542
-25.2190 3.0703 7.9064 -0.8642 0.0750 0.4975
-25.1764 3.2407 7.9119 -0.8839 0.0625 0.4635
-25.1344 3.4148 7.9168 -0.8947 0.0549 0.4432
-25.0927 3.5927 7.9210 -0.9153 0.0536 0.3992
-25.0508 3.7740 7.9243 -0.9342 0.0475 0.3535
-25.0085 3.9585 7.9267 -0.9470 0.0599 0.3157
-24.9654 4.1459 7.9280 -0.9474 0.0745 0.3111
-24.9212 4.3359 7.9282 -0.9491 0.0882 0.3025
-24.8759 4.5282 7.9272 -0.9435 0.1048 0.3143
-24.8290 4.7224 7.9250 -0.9484 0.1199 0.2935
-24.7806 4.9183 7.9216 -0.9444 0.1361 0.2995
-24.7305 5.1155 7.9168 -0.9415 0.1599 0.2965
-24.6785 5.3136 7.9108 -0.9432 0.1720 0.2841
-24.6246 5.5124 7.9035 -0.9368 0.2068 0.2822
-24.5689 5.7116 7.8950 -0.9308 0.2253 0.2879
-24.5113 5.9106 7.8852 -0.9275 0.2370 0.2891
-24.4518 6.1094 7.8742 -0.9253 0.2491 0.2858
-24.3905 6.3073 7.8620 -0.9232 0.2632 0.2800
-24.3274 6.5043 7.8487 -0.9162 0.2683 0.2977
-24.2626 6.6998 7.8343 -0.9146 0.2731 0.2980
-24.1963 6.8936 7.8189 -0.9180 0.2852 0.2754
-24.1283 7.0855 7.8024 -0.9204 0.2898 0.2624
-24.0588 7.2753 7.7848 -0.9185 0.3012 0.2564
-23.9878 7.4627 7.7663 -0.9171 0.3060 0.2556
-23.9153 7.6476 7.7468 -0.9135 0.3166 0.2555
-23.8414 7.8302 7.7263 -0.9126 0.3307 0.2405
-23.7660 8.0102 7.7047 -0.9095 0.3464 0.2298
-23.6892 8.1880 7.6822 -0.9072 0.3486 0.2356
-23.6109 8.3634 7.6587 -0.9015 0.3587 0.2419
-23.5313 8.5368 7.6342 -0.8978 0.3602 0.2533
-23.4504 8.7081 7.6088 -0.8803 0.3522 0.3178
-23.3683 8.8777 7.5823 -0.8771 0.3595 0.3185
-23.2852 9.0455 7.5550 -0.8600 0.3622 0.3595
-23.2013 9.2117 7.5267 -0.8465 0.3543 0.3973
-23.1170 9.3765 7.4976 -0.8324 0.3611 0.4204
-23.0324 9.5398 7.4676 -0.8259 0.3594 0.4344
-22.9480 9.7018 7.4369 -0.8258 0.3638 0.4310
-22.8642 9.8625 7.4055 -0.8297 0.3890 0.4004
-22.7813 10.0220 7.3735 -0.8300 0.3966 0.3921
-22.6996 10.1805 7.3409 -0.8298 0.3961 0.3931
-22.6196 10.3380 7.3076 -0.8331 0.3973 0.3848
-22.5415 10.4949 7.2739 -0.8341 0.4018 0.3779
-22.4656 10.6513 7.2396 -0.8361 0.3972 0.3783
-22.3920 10.8075 7.2049 -0.8392 0.3895 0.3797
-22.3209 10.9639 7.1696 -0.8419 0.3872 0.3759
-22.2522 11.1207 7.1339 -0.8411 0.3778 0.3870
-22.1859 11.2783 7.0976 -0.8453 0.3694 0.3861
-22.1220 11.4370 7.0609 -0.8491 0.3648 0.3820
-22.0602 11.5971 7.0238 -0.8506 0.3592 0.3840
-22.0004 11.7587 6.9862 -0.8522 0.3484 0.3905
-21.9422 11.9221 6.9483 -0.8531 0.3458 0.3907
-21.8854 12.0873 6.9100 -0.8552 0.3326 0.3974
-21.8296 12.2543 6.8716 -0.8562 0.3331 0.3950
-21.7746 12.4230 6.8330 -0.8578 0.3258 0.3976
-21.7199 12.5933 6.7945 -0.8595 0.3220 0.3969
-21.6653 12.7650 6.7560 -0.8577 0.3195 0.4029
-21.6103 12.9379 6.7178 -0.8478 0.3234 0.4203
-21.5547 13.1118 6.6800 -0.8490 0.3248 0.4167
-21.4980 13.2864 6.6428 -0.8832 0.2964 0.3636
-21.4399 13.4616 6.6061 -0.9133 0.2666 0.3078
-21.3801 13.6370 6.5703 -0.9207 0.2657 0.2857
-21.3181 13.8126 6.5355 -0.9250 0.2666 0.2708
-21.2538 13.9882 6.5018 -0.9276 0.2704 0.2576
-21.1867 14.1636 6.4692 -0.9294 0.2741 0.2470
-21.1166 14.3387 6.4381 -0.9297 0.2868 0.2312
-21.0432 14.5134 6.4086 -0.9298 0.2944 0.2211
-20.9664 14.6875 6.3807 -0.9254 0.3160 0.2094
-20.8859 14.8608 6.3546 -0.9219 0.3461 0.1742
-20.8017 15.0333 6.3305 -0.9195 0.3544 0.1703
-20.7136 15.2046 6.3086 -0.9144 0.3716 0.1609
-20.6217 15.3747 6.2888 -0.9062 0.3980 0.1430
-20.5260 15.5433 6.2714 -0.8962 0.4187 0.1469
-20.4265 15.7103 6.2565 -0.8880 0.4373 0.1422
-20.3235 15.8755 6.2440 -0.8861 0.4417 0.1407
-20.2171 16.0387 6.2340 -0.8789 0.4597 0.1275
-20.1076 16.1997 6.2265 -0.8728 0.4704 0.1298
-19.9954 16.3586 6.2215 -0.8669 0.4827 0.1244
-19.8808 16.5151 6.2188 -0.8609 0.4898 0.1374
-19.7644 16.6692 6.2184 -0.8543 0.5031 0.1304
-19.6464 16.8209 6.2202 -0.8484 0.5140 0.1263
-19.5276 16.9701 6.2239 -0.8452 0.5201 0.1232
-19.4085 17.1168 6.2295 -0.8403 0.5280 0.1228
-19.2895 17.2610 6.2366 -0.8428 0.5235 0.1250
-19.1713 17.4029 6.2452 -0.8360 0.5249 0.1599
-19.0544 17.5424 6.2550 -0.8444 0.5051 0.1785
-18.9392 17.6796 6.2659 -0.8449 0.5049 0.1765
-18.8264 17.8148 6.2777 -0.8552 0.4762 0.2045
-18.7161 17.9482 6.2903 -0.8587 0.4730 0.1971
-18.6086 18.0799 6.3034 -0.8615 0.4774 0.1731
-18.5042 18.2105 6.3171 -0.8627 0.4787 0.1629
-18.4028 18.3402 6.3312 -0.8652 0.4759 0.1577
-18.3044 18.4695 6.3458 -0.8688 0.4675 0.1631
-18.2089 18.5989 6.3606 -0.8722 0.4667 0.1462
-18.1160 18.7289 6.3758 -0.8738 0.4637 0.1461
-18.0254 18.8601 6.3914 -0.8753 0.4658 0.1295
-17.9365 18.9929 6.4073 -0.8776 0.4592 0.1377
-17.8491 19.1278 6.4235 -0.8833 0.4492 0.1346
-17.7626 19.2652 6.4402 -0.8855 0.4411 0.1462
-17.6766 19.4054 6.4572 -0.8853 0.4371 0.1585
-17.5907 19.5486 6.4746 -0.8893 0.4280 0.1611
-17.5043 19.6949 6.4923 -0.8895 0.4276 0.1609
-17.4172 19.8442 6.5105 -0.8935 0.4155 0.1702
-17.3291 19.9965 6.5289 -0.8919 0.4109 0.1889
-17.2396 20.1514 6.5476 -0.8918 0.4063 0.1991
-17.1488 20.3085 6.5666 -0.8908 0.4112 0.1934
-17.0564 20.4674 6.5856 -0.8843 0.4101 0.2234
-16.9625 20.6275 6.6048 -0.8793 0.4146 0.2345
-16.8669 20.7883 6.6240 -0.8736 0.4192 0.2471
-16.7699 20.9491 6.6431 -0.8693 0.4163 0.2667
-16.6714 21.1093 6.6620 -0.8748 0.3962 0.2789
-16.5716 21.2684 6.6807 -0.8736 0.4014 0.2750
-16.4706 21.4257 6.6990 -0.8866 0.3970 0.2372
-16.3684 21.5807 6.7171 -0.8954 0.3986 0.1985
-16.2653 21.7330 6.7347 -0.8969 0.3931 0.2026
-16.1612 21.8822 6.7519 -0.8998 0.4062 0.1595
-16.0563 22.0280 6.7686 -0.8991 0.4017 0.1738
-15.9506 22.1701 6.7849 -0.8923 0.4269 0.1471
-15.8441 22.3083 6.8007 -0.8892 0.4307 0.1544
-15.7368 22.4424 6.8162 -0.8847 0.4501 0.1212
-15.6287 22.5724 6.8313 -0.8816 0.4566 0.1194
-15.5197 22.6983 6.8461 -0.8750 0.4709 0.1128
-15.4099 22.8199 6.8607 -0.8726 0.4764 0.1079
-15.2991 22.9374 6.8752 -0.8634 0.4945 0.0996
-15.1872 23.0508 6.8896 -0.8613 0.4992 0.0948
-15.0741 23.1601 6.9042 -0.8518 0.5170 0.0847
-14.9597 23.2654 6.9190 -0.8498 0.5207 0.0819
-14.8438 23.3669 6.9341 -0.8465 0.5253 0.0869
-14.7264 23.4647 6.9496 -0.8379 0.5420 0.0646
-14.6073 23.5589 6.9657 -0.8344 0.5485 0.0552
-14.4863 23.6497 6.9825 -0.8282 0.5575 0.0568
-14.3633 23.7372 7.0001 -0.8216 0.5677 0.0516
-14.2383 23.8217 7.0185 -0.8235 0.5650 0.0517
-14.1111 23.9032 7.0378 -0.8183 0.5721 0.0558
-13.9818 23.9819 7.0581 -0.8121 0.5828 0.0293
-13.8503 24.0580 7.0793 -0.8100 0.5859 0.0246
-13.7167 24.1317 7.1016 -0.8095 0.5865 0.0260
-13.5810 24.2030 7.1247 -0.8188 0.5735 0.0260
-13.4435 24.2721 7.1488 -0.8142 0.5802 0.0203
-13.3043 24.3391 7.1738 -0.8135 0.5812 0.0226
-13.1635 24.4042 7.1995 -0.8062 0.5912 0.0234
-13.0215 24.4674 7.2261 -0.8052 0.5925 0.0232
-12.8783 24.5290 7.2533 -0.8009 0.5980 0.0305
-12.7341 24.5890 7.2812 -0.8042 0.5930 0.0405
-12.5892 24.6476 7.3096 -0.8048 0.5906 0.0599
-12.4437 24.7051 7.3386 -0.8052 0.5898 0.0611
-12.2975 24.7617 7.3682 -0.8027 0.5908 0.0818
-12.1506 24.8176 7.3982 -0.8053 0.5801 0.1224
-12.0031 24.8733 7.4287 -0.7940 0.5880 0.1543
-11.8547 24.9290 7.4598 -0.7902 0.5764 0.2080
-11.7053 24.9850 7.4913 -0.7546 0.6076 0.2480
-11.5545 25.0418 7.5235 -0.7546 0.6076 0.2476
-11.4022 25.0997 7.5562 -0.7473 0.6260 0.2230
-11.2480 25.1591 7.5896 -0.7452 0.6315 0.2142
-11.0916 25.2202 7.6236 -0.7450 0.6341 0.2071
-10.9328 25.2832 7.6582 -0.7431 0.6378 0.2027
-10.7713 25.3484 7.6935 -0.7422 0.6387 0.2029
-10.6069 25.4159 7.7295 -0.7433 0.6342 0.2129
-10.4397 25.4856 7.7660 -0.7427 0.6356 0.2107
-10.2695 25.5575 7.8030 -0.7441 0.6252 0.2353
-10.0966 25.6313 7.8405 -0.7447 0.6232 0.2388
-9.9210 25.7070 7.8783 -0.7457 0.6151 0.2559
-9.7431 25.7840 7.9162 -0.7460 0.6167 0.2514
-9.5633 25.8621 7.9541 -0.7490 0.6062 0.2675
-9.3821 25.9409 7.9918 -0.7495 0.6034 0.2723
-9.1998 26.0198 8.0292 -0.7553 0.6070 0.2473
-9.0171 26.0984 8.0660 -0.7667 0.6114 0.1956
-8.8345 26.1763 8.1022 -0.7687 0.6158 0.1729
-8.6525 26.2531 8.1374 -0.7700 0.6135 0.1751
-8.4717 26.3285 8.1717 -0.7702 0.6135 0.1743
-8.2925 26.4020 8.2049 -0.7691 0.6138 0.1781
-8.1153 26.4735 8.2368 -0.7678 0.6144 0.1815
-7.9406 26.5428 8.2675 -0.7686 0.6124 0.1850
-7.7686 26.6099 8.2970 -0.7687 0.6145 0.1774
-7.5995 26.6747 8.3251 -0.7653 0.6250 0.1538
-7.4336 26.7374 8.3520 -0.7583 0.6259 0.1823
-7.2710 26.7979 8.3776 -0.7590 0.6288 0.1690
-7.1118 26.8566 8.4020 -0.7569 0.6326 0.1641
-6.9560 26.9136 8.4253 -0.7539 0.6416 0.1410
-6.8036 26.9691 8.4475 -0.7529 0.6468 0.1213
-6.6546 27.0235 8.4687 -0.7503 0.6522 0.1078
-6.5088 27.0770 8.4889 -0.7485 0.6570 0.0895
-6.3662 27.1299 8.5084 -0.7458 0.6611 0.0815
-6.2265 27.1824 8.5270 -0.7447 0.6633 0.0740
-6.0896 27.2348 8.5449 -0.7425 0.6654 0.0770
-5.9551 27.2874 8.5621 -0.7427 0.6657 0.0732
-5.8228 27.3402 8.5788 -0.7407 0.6688 0.0643
-5.6923 27.3934 8.5950 -0.7409 0.6681 0.0682
-5.5632 27.4470 8.6107 -0.7411 0.6688 0.0588
-5.4351 27.5012 8.6260 -0.7412 0.6669 0.0764
-5.3076 27.5560 8.6409 -0.7407 0.6669 0.0812
-5.1803 27.6111 8.6556 -0.7406 0.6670 0.0815
-5.0527 27.6667 8.6699 -0.7409 0.6646 0.0967
-4.9244 27.7224 8.6840 -0.7400 0.6640 0.1070
-4.7951 27.7781 8.6978 -0.7391 0.6556 0.1545
-4.6645 27.8337 8.7113 -0.7385 0.6549 0.1602
-4.5323 27.8887 8.7246 -0.7375 0.6497 0.1845
-4.3983 27.9431 8.7376 -0.7389 0.6489 0.1817
-4.2624 27.9965 8.7502 -0.7389 0.6501 0.1772
-4.1246 28.0486 8.7625 -0.7404 0.6551 0.1502
-3.9848 28.0992 8.7744 -0.7388 0.6507 0.1756
-3.8431 28.1479 8.7858 -0.7367 0.6514 0.1814
-3.6995 28.1946 8.7967 -0.7363 0.6480 0.1949
-3.5544 28.2391 8.8072 -0.7327 0.6490 0.2050
-3.4078 28.2810 8.8172 -0.7323 0.6510 0.1997
-3.2599 28.3203 8.8267 -0.7308 0.6508 0.2060
-3.1111 28.3569 8.8357 -0.7286 0.6513 0.2119
-2.9615 28.3906 8.8443 -0.7254 0.6530 0.2177
-2.8115 28.4214 8.8525 -0.7257 0.6536 0.2148
-2.6613 28.4494 8.8603 -0.7245 0.6547 0.2155
-2.5113 28.4745 8.8679 -0.7241 0.6629 0.1906
-2.3618 28.4967 8.8751 -0.7238 0.6657 0.1818
-2.2130 28.5163 8.8822 -0.7228 0.6730 0.1570
-2.0652 28.5333 8.8890 -0.7233 0.6770 0.1361
-1.9188 28.5480 8.8957 -0.7227 0.6799 0.1244
-1.7738 28.5605 8.9023 -0.7229 0.6822 0.1097
-1.6306 28.5712 8.9087 -0.7228 0.6843 0.0966
-1.4893 28.5802 8.9150 -0.7229 0.6847 0.0931
-1.3498 28.5878 8.9212 -0.7229 0.6875 0.0691
-1.2123 28.5945 8.9272 -0.7219 0.6889 0.0655
-1.0767 28.6006 8.9330 -0.7204 0.6924 0.0386
-0.9427 28.6063 8.9385 -0.7200 0.6930 0.0356
-0.8103 28.6121 8.9437 -0.7202 0.6934 0.0236
-0.6790 28.6182 8.9486 -0.7199 0.6936 0.0255
-0.5485 28.6250 8.9530 -0.7186 0.6954 0.0094
-0.4185 28.6328 8.9570 -0.7190 0.6950 0.0082
-0.2884 28.6419 8.9604 -0.7182 0.6958 0.0059
-0.1579 28.6523 8.9632 -0.7183 0.6957 0.0005
-0.0265 28.6643 8.9654 -0.7184 0.6956 0.0003
0.1063 28.6779 8.9669 -0.7188 0.6952 0.0027
0.2406 28.6931 8.9677 -0.7189 0.6951 -0.0024
0.3770 28.7098 8.9677 -0.7193 0.6947 0.0059
0.5155 28.7279 8.9670 -0.7198 0.6940 0.0145
0.6563 28.7472 8.9655 -0.7197 0.6942 0.0084
0.7994 28.7675 8.9632 -0.7208 0.6928 0.0245
0.9448 28.7883 8.9602 -0.7213 0.6919 0.0302
1.0925 28.8094 8.9563 -0.7219 0.6907 0.0426
1.2421 28.8304 8.9517 -0.7238 0.6867 0.0673
1.3934 28.8508 8.9463 -0.7238 0.6870 0.0648
1.5461 28.8703 8.9403 -0.7248 0.6871 0.0505
1.7000 28.8884 8.9336 -0.7262 0.6869 0.0280
1.8546 28.9049 8.9262 -0.7251 0.6881 0.0277
2.0095 28.9192 8.9184 -0.7256 0.6866 0.0452
2.1646 28.9311 8.9101 -0.7266 0.6855 0.0470
2.3194 28.9403 8.9014 -0.7268 0.6856 0.0404
2.4736 28.9466 8.8925 0.7270 0.6859 0.0310
2.6270 28.9497 8.8834 0.7288 0.6846 0.0145
2.7795 28.9494 8.8743 0.7291 0.6843 0.0159
2.9308 28.9456 8.8652 0.7307 0.6818 0.0343
3.0809 28.9383 8.8564 0.7310 0.6823 0.0101
3.2296 28.9274 8.8479 0.7318 0.6815 -0.0050
3.3769 28.9129 8.8398 0.7316 0.6817 -0.0059
3.5228 28.8948 8.8322 0.7342 0.6786 0.0212
3.6673 28.8731 8.8252 0.7349 0.6779 0.0173
3.8106 28.8480 8.8189 0.7349 0.6780 0.0171
3.9526 28.8196 8.8133 0.7355 0.6775 0.0025
4.0935 28.7880 8.8084 0.7367 0.6761 0.0116
4.2335 28.7534 8.8042 0.7371 0.6751 0.0298
4.3727 28.7160 8.8008 0.7380 0.6744 0.0254
4.5113 28.6760 8.7980 0.7375 0.6753 0.0065
4.6495 28.6336 8.7959 0.7382 0.6744 0.0127
4.7876 28.5892 8.7944 0.7374 0.6752 0.0165
4.9259 28.5430 8.7934 0.7379 0.6749 0.0086
5.0646 28.4954 8.7928 0.7357 0.6765 -0.0337
5.2040 28.4467 8.7924 0.7355 0.6766 -0.0372
5.3443 28.3971 8.7921 0.7353 0.6767 -0.0385
5.4858 28.3471 8.7919 0.7343 0.6759 -0.0636
5.6287 28.2969 8.7915 0.7337 0.6760 -0.0687
5.7733 28.2469 8.7900 0.7328 0.6762 -0.0759
5.9197 28.1974 8.7897 0.7327 0.6761 -0.0783
6.0680 28.1485 8.7882 0.7327 0.6766 -0.0729
6.2183 28.1005 8.7860 0.7321 0.6761 -0.0831
6.3705 28.0535 8.7832 0.7316 0.6764 -0.0854
6.5246 28.0076 8.7796 0.7329 0.6766 -0.0713
6.6806 27.9628 8.7754 0.7330 0.6767 -0.0684
6.8381 27.9191 8.7704 0.7347 0.6766 -0.0498
6.9971 27.8764 8.7647 0.7403 0.6718 -0.0254
7.1573 27.8345 8.7584 0.7446 0.6675 -0.0086
7.3184 27.7933 8.7515 0.7608 0.6490 0.0059
7.4801 27.7524 8.7441 0.7631 0.6462 -0.0063
7.6422 27.7117 8.7364 0.7692 0.6385 0.0251
7.8044 27.6707 8.7283 0.7673 0.6413 -0.0040
7.9666 27.6292 8.7201 0.7674 0.6411 -0.0041
8.1285 27.5870 8.7118 0.7669 0.6418 0.0038
8.2900 27.5436 8.7035 0.7656 0.6433 -0.0069
8.4510 27.4988 8.6953 0.7616 0.6478 -0.0174
8.6115 27.4525 8.6873 0.7659 0.6429 0.0117
8.7715 27.4043 8.6795 0.7662 0.6425 0.0110
8.9307 27.3542 8.6719 0.7725 0.6342 0.0330
9.0894 27.3021 8.6646 0.7728 0.6332 0.0429
9.2473 27.2479 8.6576 0.7674 0.6400 0.0391
9.4044 27.1917 8.6509 0.7693 0.6369 0.0497
9.5606 27.1337 8.6445 0.7667 0.6399 0.0516
9.7157 27.0740 8.6384 0.7651 0.6380 0.0869
9.8697 27.0129 8.6326 0.7655 0.6372 0.0888
10.0222 26.9506 8.6270 0.7595 0.6462 0.0746
10.1730 26.8875 8.6217 0.7527 0.6532 0.0823
10.3221 26.8241 8.6167 0.7529 0.6520 0.0903
10.4690 26.7607 8.6118 0.7464 0.6574 0.1036
10.6138 26.6978 8.6071 0.7462 0.6582 0.1002
10.7562 26.6357 8.6025 0.7419 0.6694 0.0388
10.8962 26.5750 8.5980 0.7411 0.6701 0.0425
11.0338 26.5160 8.5935 0.7396 0.6720 0.0368
11.1690 26.4590 8.5890 0.7376 0.6744 0.0338
11.3021 26.4043 8.5844 0.7366 0.6754 0.0359
11.4333 26.3522 8.5798 0.7354 0.6774 0.0170
11.5628 26.3028 8.5750 0.7348 0.6781 0.0156
11.6909 26.2563 8.5700 0.7335 0.6796 0.0075
11.8179 26.2126 8.5649 0.7320 0.6812 0.0138
11.9442 26.1719 8.5595 0.7318 0.6813 0.0164
12.0700 26.1339 8.5539 0.7306 0.6826 0.0156
12.1955 26.0985 8.5480 0.7296 0.6838 0.0130
12.3210 26.0656 8.5419 0.7284 0.6850 0.0165
12.4464 26.0350 8.5355 0.7272 0.6858 0.0273
12.5718 26.0064 8.5290 0.7279 0.6843 0.0450
12.6971 25.9796 8.5222 0.7272 0.6843 0.0538
12.8220 25.9542 8.5153 0.7280 0.6839 0.0484
12.9466 25.9300 8.5083 0.7279 0.6823 0.0685
13.0703 25.9067 8.5012 0.7279 0.6823 0.0679
13.1932 25.8839 8.4940 0.7290 0.6775 0.0980
13.3149 25.8614 8.4869 0.7303 0.6771 0.0907
13.4352 25.8388 8.4798 0.7340 0.6687 0.1188
13.5541 25.8158 8.4727 0.7349 0.6681 0.1169
13.6715 25.7921 8.4657 0.7380 0.6634 0.1236
13.7873 25.7674 8.4588 0.7395 0.6593 0.1359
13.9017 25.7413 8.4519 0.7508 0.6477 0.1296
14.0147 25.7135 8.4451 0.7511 0.6483 0.1248
14.1267 25.6836 8.4384 0.7613 0.6317 0.1459
14.2378 25.6515 8.4317 0.7660 0.6278 0.1386
14.3483 25.6167 8.4249 0.7681 0.6243 0.1426
14.4585 25.5790 8.4181 0.7728 0.6213 0.1294
14.5687 25.5381 8.4112 0.7752 0.6243 0.0961
14.6791 25.4936 8.4041 0.7828 0.6145 0.0982
14.7901 25.4453 8.3968 0.7895 0.6007 0.1257
14.9019 25.3928 8.3893 0.7949 0.5980 0.1023
15.0147 25.3360 8.3814 0.7972 0.5964 0.0936
15.1287 25.2745 8.3732 0.7993 0.5956 0.0802
15.2441 25.2081 8.3646 0.8031 0.5926 0.0623
15.3611 25.1366 8.3555 0.8108 0.5776 0.0955
15.4796 25.0598 8.3460 0.8116 0.5781 0.0838
15.5998 24.9775 8.3359 0.8192 0.5713 0.0502
15.7217 24.8896 8.3253 0.8226 0.5640 0.0720
15.8452 24.7961 8.3141 0.8276 0.5571 0.0688
15.9702 24.6968 8.3023 0.8396 0.5378 0.0759
16.0967 24.5917 8.2900 0.8437 0.5293 0.0897
16.2244 24.4809 8.2770 0.8551 0.5151 0.0585
16.3533 24.3644 8.2634 0.8594 0.5082 0.0569
16.4830 24.2422 8.2492 0.8678 0.4940 0.0537
16.6135 24.1144 8.2344 0.8692 0.4914 0.0546
16.7444 23.9812 8.2190 0.8742 0.4778 0.0866
16.8757 23.8427 8.2030 0.8792 0.4561 0.1374
17.0071 23.6991 8.1866 0.8818 0.4583 0.1112
17.1385 23.5505 8.1696 0.8841 0.4407 0.1557
17.2698 23.3973 8.1521 0.8884 0.4402 0.1302
17.4009 23.2397 8.1342 0.8780 0.4290 0.2121
17.5317 23.0780 8.1159 0.8579 0.4337 0.2754
17.6622 22.9127 8.0972 0.8602 0.4244 0.2827
17.7923 22.7441 8.0782 0.8410 0.4361 0.3202
17.9222 22.5728 8.0590 0.8466 0.4547 0.2765
18.0517 22.3993 8.0396 0.8479 0.4533 0.2751
18.1810 22.2242 8.0202 0.8545 0.4581 0.2450
18.3101 22.0481 8.0007 0.8576 0.4603 0.2295
18.4391 21.8715 7.9813 0.8567 0.4620 0.2294
18.5680 21.6950 7.9621 0.8580 0.4642 0.2201
18.6969 21.5193 7.9432 0.8581 0.4711 0.2042
18.8258 21.3447 7.9246 0.8561 0.4769 0.1989
18.9549 21.1718 7.9065 0.8537 0.4799 0.2021
19.0841 21.0009 7.8889 0.8497 0.4829 0.2115
19.2135 20.8323 7.8719 0.8478 0.4870 0.2097
19.3429 20.6663 7.8557 0.8449 0.4896 0.2155
19.4724 20.5031 7.8402 0.8415 0.4934 0.2200
19.6019 20.3427 7.8256 0.8396 0.4957 0.2222
19.7312 20.1853 7.8120 0.8366 0.4986 0.2270
19.8601 20.0309 7.7993 0.8354 0.4980 0.2328
19.9884 19.8794 7.7877 0.8309 0.4986 0.2469
20.1158 19.7310 7.7771 0.8294 0.4983 0.2527
20.2420 19.5855 7.7676 0.8296 0.4810 0.2833
20.3668 19.4430 7.7591 0.8295 0.4888 0.2702
20.4898 19.3032 7.7515 0.8303 0.4814 0.2809
20.6108 19.1663 7.7450 0.8356 0.5169 0.1858
20.7293 19.0319 7.7393 0.8383 0.5294 0.1302
20.8454 18.9001 7.7344 0.8374 0.5293 0.1365
20.9586 18.7705 7.7302 0.8395 0.5301 0.1192
21.0690 18.6431 7.7266 0.8415 0.5268 0.1199
21.1764 18.5175 7.7234 0.8454 0.5240 0.1037
21.2807 18.3935 7.7205 0.8495 0.5163 0.1080
21.3821 18.2707 7.7179 0.8511 0.5133 0.1105
21.4805 18.1488 7.7153 0.8570 0.5029 0.1127
21.5761 18.0275 7.7126 0.8628 0.4933 0.1111
21.6690 17.9064 7.7098 0.8640 0.4926 0.1042
21.7594 17.7851 7.7067 0.8751 0.4720 0.1069
21.8473 17.6632 7.7033 0.8758 0.4707 0.1069
21.9331 17.5405 7.6994 0.8850 0.4523 0.1107
22.0167 17.4165 7.6950 0.8858 0.4507 0.1105
22.0984 17.2910 7.6901 0.8971 0.4273 0.1125
22.1783 17.1638 7.6846 0.8991 0.4223 0.1153
22.2565 17.0345 7.6784 0.9086 0.3976 0.1276
