BEGIN_0
-22.4475230301319684 7.5152508200943657 4.9086523671780018
-22.3332621589433664 7.7001538362619399 4.9554430761637906
-22.2132811628574665 7.8740117508894691 5.0092446867637346
-22.0869763205782625 8.0366651377860769 5.0695091379815658
-21.9530069211074448 8.1896725026742878 5.1362493721928697
-21.8099714784205396 8.3351114418405956 5.2096390363802296
-21.6576876709750401 8.4742113033341688 5.2892774892520524
-21.4979402219331455 8.6069523430637069 5.3738004648460880
-21.3337866579969777 8.7331827937794912 5.4613311337050501
-21.1681584864433781 8.8541214931517978 5.5502464303073484
-21.0029167647838086 8.9727904067083557 5.6393220250671359
-20.8387184409096520 9.0930494037504594 5.7268526357976928
-20.6754903465056188 9.2183439503405040 5.8092528248442949
-20.5131623711920454 9.3521756801411406 5.8801829960287595
-20.3527561055669111 9.5008230681368815 5.9305913476039258
-20.1985254921262083 9.6747255177089713 5.9493868566605581
-20.0601021643315534 9.8830674646382128 5.9257731580306192
-19.9504681260349308 10.1225544731259305 5.8547611499936512
-19.8778407044399152 10.3727465664877343 5.7429685098861452
-19.8387696294978291 10.6079067202007487 5.6071354496487427
-19.8209920616756996 10.8147374446876583 5.4637723157377422
-19.8116334234962999 10.9971570865260517 5.3204245556441663
-19.8021193839254863 11.1662103902408560 5.1771264120708107
-19.7881492659672524 11.3296209597646609 5.0325881933620007
-19.7677361550151716 11.4908260542159510 4.8864479225543000
-19.7396887314790597 11.6519588540117347 4.7390826574926788
-19.7030112636137957 11.8148833207252579 4.5918594117829219
-19.6568872142438842 11.9806917440940417 4.4471529127566232
-19.6008436460044031 12.1495503480652829 4.3077408146310869
-19.5347493257260147 12.3214945629932444 4.1763595125163153
-19.4585346945993898 12.4972452103394147 4.0556883434200017
-19.3719705586621984 12.6780333770390286 3.9483793415434612
-19.2748267276860865 12.8647393413071569 3.8568707790301335
-19.1673240665385265 13.0571138828602074 3.7830753228346463
-19.0506444441339653 13.2532717065650942 3.7280926179215808
-18.9272947753780372 13.4496749370080977 3.6920658232470753
-18.8008444552935075 13.6423110871004312 3.6742082971344630
-18.6746607413513459 13.8290037799228642 3.6729924388548465
-18.5502790179194967 14.0109139065923287 3.6866308797168479
-18.4267448136074989 14.1914438772684548 3.7137379536778141
-18.3015700297866353 14.3734373915977116 3.7536302977869767
-18.1728131519965181 14.5568413770409677 3.8059499831467676
-18.0405275472023305 14.7384770549927211 3.8700402899636810
-17.9063216184158200 14.9140148379433128 3.9447476298253932
-17.7719734108875329 15.0801955866245052 4.0286773513543128
-17.6385220676250505 15.2356859543841097 4.1205353294768798
-17.5060438010925381 15.3808117974533829 4.2194021184738197
-17.3736635613137125 15.5170747085515757 4.3249583758980332
-17.2397311977016336 15.6467146981047165 4.4374806997139356
-17.1025216654806833 15.7720029270577200 4.5572351461363514
-16.9613751506950088 15.8943022590806606 4.6833721186341126
-16.8172226623068930 16.0137547753420577 4.8133290429161750
-16.6717246460904747 16.1301586023452117 4.9434943716393480
-16.5258806606678554 16.2442112074627545 5.0703695157558126
-16.3794230752244019 16.3580261500979134 5.1910321191087210
-16.2314329125078594 16.4746334544003545 5.3025562952554619
-16.0815999019180964 16.5969205627578660 5.4009953024594139
-15.9309178677149408 16.7268565163239771 5.4810120765600754
-15.7812293898955875 16.8653979683469259 5.5367012527650523
-15.6345536603848743 17.0125039676847791 5.5630231193051909
-15.4931192712155372 17.1668614420922907 5.5571440994597321
-15.3596074482535769 17.3258957381942906 5.5193261289932369
-15.2365212149989269 17.4867276904978013 5.4528961226914952
-15.1247694872558078 17.6475988308330045 5.3630800607405700
-15.0229342251006095 17.8083523263541466 5.2555438325640385
-14.9281090228684619 17.9693872507893744 5.1357308955576340
-14.8371774353716219 18.1302469435187845 5.0087816142379094
-14.7472021278933596 18.2892259432787796 4.8790374876422629
-14.6552918910636318 18.4442350087334219 4.7490936139908122
-14.5589000710668941 18.5940710528305644 4.6197334937530972
-14.4563651151539698 18.7391199317475454 4.4913100944221682
-14.3469729871715437 18.8812277374959976 4.3648609289538403
-14.2305899710808426 19.0229769807876323 4.2418866759387885
-14.1070748557412795 19.1668269275138385 4.1239812448277107
-13.9757870830190623 19.3145474217844537 4.0131410329518111
-13.8357219674469452 19.4670117238854488 3.9120156671822297
-13.6864160956083687 19.6240452091426505 3.8234213007934414
-13.5290094631450462 19.7841954218833678 3.7495618308480125
-13.3665392877488234 19.9447747893185294 3.6916834000676229
-13.2028549557559955 20.1027230942941486 3.6501752165231469
-13.0406664912225239 20.2561809945566225 3.6248422905133957
-12.8805167074598046 20.4054063122838372 3.6153452010119906
-12.7216548235860394 20.5518639605232636 3.6218118246337756
-12.5634665316817937 20.6964129002695003 3.6452995230141845
-12.4060080028992541 20.8382016093523887 3.6877799631322912
-12.2497290445056759 20.9749105410974437 3.7516733861740335
-12.0952385955912654 21.1037134444391725 3.8390771747215382
-11.9436785088237585 21.2218143477507581 3.9507805060813617
-11.7970123244326004 21.3266147279722418 4.0856105001241190
-11.6573509835270883 21.4162472596357958 4.2407220781085773
-11.5259531721978181 21.4901696077795137 4.4124691482269043
-11.4028778398687685 21.5491921949222061 4.5970852290142279
-11.2872826077241761 21.5950375537100712 4.7909284522376723
-11.1778418053887414 21.6298761607336303 4.9904997703949281
-11.0729592915843931 21.6560641627069259 5.1924706407783106
-10.9707191822888017 21.6760760454343568 5.3938264337982584
-10.8686367170529863 21.6925769536159549 5.5920605335283060
-10.7634101678753158 21.7085982042119809 5.7850819765323021
-10.6510505617264872 21.7277526169778170 5.9703600175256675
-10.5276698169577632 21.7543309811764303 6.1434032936951759
-10.3907219479391220 21.7929896261006490 6.2967571340439683
-10.2400936986689093 21.8476965396593243 6.4207822673610995
-10.0783546310691552 21.9199818880824679 6.5062274208067450
-9.9096837482226956 22.0074631339325819 6.5475196231806922
-9.7379820788118554 22.1041163164591765 6.5449550381796016
-9.5653150737361088 22.2025434247132765 6.5044795593502265
-9.3915141662430468 22.2964701641783662 6.4354458650603341
-9.2150064326480816 22.3818462229895090 6.3478693399755333
-9.0340563931325590 22.4567750307747502 6.2503958946681966
-8.8476864963823836 22.5213113314258706 6.1494650456151572
-8.6561416991168851 22.5774759542362631 6.0495166025397662
-8.4606205801645462 22.6291332291825356 5.9537136785499047
-8.2624311042481153 22.6812032524487961 5.8649190810879919
-8.0626557612443843 22.7384433208067449 5.7864114518755390
-7.8623728175328544 22.8046379945680968 5.7218095893361856
-7.6624856017633034 22.8821653889767020 5.6744705460279814
-7.4635735480847938 22.9712734791453315 5.6470623161168039
-7.2666966384076384 23.0694831845129968 5.6415530643464677
-7.0740181197469711 23.1721455148648090 5.6592872958917706
-6.8879058242038962 23.2740117032694798 5.7010166586477347
-6.7094626667970410 23.3707271991500107 5.7669828878481333
-6.5383756470555205 23.4594243771475277 5.8568357468730898
-6.3741904118352384 23.5383724014048923 5.9691316285035168
-6.2172831664699881 23.6064527753827562 6.1008849931570630
-6.0683729447306529 23.6631336571700999 6.2478728361027276
-5.9273766066088305 23.7086924828148611 6.4055001088055175
-5.7927200666597223 23.7442180643393783 6.5695331160943002
-5.6612785912586689 23.7713880223962377 6.7362243737874490
-5.5287281635170080 23.7922518242759722 6.9015797355814339
-5.3902297643907895 23.8091290708775603 7.0599087433265790
-5.2414380368101821 23.8245163741985024 7.2025444585021035
-5.0799103336320028 23.8406889032462104 7.3178843325779326
-4.9066618497623127 23.8587502427780294 7.3934038325350375
-4.7265768562663482 23.8775769754615510 7.4194859711109178
-4.5466893788930882 23.8938722205615761 7.3932112064173676
-4.3732846290127734 23.9040084018689711 7.3194029712489268
-4.2097358541222949 23.9064150432194609 7.2081613537868687
-4.0559528265865090 23.9023745805504930 7.0708522302273948
-3.9090627398051838 23.8946946902428223 6.9171092003154602
-3.7646495008713701 23.8858039497215344 6.7540552732692785
-3.6182335926371358 23.8770624113937231 6.5873463604998097
-3.4665892701770753 23.8693683211851280 6.4224916439411164
-3.3083053921731409 23.8637176299855440 6.2652381123350231
-3.1431329819147460 23.8609125921473648 6.1209870878314341
-2.9705097333441244 23.8611247177398198 5.9938896190607043
-2.7886921726612321 23.8640529418421679 5.8864870845833916
-2.5954667794182957 23.8694899573768211 5.8003218183988423
-2.3897834229972634 23.8778085684121351 5.7367706001912673
-2.1731386312999170 23.8900296911333498 5.6972910168859681
-1.9500248752381313 23.9073506935565092 5.6831620818820081
-1.7270073295036223 23.9303689523940051 5.6952707173236501
-1.5105225719781183 23.9585536457573554 5.7342256378287288
-1.3047736232939497 23.9904387501426655 5.8005340261575782
-1.1114233503496382 24.0243030004078975 5.8943205466794577
-0.9310347462551642 24.0586447718982157 6.0144931508839541
-0.7643222592220176 24.0922590879771832 6.1580808055534959
-0.6118744896060395 24.1242256047020334 6.3204923852513826
-0.4731980261715456 24.1539333382597761 6.4964097117436275
-0.3462644791611289 24.1810612118955746 6.6805949664953435
-0.2275908507437044 24.2054980075914088 6.8682954220388019
-0.1124160799437450 24.2272425163757603 7.0551220059131730
0.0050527382138590 24.2462922265686842 7.2361537186606295
0.1309941452370009 24.2625289538187445 7.4043835664196802
0.2706478358355209 24.2756573257737429 7.5495632616793120
0.4263353050950772 24.2852393565184101 7.6588094804947460
0.5956911119379635 24.2908200543664492 7.7195335550658779
0.7718971983899794 24.2921317634003415 7.7240036329278663
0.9465189404605621 24.2892403914541362 7.6730087763509598
1.1131778279299176 24.2824174871871890 7.5757844562406245
1.2698006853062360 24.2718261554834740 7.4461479860782962
1.4183834283205399 24.2573740742530575 7.2978642987084523
1.5629767492071129 24.2388209837278907 7.1421560207637391
1.7077371491390223 24.2159156355285887 6.9874873169126115
1.8563440573167362 24.1883904867115476 6.8399808885901887
2.0122365512497784 24.1559264993489649 6.7038530156805010
2.1783924165716915 24.1183231404683553 6.5822589155768547
2.3565521525449777 24.0759238099527337 6.4781892250615751
2.5466976790167815 24.0301085256265807 6.3946884435962978
2.7473599777205742 23.9834637476554988 6.3343426066219859
2.9564217978021956 23.9392407661583348 6.2986220595046429
3.1713715582664110 23.9002696233465670 6.2877214050036034
3.3889281553070028 23.8681764887725194 6.3009798795375023
3.6054016392961117 23.8434420388129737 6.3373267050945170
3.8178869574555145 23.8257886189739594 6.3953556663733035
4.0248747983241930 23.8142125788636463 6.4732262303876649
4.2258627652842122 23.8069117419860845 6.5686776081141840
4.4205702398291482 23.8017220900907773 6.6790428159764623
4.6083651822393374 23.7968635023349222 6.8010351959994377
4.7886347471149593 23.7913910042731800 6.9306664729923728
4.9618737943199314 23.7852259148310523 7.0635097348113991
5.1304492380936786 23.7787775691458236 7.1949531677691105
5.2982811152522036 23.7720710193217855 7.3199226445205827
5.4695090951867655 23.7637720883005557 7.4318929078100471
5.6467788983654330 23.7511362283681748 7.5219801517065346
5.8297511975468641 23.7314328490180060 7.5794039654055982
6.0143738955459938 23.7039728193911330 7.5939208900162267
6.1938742687732553 23.6709558036933601 7.5594495804932205
6.3614614343358697 23.6361485686657886 7.4766863575587674
6.5130245025347522 23.6025031428596321 7.3527852747465854
6.6481821403765977 23.5708198393574406 7.1984741180224390
6.7694617546502069 23.5401036322027366 7.0248078609847351
6.8806542193546161 23.5086345010799889 6.8412901062842746
6.9855384719756275 23.4747238803018945 6.6553524072921082
7.0875896036125283 23.4368620516367017 6.4721155735572733
7.1902175873693874 23.3935652982219082 6.2943969089147362
7.2967300233033807 23.3433207662014865 6.1236430162165529
7.4100330525595606 23.2846764845996006 5.9612396311664178
7.5324763094629024 23.2163524603416889 5.8092007961117105
7.6658704612782529 23.1373971790909394 5.6701123964261591
7.8114371456211735 23.0475688555407956 5.5467387858405957
7.9696110445105894 22.9480438736060961 5.4415252373820859
8.1399613043462935 22.8421163316319848 5.3560253837702216
8.3215480206555608 22.7349915044872191 5.2904570956660084
8.5133372570093648 22.6320778934810605 5.2438833216183056
8.7137484621903063 22.5368073825809532 5.2151792173118849
8.9197011849263106 22.4499268722683638 5.2039281419207022
9.1269034017242259 22.3705339394140879 5.2102734619330811
9.3313912956806675 22.2973351351603526 5.2341681994976099
9.5306502214857147 22.2290968708028274 5.2751095464384417
9.7234982724406755 22.1645792569214422 5.3325415567592742
9.9094712998450714 22.1024431371822061 5.4062154640556699
10.0886402670642159 22.0411747292379303 5.4959943838770240
10.2617405116407809 21.9792130502410856 5.6013626173156918
10.4298362220419918 21.9156539777459329 5.7209078596137957
10.5936526166310987 21.8511590891232999 5.8518089549247119
10.7537497053579632 21.7879753024343472 5.9898961927873113
10.9117645593771737 21.7286923426404357 6.1306910081304373
11.0710495577810200 21.6746898024160402 6.2704353703580171
11.2355000905339359 21.6252270164677682 6.4059456833684596
11.4074357044676056 21.5773641080250087 6.5334301589792450
11.5865725490729261 21.5267473684383930 6.6475202727586993
11.7710594730557148 21.4693354784513843 6.7413700268877204
11.9590427029591329 21.4036614571506405 6.8075739260282067
12.1489517547888983 21.3322785568712234 6.8396406728576800
12.3388401695838503 21.2608813357111472 6.8338352772050168
12.5262388870861443 21.1952785268565833 6.7904721674618056
12.7089006637222894 21.1385002423753576 6.7136691874094279
12.8857095232822587 21.0900567245054518 6.6097588938769061
13.0567821882966175 21.0471493022407685 6.4856711015654529
13.2226031832168811 21.0063453724186857 6.3481984087928272
13.3834296724332216 20.9645520831957910 6.2035837417761162
13.5398040769256145 20.9190992846702741 6.0567312480420110
13.6932364503305735 20.8674629867426447 5.9106596525970065
13.8458965086484476 20.8071600703048958 5.7670460911388854
13.9997292463966581 20.7358584876918997 5.6273180611348224
14.1558883713884747 20.6515563263790014 5.4933330948451324
14.3145760992359268 20.5528510782908782 5.3674831635147218
14.4749753023931405 20.4393659401943708 5.2525337689938745
14.6353755438627502 20.3121075485901770 5.1513128111358295
14.7939991564276685 20.1732513709276162 5.0661574657787316
14.9504356718677478 20.0253079636067497 4.9982984665655916
15.1062912833501759 19.8705851495826877 4.9477732186830981
15.2638591200051543 19.7115247020032811 4.9140795818872398
15.4238630804041499 19.5509305705197178 4.8968731116675386
15.5844424278919114 19.3913213502574351 4.8960937397710271
15.7422011337980194 19.2341099112300071 4.9117223656950610
15.8941305759267415 19.0793836546145599 4.9437218987735765
16.0388297807589666 18.9260885038528031 4.9923475618141104
16.1764304566535557 18.7723231560497226 5.0583284763001224
16.3075452490335735 18.6160908288745972 5.1422082092096115
16.4320856483327162 18.4565678728427827 5.2430161460643134
16.5489751610440550 18.2948050598945500 5.3575782274777008
16.6570751820271425 18.1329708610190465 5.4813393116170150
16.7564345346374921 17.9728837894276623 5.6098576749299234
16.8488226384505282 17.8149135917592290 5.7396715977388659
16.9372251929850250 17.6576470536834478 5.8681736170509300
17.0245943077927997 17.4984477109065182 5.9926691223753519
17.1125336670004486 17.3347712211526925 6.1090934169702837
17.2009954348305634 17.1653488896666389 6.2114727558503500
17.2895933463076261 16.9903806342545991 6.2926863937887791
17.3793141152847177 16.8114114328765680 6.3457231017922187
17.4727081675357816 16.6317988646550745 6.3647780220651189
17.5721923011214614 16.4568348500832684 6.3462958313183275
17.6779466573751520 16.2921772089462493 6.2899696167082393
17.7873881947101999 16.1414944410005035 6.1991110233404161
17.8968457670820094 16.0052736347988258 6.0798766038833651
18.0036057525893582 15.8813979832992445 5.9397597935180517
18.1066430259079993 15.7665182722798605 5.7860748485580924
18.2064138084968548 15.6569016243654957 5.6246411335328510
18.3044177655120350 15.5486518440437962 5.4591542185436293
18.4025386035858638 15.4380178936025843 5.2918061686208482
18.5023470119324642 15.3218886384036139 5.1245201467580426
18.6046710751847826 15.1981876362847359 4.9598102557734052
18.7094280452239445 15.0661298853636296 4.8010247873900926
18.8156957706716810 14.9262415318295112 4.6520770684195742
18.9222437920522673 14.7797140889607093 4.5166087261862291
19.0284814063478080 14.6270699651602740 4.3968536582726525
19.1350366488705887 14.4672401450031174 4.2931921257372139
19.2432827932761086 14.2981059319874433 4.2049614319588304
19.3542556701736892 14.1179656670105942 4.1316204363008762
19.4677320392408113 13.9268300512728587 4.0732364507627317
19.5819058819107887 13.7268904492083266 4.0302630187575197
19.6940933942733061 13.5215862252226273 4.0031075252013686
19.8023732186528463 13.3134300463897404 3.9918788200631230
19.9065480566308537 13.1027638012986785 3.9964381507235629
20.0070406190770456 12.8893030497461112 4.0165795361236967
20.1032374490338732 12.6743161783810621 4.0520720802886618
20.1933668627524696 12.4605051951071886 4.1025785789196672
20.2755381820690523 12.2504138689766933 4.1675845547735602
20.3485058386042326 12.0454568215842528 4.2463229947224637
20.4116937976544222 11.8459287702812226 4.3376306528952711
20.4648687923515169 11.6513989480679356 4.4398420380085053
20.5079313832464329 11.4611248178134524 4.5509265712732567
20.5409801932806921 11.2741515724408785 4.6689957164153562
20.5644625752598422 11.0887297317860565 4.7931409028000793
20.5791088145836909 10.9015019448522388 4.9240427148410166
20.5857188721193900 10.7079986464639596 5.0630870062279190
20.5851912042029959 10.5056126108221122 5.2092906194555457
20.5788334279979672 10.2969794178068383 5.3562951247969757
20.5687091826151516 10.0890719813238228 5.4936282046099958
20.5578795160158982 9.8879772452444890 5.6119088464907900
20.5504897317685575 9.6955728238949810 5.7059838771638738
20.5516381846479383 9.5099992933020339 5.7739283005451423
20.5668760972417317 9.3273607082087509 5.8151221269452247
20.6010694774435912 9.1442274280258289 5.8294466239576668
20.6566943026385523 8.9604865392087198 5.8172138704837568
20.7327509395073903 8.7793377685035452 5.7795578909785181
20.8256095664867935 8.6044723262391436 5.7189103439905704
20.9309261029754623 8.4376682923821065 5.6390311742142671
21.0446026382244291 8.2785756661947083 5.5445169615915635
21.1627645438375751 8.1254894786481380 5.4399229277116703
21.2821442333647468 7.9757225684233788 5.3288547306271461
21.4008956762477034 7.8259149195808746 5.2137465130252600
21.5186021407165740 7.6729815877560696 5.0965788421540399
21.6351765180185858 7.5151971523126306 4.9796936114472086
21.7495436032015732 7.3524797998751943 4.8658728352022287
21.8594095068819989 7.1855581359677920 4.7577338020539468
21.9626799423853107 7.0145706885387824 4.6570149189293257
22.0592450549182857 6.8383324978676683 4.5643824709170850
22.1512376197409360 6.6549518770182061 4.4799461997701506
22.2416807747148724 6.4629826870607232 4.4039292332798343
22.3328681672932490 6.2622247469979051 4.3369950266597908
22.4255826840764030 6.0541652881017463 4.2802763073615768
22.5194059665575068 5.8419218732336660 4.2352645155822266
22.6136405048802125 5.6288778151247030 4.2034983296509463
22.7079787627469010 5.4163009285172663 4.1860675059543659
22.8022071249109359 5.2026280242019283 4.1833106536917306
22.8952170895542828 4.9860243820677503 4.1949576862043205
22.9846591888071217 4.7671210340871397 4.2203444557821950
23.0678460598655590 4.5486292320599730 4.2583063507083381
23.1429285267208940 4.3331710708786524 4.3069240136862792
23.2093651144616508 4.1220065723573569 4.3636680832425423
23.2676117894571242 3.9149924882425431 4.4262010753296721
23.3185837845189603 3.7107772063511568 4.4932859484136802
23.3633892367521980 3.5069980521863755 4.5649401122047504
23.4032341166466153 3.3011636379220981 4.6416108150399555
23.4392709262868237 3.0922589850648698 4.7229579231777148
23.4725475468384417 2.8815419322082612 4.8072566141508037
23.5042967028851599 2.6713834976245785 4.8919398551802988
23.5364342407196681 2.4633925190222712 4.9746810890685467
23.5718804222898939 2.2576305707323172 5.0540672093727501
23.6143822385833388 2.0534301444025829 5.1292896182291159
23.6678445619046265 1.8509826645044427 5.1990456640011349
23.7356942435148994 1.6521671156703732 5.2606981354361668
23.8207600589522386 1.4599098004005633 5.3106195348998817
23.9251920611104758 1.2770582667001307 5.3452367224260247
24.0496617752690938 1.1057714881641658 5.3617473901040551
24.1923975328889931 0.9473826032991255 5.3584978826802807
24.3494777157605391 0.8021462383181017 5.3353490412821785
24.5164875015052743 0.6687431795541698 5.2936641984278179
24.6898537204943054 0.5443953042255636 5.2358467090822014
24.8666169013977552 0.4260374568511054 5.1650295377704776
25.0435802539683401 0.3114356130273244 5.0849661531843804
25.2173763034159997 0.1991008646569732 4.9994708308452829
25.3855728943798553 0.0872937110067831 4.9113347846717499
25.5474273926805253 -0.0265921033893797 4.8216464113394935
25.7032069196155888 -0.1455878089067610 4.7302678336299966
25.8529833149744732 -0.2722973911415991 4.6369291667824459
25.9962495415998625 -0.4084777578300312 4.5420280569240692
26.1324617299297977 -0.5551590075751101 4.4468633652490350
26.2617787204190627 -0.7129155727588810 4.3534470537730154
26.3852805198730564 -0.8820330767938671 4.2640391792050671
26.5042973753407658 -1.0625806786336369 4.1805935975484552
26.6191980116818137 -1.2542711486094795 4.1044282982111024
26.7286275836993035 -1.4558841332064461 4.0363208893832248
26.8299916843186104 -1.6646312025007930 3.9768777398081614
26.9209966075409355 -1.8766194421044169 3.9267399079149978
27.0011604077119074 -2.0887173150537457 3.8864118910207086
27.0720569732955525 -2.2999353124891293 3.8560374435146851
27.1361017838742562 -2.5107136045544642 3.8354828411420652
27.1951580304263167 -2.7216803433337233 3.8246676114282803
27.2500307059887170 -2.9339039423615070 3.8240385635489940
27.3006015326465992 -3.1500503182438671 3.8350752188409967
27.3459107756914968 -3.3743753220270740 3.8604741453621880
27.3840377985951520 -3.6108197418181938 3.9036289696406978
27.4122615045997833 -3.8603312879731746 3.9672168364997766
27.4279402747146257 -4.1185252199756093 4.0511220393479626
27.4296751595990607 -4.3752432044476972 4.1511435797096947
27.4177753161366731 -4.6190333042735450 4.2605133121217751
27.3937628220224383 -4.8442039784273234 4.3732932031487550
27.3595404246686549 -5.0525505668284296 4.4860441468355265
27.3167177263405812 -5.2493841701528901 4.5972206036968828
27.2663343135769978 -5.4396985850117616 4.7060144246336062
27.2093110039130330 -5.6272315607615369 4.8114572521719285
27.1474738263856494 -5.8151179827969077 4.9119772618170909
27.0842488150586256 -6.0061237196792501 5.0054985907133940
27.0241466632129104 -6.2018000616802276 5.0898061784165840
26.9712960803182078 -6.4016541458381191 5.1627237386423044
26.9285127461367964 -6.6034682303620666 5.2220781531534470
26.8980589682219104 -6.8042694614430399 5.2658120332125460
26.8831358601740931 -7.0012089671390214 5.2925388334106351
26.8884311171206285 -7.1925993989543358 5.3023201201264634
26.9191017423908612 -7.3786681083586352 5.2968790722567736
26.9786589303872688 -7.5602616173421744 5.2789386617848031
27.0671303539904891 -7.7364370685167856 5.2510771323530498
27.1811164081750043 -7.9049158864795466 5.2148405243824172
27.3154523455490263 -8.0645485707710307 5.1708536686298388
27.4645087309688876 -8.2159845285753530 5.1197182371280743
27.6225029767011456 -8.3604252663284164 5.0627198317392477
27.7839588944188591 -8.4988641838441925 5.0017053970583323
27.9449180802101402 -8.6326961096061474 4.9383322312026170
28.1037573237361080 -8.7644223522779328 4.8734813092098488
28.2604861236878655 -8.8972682211897585 4.8073801972229440
28.4153353469385870 -9.0342595783124189 4.7401064907268715
28.5679385850768917 -9.1777430738898573 4.6719168784149421
28.7173015833746632 -9.3294726583002472 4.6032833077677147
28.8620671605136856 -9.4908639497699543 4.5348088193691627
29.0007172793006589 -9.6631210449003131 4.4671642920818844
29.1316360655338471 -9.8471158269455472 4.4010916657495347
29.2530730102701959 -10.0429528548551659 4.3374872321159756
29.3630969070208572 -10.2493435541327429 4.2775642773267926
29.4597201120139438 -10.4634870778799733 4.2230293905489944
29.5413572234024890 -10.6825064921856931 4.1761167306275873
29.6074408520936423 -10.9060601737321150 4.1393090675533202
29.6587160078404075 -11.1369595633320024 4.1146099702510934
29.6971665979933626 -11.3772546299568980 4.1023977850255697
29.7258530374265071 -11.6232549874435183 4.1007568603405922
29.7482070280447708 -11.8661629766170194 4.1068301547152046
29.7667819798838913 -12.0988882578776522 4.1194738379564768
29.7827309865706091 -12.3217710835339407 4.1401757188964279
29.7961513401875067 -12.5421806543154073 4.1716380919868232
29.8066112439444062 -12.7689817286585026 4.2158404236319758
29.8139477177742727 -13.0060580014935461 4.2730086161086316
29.8195294817215171 -13.2495097630006882 4.3420413086880671
29.8270189439390201 -13.4907895700688414 4.4221618903576658
29.8414863968407182 -13.7234497689048656 4.5142739585318594
29.8671037275101163 -13.9466719194602895 4.6199900729222971
29.9046711017928857 -14.1629387798177646 4.7390971755308531
29.9506423703740339 -14.3740512094956756 4.8684727406675030
29.9987560948961161 -14.5798471115741854 5.0036800095002771
30.0433511742793904 -14.7797463012571626 5.1414710033653357
30.0816282613922894 -14.9741959096768724 5.2809668645691605
30.1134392053011055 -15.1647472805022261 5.4233262919584924
30.1396483419405179 -15.3542033195858050 5.5713439366225117
30.1606287938123891 -15.5474457640171710 5.7296954936700608
30.1757704317279831 -15.7515843762900047 5.9047397934916628
30.1838043509633778 -15.9715342098908497 6.1004447985805665
30.1833958670085956 -16.2026716862143978 6.3117865084666764
30.1736979208509482 -16.4311722940097411 6.5249954086616064
30.1544520610353892 -16.6443798264876719 6.7270235572496144
30.1256305822795163 -16.8389188709777109 6.9132814176099515
30.0871656968802377 -17.0188930794781648 7.0863344412185931
30.0390718535342494 -17.1896183565243064 7.2502183050833207
29.9817477169723468 -17.3537240967955668 7.4067479687976405
29.9159166028905759 -17.5115073110580468 7.5557594516927526
29.8421801443173429 -17.6631539099984032 7.6970890974496537
29.7607643886559252 -17.8096772373181444 7.8314609834099045
29.6715814169920762 -17.9524439274811485 7.9599925204212951
29.5743736820224719 -18.0925870891209719 8.0835261231774513
29.4689076817672237 -18.2306288778909362 8.2022834858981657
29.3551470967682775 -18.3663472342446745 8.3156626029888745
29.2331366276960303 -18.4991716060155795 8.4225102462361132
29.1025074312797294 -18.6288968768821306 8.5221036811090549
28.9621511789150894 -18.7559411839691350 8.6147031337596971
28.8104942377575632 -18.8807279435583908 8.7006655013984417
28.6463197039927024 -19.0022703498954044 8.7786215795401130
28.4696663859081909 -19.1167019150073934 8.8441336822024770
28.2819049855539255 -19.2174179128173819 8.8900508532716156
28.0848020774056337 -19.2975340049552706 8.9087258694380669
27.8801919217066505 -19.3526930614090524 8.8948068605234081
27.6708605020781313 -19.3820300829388685 8.8469136083737805
27.4605437924083304 -19.3876112402040839 8.7675580145636793
27.2519974528227102 -19.3735376757676505 8.6619456626118421
27.0450770011910073 -19.3449095561788020 8.5365747477017706
26.8370393022882361 -19.3069181786124062 8.3981686217318252
26.6251873993848811 -19.2645597343848358 8.2533709909439086
26.4092800877969829 -19.2228566811412698 8.1088252381958821
26.1919057436803868 -19.1872623794773638 7.9716310132931358
25.9772601113602484 -19.1639370415327583 7.8504194841522033
25.7692597683208326 -19.1592315782753317 7.7557885176401111
25.5698588985974737 -19.1779539339938232 7.6975579283459190
25.3784988905485811 -19.2213389328111433 7.6785222208692279
25.1928514137241670 -19.2867162162753942 7.6904063597995123
25.0104985451212904 -19.3694427251275734 7.7186492657450660
24.8307868299450867 -19.4652245707620288 7.7531365052871344
24.6555115280735073 -19.5711380094549092 7.7944179256915778
24.4879390513801383 -19.6856007529638219 7.8502896975089698
24.3305845630347264 -19.8080206249596209 7.9275739527784665
24.1827664669162168 -19.9380110120006293 8.0267011467537550
24.0395355314984194 -20.0742289563019938 8.1414102146807181
23.8930360611714256 -20.2134745965639553 8.2607126654836591
23.7356820357332339 -20.3504241851562178 8.3709338865223248
23.5632266718610737 -20.4782108138774603 8.4584071160430216
23.3758769440773513 -20.5900382592770725 8.5130475596330815
23.1771651784823973 -20.6811007759757253 8.5309809261405896
22.9721676953759584 -20.7494455968382780 8.5145538497536446
22.7663920991945901 -20.7955656161001627 8.4697519069830758
22.5647313589852985 -20.8215923789850272 8.4028846954783276
22.3704112590137925 -20.8304642660409733 8.3188413376031871
22.1845744090186692 -20.8251167685612621 8.2212169697790500
22.0064188268856178 -20.8079147241236697 8.1128306404426045
21.8340209431117245 -20.7804764745254182 7.9958909198069801
21.6657166718591832 -20.7436919248595757 7.8720267945925819
21.5008711924366978 -20.6978171165596869 7.7422027508556361
21.3394785687178654 -20.6426941750461239 7.6066427311864899
21.1817237470775019 -20.5781385573921298 7.4652584296655000
21.0283035294664451 -20.5043489601551414 7.3184555040597221
20.8805851511628688 -20.4220281746453480 7.1674247589729614
20.7396137013912139 -20.3320113618202427 7.0134168019210090
20.6049838366585973 -20.2348865456412454 6.8569860512530330
20.4748609739561971 -20.1312237111355508 6.6982203684456678
20.3466443352016277 -20.0222272536666104 6.5376327296932484
20.2170585617306919 -19.9098704743017905 6.3765542222414027
20.0819914346719628 -19.7961279833909174 6.2165928849073211
19.9377103736815542 -19.6822086496301836 6.0591134628304548
19.7832771583791320 -19.5684724728492476 5.9051649046438097
19.6218525277511304 -19.4546692867524520 5.7553567838098232
19.4595018311287689 -19.3399410771730018 5.6096004125628873
19.3026704444648907 -19.2229072835352106 5.4673793101773587
19.1559589535472448 -19.1021534254840049 5.3285212916263092
19.0210573762191046 -18.9767005639414421 5.1935483462018208
18.8970005553597140 -18.8459415451257790 5.0631184665546751
18.7813516454294316 -18.7091407756214423 4.9372466848909067
18.6716778120256315 -18.5652135968931873 4.8153819224673988
18.5665737775357513 -18.4132872797840896 4.6972825156466271
18.4657969265782675 -18.2533325684807828 4.5835114072881602
18.3696374543042857 -18.0858626879921971 4.4750635119648923
18.2782363036444515 -17.9112127408617248 4.3729051756802413
18.1915013771795806 -17.7294919555701540 4.2779921769668423
18.1094007825855066 -17.5408762470213233 4.1913514231064823
18.0320967297062289 -17.3454203910201379 4.1139858135844083
17.9598353375010085 -17.1425250586857274 4.0467899303140324
17.8927864011709445 -16.9308914123957983 3.9905601708453027
17.8309963416172330 -16.7093646686848629 3.9459472037388910
17.7745004429042197 -16.4782249217432799 3.9132137379950187
17.7234119574407032 -16.2397985236656091 3.8919035063367513
17.6777458558160738 -15.9974239508402327 3.8808272122620746
17.6370365018515436 -15.7535105177462889 3.8785128940788844
17.6001573549660399 -15.5090027472066989 3.8835400637260857
17.5655488780946278 -15.2648749638680243 3.8942133637119518
17.5316322749237443 -15.0232208627873476 3.9081394882015754
17.4971766208241490 -14.7864603835470660 3.9226429811396777
17.4613873819379002 -14.5558549873029630 3.9356220470254222
17.4236886825091766 -14.3307018867898819 3.9459306451751885
17.3834788850072037 -14.1085845772257255 3.9531678172848128
17.3401681979111508 -13.8867472450494223 3.9572996407522325
17.2934915297090903 -13.6640596175377045 3.9584199398247595
17.2436966969597378 -13.4418410981221577 3.9566895852213353
17.1912877872921364 -13.2224430257889178 3.9523581081719232
17.1365603778392561 -13.0070614912254392 3.9457704491547752
17.0793738012679093 -12.7948327884839159 3.9373517786796555
17.0193572335737038 -12.5837890975689355 3.9276341080819925
16.9563511548542643 -12.3727563762106350 3.9173540382755370
16.8905362378407524 -12.1624632553586345 3.9075584743020606
16.8218728496333796 -11.9549667736155527 3.8996320644791371
16.7492299385674457 -11.7524318877736142 3.8951718527514654
16.6700622581465687 -11.5563268578569573 3.8955477525354070
16.5813222886095311 -11.3668654578564841 3.9010898560790643
16.4813546421919064 -11.1825182181946996 3.9104229473509093
16.3713173922289421 -11.0003081823933684 3.9208132074803768
16.2548949396658173 -10.8173005933087172 3.9294995141988416
16.1367558897353902 -10.6321564572431857 3.9348258196228088
16.0208970022247428 -10.4451826527516065 3.9363999758235853
15.9095049455989823 -10.2568411597669567 3.9346571840010949
15.8027731095687649 -10.0663753186675962 3.9304742768512799
15.6998299811324813 -9.8719989728897701 3.9250285245811494
15.6000024618752757 -9.6722342862609167 3.9196728574098607
15.5034806712796698 -9.4671010013290058 3.9156360176038536
15.4112635292698084 -9.2583432570542090 3.9137011292638828
15.3246046557707594 -9.0484463910268609 3.9141337154137812
15.2441207806090802 -8.8387904168758844 3.9168939632473609
15.1692466427728903 -8.6284201805765139 3.9219413755879877
15.0986620954418189 -8.4147349995359146 3.9294264917347785
15.0311434642916470 -8.1952596533076409 3.9396815723661085
14.9660432543670563 -7.9690248354573789 3.9530524789384618
14.9033569413390037 -7.7371751010599361 3.9696839139444808
14.8436152403002346 -7.5027822487585691 3.9893890981064288
14.7875837746529974 -7.2694842439076908 4.0117119028302284
14.7357317299953223 -7.0394453320821864 4.0361694430614588
14.6878927717865668 -6.8126896459654276 4.0624391615610680
14.6434575095458985 -6.5886449869871502 4.0903257094064411
14.6017158075784774 -6.3676051520633159 4.1196769656735590
14.5620253398718589 -6.1503935733105006 4.1503792843746670
14.5239743074230976 -5.9370065515775607 4.1823629847489752
14.4876167928319859 -5.7255788271315229 4.2156180168762685
14.4535542348293067 -5.5124794087778000 4.2502943285881774
14.4227093245215912 -5.2939863610150191 4.2867502904222210
14.3959610670964810 -5.0688831695540344 4.3252799232597656
14.3739586457820430 -4.8397658209054093 4.3656444609491558
14.3571546915909227 -4.6118181608409046 4.4069098154664452
14.3457938991629437 -4.3906380691173812 4.4477694788047675
14.3398020293024739 -4.1802958316570322 4.4871732064065952
14.3388667092649236 -3.9810455983457231 4.5250203037639807
14.3427814306732948 -3.7877056404235319 4.5624805949230520
14.3516506877909773 -3.5918663384748726 4.6013813027142074
14.3656542322892804 -3.3873961748253194 4.6428907961780936
14.3845126301824546 -3.1736938737979479 4.6867047076756432
14.4070058493256408 -2.9541033453423786 4.7313613782825090
14.4309016889480244 -2.7317151258161942 4.7752107515742459
14.4534123990649679 -2.5062821605111836 4.8171809685095948
14.4718072972953422 -2.2747763249797899 4.8569197763083825
14.4836898360345412 -2.0356173926245908 4.8944417688272512
14.4869952293984401 -1.7927737800134373 4.9298688574346130
14.4802969966775610 -1.5542405029059054 4.9636636052972936
14.4634781100892571 -1.3258763186657276 4.9968396778475253
14.4378617728487928 -1.1080851722149383 5.0305224953084231
14.4052780228413084 -0.8973565004252642 5.0654740991285578
14.3667934399749448 -0.6894217673914582 5.1021950061585795
14.3220216525886883 -0.4813651524315645 5.1413182368662387
14.2693253279140890 -0.2721590498816404 5.1837280860724100
14.2068579079677484 -0.0621989866439385 5.2301186172309109
14.1340300559008334 0.1474323010769680 5.2801993180860745
14.0524035027973433 0.3555653261070830 5.3322532073311741
13.9651590725704047 0.5616271937210442 5.3837007047805070
13.8755933192798508 0.7666836754347379 5.4324383571029884
13.7861243888543594 0.9739204383343392 5.4777755929060312
13.6985109372980389 1.1873012878652105 5.5200722533908806
13.6143965352809406 1.4090976043553631 5.5596369086214832
13.5353747240971494 1.6382098690472766 5.5960846107717455
13.4628091708856683 1.8704607354832632 5.6285371186692128
13.3977092836241418 2.1008301743025442 5.6561924709575511
13.3405243218779894 2.3263971041092901 5.6787693697403867
13.2908950331686455 2.5476246299638312 5.6966650213678189
13.2475415997756532 2.7668039554254946 5.7108691015539943
13.2081968365441842 2.9855572858563306 5.7228749768042366
13.1696715530383504 3.2036615142250433 5.7347135240066951
13.1286739268703343 3.4197245303890860 5.7487570272016253
13.0834985013183633 3.6329513387006678 5.7670114129272410
13.0351831955904771 3.8444038076084688 5.7904113409938898
12.9868488452845341 4.0562962677058678 5.8187995033730129
12.9420570746694104 4.2698678347874477 5.8514033401030243
12.9035988912793957 4.4842320992783975 5.8873021030881141
12.8730189220447002 4.6974706798422048 5.9257453159897562
12.8506498451763900 4.9081235262933340 5.9662440928520315
12.8359304065870035 5.1149412065992443 6.0083339885441429
12.8277609327890350 5.3157702711218420 6.0512843913074992
12.8247356696174641 5.5089333423449212 6.0944519681380793
12.8252352569950325 5.6978706412495121 6.1384065913818890
12.8273173035396386 5.8928915003452360 6.1853699181401378
12.8283015746035485 6.1037026696317440 6.2374460946864811
12.8243894665290927 6.3290651430273428 6.2941837680655777
12.8110744588369716 6.5576872368408239 6.3528958998864287
12.7844979833184649 6.7792634044118714 6.4113834448299620
12.7428703063327156 6.9908171578781690 6.4693578714179996
12.6868879805054871 7.1943229101200004 6.5276777748419423
12.6189531578529301 7.3926273933537985 6.5871528532799495
12.5420552968390329 7.5878108498654804 6.6478507379601499
12.4590026110524619 7.7812657266581908 6.7089591631881191
12.3720012560095931 7.9740996638913693 6.7691077253082259
12.2825111173545487 8.1671901605654611 6.8268361728714115
12.1914259835784300 8.3609949230587333 6.8809123977390882
12.0994234727334451 8.5556672881090883 6.9304802669446612
12.0072282517560662 8.7512888703441547 6.9750597351670613
11.9155441774117179 8.9478682042166611 7.0145178005850415
11.8245193739316559 9.1456025263878651 7.0492059761772214
11.7334115547998525 9.3451465486214715 7.0799764064722233
11.6412120594415089 9.5468842929673023 7.1077946342247795
11.5476654937412864 9.7497657600976630 7.1334196503568190
11.4534899727635260 9.9513486032574363 7.1576587257414168
11.3595756027871602 10.1493933380114143 7.1819603050639849
11.2662470050187515 10.3433260022410849 7.2085891971349394
11.1735216024947714 10.5340169278483700 7.2399990836148600
11.0817542622927085 10.7225877236158844 7.2779387959019015
10.9915969704970102 10.9096340319072667 7.3230611589128269
10.9033528518967202 11.0951171650727254 7.3750632253170938
10.8164009238408880 11.2784879944353591 7.4329612696638367
10.7288857177783239 11.4589341242614715 7.4953798744876163
10.6378158214900065 11.6355249726749115 7.5608324704479504
10.5399305366900524 11.8071488243439369 7.6278346627499811
10.4331644496897571 11.9729307005218146 7.6947903627649250
10.3176608962634262 12.1332642462250959 7.7598656997973698
10.1952296479074338 12.2900811484213719 7.8213087352876514
10.0676349346528209 12.4455184759806201 7.8782817034893569
9.9355501296545405 12.6004631880528848 7.9312853142311166
9.7991772753302655 12.7546031021563380 7.9812837981615541
9.6596035759355274 12.9076725468887972 8.0281447762566422
9.5193005483759023 13.0605196567987107 8.0700491237066245
9.3812673235326294 13.2149716840298765 8.1046506881949139
9.2475963143552367 13.3726763642533157 8.1309774255411273
9.1185259490675570 13.5339568133262773 8.1504339991145507
8.9924809397550636 13.6976170067701446 8.1662390186634202
8.8669408886044589 13.8617627453627819 8.1819508068312494
8.7396225451011063 14.0246778292217442 8.2001684311268921
8.6092621775621598 14.1849701070126670 8.2220737824506873
8.4754545798291314 14.3411904605740617 8.2478507212700212
8.3378384523070181 14.4915397922272859 8.2774041726233758
8.1954875065779493 14.6340318643133287 8.3106270277032106
8.0470483536760344 14.7671290742589321 8.3469527106075407
7.8914584553603984 14.8905538902116277 8.3847241591381607
7.7286407561322825 15.0057454736625573 8.4212768638757964
7.5596834397324360 15.1155176106236837 8.4540430830984672
7.3864255470355173 15.2229446052387232 8.4819358974973866
7.2106683116407169 15.3302193329414465 8.5058522356686304
7.0334329456105271 15.4384350446717562 8.5278783040936403
6.8548136009320597 15.5481169024071093 8.5498772426801715
6.6745535096370503 15.6594435273366201 8.5723582819955997
6.4925096004976988 15.7718765248224457 8.5940516152528161
6.3084453471373809 15.8836588790586575 8.6122145925650848
6.1217901287037542 15.9913892891738314 8.6236498039301939
5.9318580570670090 16.0899573382578112 8.6261934907551581
5.7381581307797482 16.1734160778787341 8.6197825986324013
5.5404654204877453 16.2367962200580891 8.6061824734764105
5.3387684060946246 16.2778629557998471 8.5877521802474881
5.1333896694359300 16.2976945801690860 8.5665365159085169
4.9251690653379150 16.3002393524394904 8.5440869383522848
4.7153964376523865 16.2915931349234882 8.5215238182674806
4.5055063553772126 16.2788220088716500 8.4997153120818023
4.2966290202252733 16.2679832106442177 8.4795109950721628
4.0892354461509548 16.2623266863242719 8.4614568684431397
3.8831695734718359 16.2621329387166327 8.4451074785112876
3.6780632613941915 16.2662378548030659 8.4290266958548639
3.4736803057488377 16.2738067488277593 8.4117134024877434
3.2699224078937323 16.2851365324898225 8.3924789061783365
3.0666564603916102 16.3014643530120722 8.3716572776225266
2.8636480688734158 16.3242049782700107 8.3503418933248206
2.6605436818505011 16.3541721222420051 8.3299777625366218
2.4568390088965435 16.3914582480513289 8.3119479134183631
2.2521305978689021 16.4358948143445289 8.2970282976886178
2.0467459540842041 16.4873548353871087 8.2848588854326497
1.8420992862762406 16.5454573654501118 8.2740588473229852
1.6399011182129994 16.6090242554296026 8.2631014515071115
1.4408398110961202 16.6757870852941252 8.2511419782104394
1.2442364141097886 16.7423641211003087 8.2380908127022021
1.0486893612889410 16.8042611457442987 8.2241964759224651
0.8528250595481373 16.8560637631573869 8.2096720284931965
0.6557522215234238 16.8924325006423217 8.1944355448766260
0.4572344105485920 16.9097274250426963 8.1781852582671970
0.2575757616695045 16.9072955919721366 8.1609618622071167
0.0572952206844112 16.8877998347917426 8.1435221645715057
-0.1432414075155138 16.8563392728058474 8.1270118914210272
-0.3441259766536124 16.8185957009088156 8.1123177402106936
-0.5460262668507447 16.7789882381657165 8.0995829531789543
-0.7499209822284822 16.7397479822650510 8.0880322057039766
-0.9564587337529316 16.7011250349819491 8.0760387811145371
-1.1653108645372272 16.6623699342892380 8.0613539836575754
-1.3749862047470023 16.6227430349801963 8.0415542872031498
-1.5833787017404626 16.5818735252300229 8.0146959263318660
-1.7887410093256153 16.5394289729003816 7.9799760344655386
-1.9903831650858583 16.4946184784626908 7.9381164747556738
-2.1886710731787629 16.4461731045608133 7.8911531173514842
-2.3843577416276025 16.3930542056728967 7.8415520849189662
-2.5779306864091396 16.3351651608524335 7.7911486331911064
-2.7695001437757587 16.2729891794042913 7.7406726597072240
-2.9589675242019426 16.2063621081468270 7.6900933786236738
-3.1461273351945573 16.1340782883904339 7.6392260868404680
-3.3309572484671794 16.0551348831854952 7.5880276993168838
-3.5141272720794792 15.9701256576427895 7.5365663355270716
-3.6970908454028648 15.8811704682859869 7.4849609332229985
-3.8815253847689588 15.7907577457117867 7.4334759614761392
-4.0685800850501082 15.7009055142155063 7.3826706989914150
-4.2584595421446396 15.6129653050007633 7.3334557670106530
-4.4505944850455821 15.5273840942275640 7.2871711654348630
-4.6443821566262038 15.4434371799294325 7.2455479760913732
-4.8397735866668077 15.3599949097443726 7.2102348346844476
-5.0372090372646152 15.2773281194774100 7.1820026205955383
-5.2372565002307816 15.1981087254720464 7.1602515621861134
-5.4402116828613103 15.1264068334104778 7.1433715249318741
-5.6459506816792553 15.0656573641572749 7.1296122316515902
-5.8542115660960281 15.0171846162731342 7.1176751403446961
-6.0646645308393179 14.9798658268106450 7.1067923875625230
-6.2765080686851267 14.9503860863839790 7.0965791975787926
-6.4881142950481125 14.9234080533291760 7.0869272300282393
-6.6969725421339774 14.8916916567968656 7.0779687225906631
-6.8999042590437227 14.8468045829597131 7.0699362653237134
-7.0935175994656205 14.7809904552497855 7.0627877475683807
-7.2749356342722358 14.6897448104912129 7.0558914927491667
-7.4426444329497876 14.5734228763239599 7.0483011048744935
-7.5972633126368088 14.4366146692266284 7.0393540961254235
-7.7417609475911116 14.2860203514201842 7.0286117969096598
-7.8805078777650444 14.1283036483078490 7.0152423826712056
-8.0175408379345576 13.9685621874834922 6.9980686723411001
-8.1553577841647034 13.8095819495404868 6.9765837565507294
-8.2947924208070614 13.6521055374929290 6.9516318354936661
-8.4354880095241800 13.4957761475693658 6.9249140742411175
-8.5764609873270725 13.3400546919978211 6.8978573971788411
-8.7165826263847848 13.1845408804397621 6.8707769466739279
-8.8547711334168557 13.0286332424861016 6.8428708966765495
-8.9898447514026341 12.8710871645603575 6.8129392130238475
-9.1202729973156007 12.7102411294823767 6.7801582581179005
-9.2443408252064430 12.5447419886261144 6.7442493560822747
-9.3607546221947082 12.3739842180363624 6.7051395678835579
-9.4690157889056970 12.1980258082086976 6.6627926250793923
-9.5692451663108429 12.0173510910305836 6.6174744243962316
-9.6617177486522809 11.8327418198771603 6.5701328670046752
-9.7464870219843913 11.6449528846964299 6.5224558104560213
-9.8232001983660311 11.4542432191069992 6.4763985335769920
-9.8912532036887253 11.2603471242232835 6.4332311784098568
-9.9505758102563959 11.0630125420816299 6.3925947785744430
-10.0025906423547699 10.8625923154779045 6.3525467233719208
-10.0502829841767891 10.6601454329860204 6.3109062761853441
-10.0972601462197442 10.4571569146841270 6.2666940633639481
-10.1468363559516010 10.2552141673223431 6.2204519497079040
-10.2016835048655814 10.0556558661805475 6.1736755972504920
-10.2636231696521030 9.8589987894448257 6.1281702704917063
-10.3334556324135161 9.6646019659482825 6.0855736427702407
-10.4112816740519634 9.4711029840725800 6.0469190044685295
-10.4971685273662807 9.2773738608335137 6.0123361248633831
-10.5913833590821458 9.0831770379306462 5.9810713424344240
-10.6939156855150159 8.8888911179457608 5.9518052889869537
-10.8037571809020374 8.6950573927391908 5.9231205617863285
-10.9186809434180851 8.5026804930128961 5.8939186244030974
-11.0360342018855757 8.3134379160031493 5.8635286383308323
-11.1540257147235096 8.1288085802194381 5.8314930925078432
-11.2721331510024303 7.9488132486113976 5.7974108542840685
-11.3901190811138022 7.7716795624297745 5.7611057489246296
-11.5070011070262659 7.5949154725036578 5.7228069108081119
-11.6216427916769316 7.4169680256694441 5.6828402782163376
-11.7339821352577918 7.2378674093124395 5.6411623520720457
-11.8445107629373023 7.0583344983037755 5.5975506440986269
-11.9528471232572837 6.8785911908422683 5.5521562587309674
-12.0572662524598755 6.6979351374897362 5.5057118927362581
-12.1548918439886631 6.5151561967216054 5.4594211510632480
-12.2419571473481241 6.3290377951771042 5.4146457057186073
