-22.348953 -20.186289 15.416516
-22.724890 -20.143120 15.428726
-23.092525 -20.061171 15.405202
-23.403000 -19.760588 15.225438
-23.190588 -17.361307 13.559272
-23.714954 -18.427673 14.205887
-24.239910 -19.362022 14.856266
-24.509371 -19.375408 14.817327
-24.772091 -19.381876 14.769807
-25.065556 -19.419582 14.751983
-25.375271 -19.438763 14.721311
-25.691549 -19.405088 14.639852
-25.982155 -19.340389 14.528122
-26.272409 -19.245661 14.383989
-26.572111 -19.126026 14.213947
-26.884214 -18.980139 14.017746
-27.185354 -18.823324 13.801191
-27.458174 -18.670433 13.569798
-27.698584 -18.519108 13.322641
-27.901684 -18.367882 13.059413
-28.088947 -18.221468 12.791291
-28.232668 -18.077396 12.515974
-28.356522 -17.931768 12.230564
-28.456909 -17.785896 11.942475
-28.527475 -17.638216 11.651502
-28.577782 -17.488695 11.361818
-28.612669 -17.337509 11.079498
-28.627844 -17.178036 10.795569
-28.567705 -17.013435 10.505632
-28.491203 -16.842901 10.221759
-28.456022 -16.659555 9.951862
-28.477631 -16.456879 9.695115
-28.491217 -16.236427 9.443225
-28.565817 -15.988848 9.205547
-28.651060 -15.716995 8.975142
-28.645723 -15.429139 8.739565
-28.593157 -15.118316 8.506126
-28.538866 -14.801664 8.293674
-28.489767 -14.494209 8.110690
-28.442787 -14.193238 7.953175
-28.397633 -13.894462 7.817182
-28.351524 -13.598752 7.701456
-28.299191 -13.303522 7.603848
-28.239502 -13.008084 7.522755
-28.170732 -12.712597 7.456470
-28.093801 -12.417137 7.403535
-28.007156 -12.121086 7.361892
-27.907335 -11.826325 7.328701
-27.790424 -11.534076 7.301028
-27.659613 -11.242070 7.276672
-27.529844 -10.942480 7.255152
-27.399534 -10.636089 7.234055
-27.264826 -10.322288 7.210859
-27.133787 -9.996835 7.184615
-27.020714 -9.654499 7.155471
-26.922558 -9.296034 7.121103
-26.843716 -8.919997 7.080189
-26.780666 -8.538491 7.037504
-26.721020 -8.177933 7.006253
-26.672518 -7.834096 6.987041
-26.632017 -7.503707 6.977992
-26.609751 -7.183451 6.979634
-26.593046 -6.872031 6.988226
-26.571741 -6.566352 7.000700
-26.548397 -6.264280 7.016147
-26.527128 -5.963593 7.033626
-26.509041 -5.661677 7.051619
-26.492556 -5.353884 7.068494
-26.474962 -5.039040 7.082227
-26.439672 -4.713934 7.089008
-26.407299 -4.371223 7.090331
-26.335091 -4.015432 7.078576
-26.247675 -3.638940 7.055862
-26.132442 -3.277194 7.023402
-26.013868 -2.939860 6.987288
-25.905664 -2.617110 6.949904
-25.778002 -2.318300 6.907346
-25.651407 -2.031938 6.863007
-25.526491 -1.752630 6.817378
-25.389429 -1.485710 6.768768
-25.250170 -1.222968 6.719103
-25.109554 -0.961050 6.668907
-24.958277 -0.702166 6.616814
-24.804594 -0.438529 6.564571
-24.644962 -0.168908 6.511741
-24.478754 0.110170 6.458418
-24.307253 0.404307 6.405198
-24.131441 0.716172 6.352722
-23.955866 1.052796 6.302360
-23.788057 1.398375 6.256012
-23.629198 1.722816 6.213982
-23.474066 2.028829 6.175483
-23.327896 2.322312 6.141674
-23.188908 2.606180 6.112248
-23.059647 2.883787 6.087330
-22.939655 3.159959 6.066034
-22.829927 3.437179 6.047795
-22.732147 3.719615 6.031559
-22.655111 4.014650 6.016277
-22.593487 4.327110 5.999701
-22.526312 4.651511 5.978646
-22.443510 4.990010 5.955112
-22.342752 5.345793 5.928881
-22.212519 5.712402 5.899525
-22.073660 6.054067 5.871655
-21.930452 6.367297 5.845999
-21.777143 6.653797 5.821768
-21.624374 6.924501 5.798815
-21.460096 7.177889 5.776124
-21.300201 7.429908 5.753900
-21.149681 7.689450 5.731852
-20.999077 7.956984 5.709578
-20.855459 8.242467 5.686544
-20.705210 8.546165 5.661279
-20.538721 8.869441 5.632508
-20.367144 9.218625 5.601270
-20.214149 9.558472 5.573518
-20.101751 9.887903 5.551361
-20.013660 10.208518 5.532824
-19.937071 10.518387 5.516669
-19.877232 10.821173 5.500679
-19.830030 11.120008 5.483281
-19.795050 11.418372 5.464365
-19.751781 11.717777 5.442777
-19.693390 12.022491 5.417556
-19.622269 12.339735 5.387942
-19.516403 12.669341 5.352662
-19.369249 13.010728 5.310410
-19.210749 13.358891 5.264287
-19.045168 13.673517 5.219227
-18.871063 13.959200 5.174670
-18.698307 14.225442 5.130172
-18.510332 14.473027 5.084679
-18.303642 14.696585 5.036710
-18.083492 14.903607 4.985688
-17.860456 15.110903 4.931683
-17.619610 15.313788 4.873258
-17.366352 15.522172 4.809997
-17.089735 15.738061 4.741157
-16.779699 15.965934 4.665193
-16.484346 16.208288 4.586000
-16.231504 16.459625 4.509495
-16.015383 16.716728 4.436137
-15.823646 16.972525 4.365347
-15.643044 17.220861 4.296290
-15.471311 17.464329 4.229160
-15.317496 17.713816 4.164232
-15.164068 17.961061 4.098447
-15.001911 18.204361 4.032228
-14.848172 18.463768 3.967741
-14.677435 18.722065 3.903622
-14.487164 18.984266 3.840065
-14.268880 19.247919 3.776742
-14.023549 19.518297 3.713872
-13.752725 19.789822 3.652767
-13.487118 20.029245 3.601266
-13.225361 20.232855 3.559030
-12.969135 20.413582 3.525017
-12.712382 20.575052 3.497546
-12.454678 20.729254 3.475511
-12.188249 20.878418 3.457129
-11.907228 21.024170 3.440569
-11.605544 21.168791 3.424054
-11.278426 21.318527 3.406076
-10.929233 21.485838 3.386358
-10.604198 21.659342 3.371608
-10.299942 21.814880 3.361563
-10.017732 21.968048 3.356176
-9.749592 22.118601 3.354287
-9.481063 22.253056 3.353813
-9.210337 22.382401 3.354378
-8.930220 22.508051 3.354942
-8.632085 22.627501 3.354187
-8.307803 22.737442 3.350738
-7.952329 22.843925 3.343880
-7.579345 22.928341 3.332626
-7.239994 22.988359 3.319854
-6.923936 23.016111 3.305382
-6.621773 23.037682 3.291274
-6.322399 23.044538 3.277162
-6.014625 23.057707 3.264753
-5.689003 23.044918 3.252026
-5.335048 23.047674 3.242117
-4.949743 23.056696 3.234241
-4.589053 23.068703 3.225246
-4.259505 23.056158 3.213947
-3.950074 23.051037 3.204324
-3.649965 23.051481 3.197999
-3.349557 23.044027 3.195777
-3.038328 23.032063 3.199641
-2.705704 23.009840 3.210939
-2.340279 22.967964 3.230765
-1.958799 22.947023 3.262314
-1.611592 22.929806 3.301481
-1.291096 22.917830 3.346784
-0.987660 22.922291 3.397487
-0.692313 22.943367 3.452092
-0.396864 22.951813 3.507030
-0.091781 22.957256 3.561460
0.232327 22.970434 3.614614
0.584966 22.984934 3.664528
0.964503 23.034113 3.711853
1.301711 23.123278 3.754567
1.601449 23.219875 3.790130
1.892282 23.300953 3.817093
2.196490 23.339092 3.833704
2.519798 23.371817 3.842742
2.880754 23.394215 3.844029
3.258570 23.369997 3.835403
3.595824 23.330330 3.819935
3.906814 23.286621 3.799248
4.202412 23.235106 3.773892
4.496438 23.181923 3.745110
4.799268 23.122505 3.713401
5.123731 23.065763 3.680203
5.482848 23.031582 3.647725
5.867332 23.037788 3.617385
6.217263 23.055843 3.586085
6.540196 23.077999 3.554187
6.848070 23.092512 3.521935
7.150146 23.088026 3.489599
7.454445 23.069565 3.458595
7.767740 23.034580 3.429807
8.098666 22.980062 3.404089
8.452901 22.883022 3.380899
8.818191 22.767794 3.362546
9.137367 22.621857 3.347343
9.422694 22.467171 3.336137
9.690847 22.317259 3.329190
9.949670 22.164038 3.325264
10.205550 22.008558 3.323757
10.472310 21.856588 3.324393
10.754580 21.704014 3.326210
11.070926 21.576077 3.330294
11.407730 21.432291 3.333138
11.774301 21.303284 3.335587
12.126457 21.214497 3.336613
12.457603 21.146002 3.336084
12.769024 21.075895 3.334231
13.067186 20.996264 3.332262
13.359627 20.907372 3.331959
13.650234 20.805197 3.334805
13.933776 20.670546 3.341219
14.223739 20.513844 3.353694
14.519914 20.324747 3.373267
14.828499 20.099550 3.401254
15.112215 19.853102 3.432045
15.362961 19.609009 3.463498
15.594731 19.373686 3.496327
15.816259 19.152573 3.531184
16.013248 18.922680 3.566731
16.198792 18.691027 3.603728
16.376534 18.454926 3.642251
16.563005 18.221235 3.683057
16.759165 17.987572 3.726242
16.966871 17.749262 3.771754
17.187410 17.503250 3.819645
17.434200 17.257561 3.870743
17.699816 17.000355 3.924499
17.983082 16.737188 3.980698
18.246090 16.491482 4.035924
18.489643 16.263514 4.089949
18.716314 16.045858 4.143013
18.927780 15.829295 4.195224
19.132721 15.613004 4.247288
19.324060 15.381813 4.298897
19.505760 15.131746 4.350533
19.683369 14.856867 4.402534
19.868433 14.554579 4.455481
20.058268 14.219980 4.508780
20.227245 13.892638 4.558836
20.374662 13.579650 4.605369
20.502865 13.275649 4.648569
20.601097 12.974986 4.688607
20.688519 12.680705 4.726263
20.771347 12.390876 4.761968
20.849516 12.102098 4.796046
20.918554 11.809497 4.828724
20.986088 11.511407 4.860455
21.055990 11.204118 4.891539
21.142872 10.885427 4.922389
21.241718 10.552086 4.953346
21.348806 10.194969 4.984338
21.487968 9.832586 5.015612
21.642065 9.502120 5.044968
21.797216 9.194424 5.071704
21.951414 8.903620 5.095759
22.105932 8.626365 5.117252
22.261139 8.359966 5.136334
22.417166 8.100756 5.153105
22.570570 7.843100 5.167515
22.736336 7.593853 5.180392
22.910391 7.342832 5.191370
23.104010 7.082094 5.200244
23.297230 6.801353 5.206644
23.493324 6.488858 5.210046
23.677914 6.142227 5.210136
23.838583 5.805473 5.206406
23.963488 5.478919 5.198673
24.061771 5.165594 5.187434
24.127394 4.854919 5.172516
24.178276 4.550527 5.155159
24.218096 4.249212 5.135827
24.248161 3.948142 5.114812
24.264576 3.640221 5.091551
24.273602 3.323251 5.066598
24.275234 2.991736 5.039587
24.266453 2.639047 5.009677
24.254080 2.258752 4.977122
24.238974 1.867070 4.939935
24.226246 1.503474 4.896038
24.220221 1.163115 4.848364
24.218517 0.838221 4.798568
24.230207 0.526650 4.750495
24.248810 0.221359 4.704165
24.276901 -0.081706 4.662084
24.318810 -0.385571 4.627379
24.375990 -0.688698 4.602315
24.451630 -1.000932 4.589130
24.554371 -1.319054 4.592784
24.685442 -1.644060 4.615371
24.830376 -1.983198 4.654421
24.986567 -2.337775 4.709633
25.141418 -2.672668 4.771942
25.283617 -2.989856 4.836793
25.420746 -3.291020 4.905780
25.546041 -3.581181 4.976135
25.652033 -3.870585 5.044791
25.742788 -4.162224 5.112218
25.838932 -4.445891 5.183965
25.939655 -4.725999 5.259424
26.041363 -5.006627 5.337105
26.152256 -5.283726 5.419192
26.272961 -5.558501 5.505430
26.397318 -5.837769 5.593643
26.540686 -6.112843 5.688852
26.720152 -6.373478 5.796513
26.947811 -6.615635 5.920291
27.214430 -6.853405 6.056567
27.515606 -7.092549 6.201807
27.820473 -7.329315 6.339778
28.090046 -7.559076 6.455317
28.325325 -7.793031 6.552490
28.536909 -8.027158 6.636338
28.732147 -8.260778 6.712312
28.906191 -8.505311 6.781826
29.066002 -8.758708 6.848834
29.211563 -9.019536 6.915596
29.352213 -9.286824 6.986542
29.487276 -9.560853 7.062676
29.621292 -9.840435 7.146013
29.761061 -10.124763 7.238556
29.888319 -10.425468 7.338918
29.990261 -10.757494 7.448461
30.070190 -11.116283 7.567842
30.134789 -11.480134 7.690930
30.195244 -11.817245 7.807569
30.252563 -12.135340 7.919919
30.304289 -12.435880 8.027925
30.352255 -12.725107 8.134253
30.392099 -13.007881 8.239919
30.427694 -13.286758 8.347030
30.455378 -13.565371 8.456244
30.473715 -13.844853 8.567983
30.495462 -14.126972 8.686189
30.514065 -14.414726 8.810558
30.542627 -14.708679 8.944642
30.576616 -15.011921 9.088593
30.605541 -15.328471 9.241191
30.630646 -15.661777 9.403997
30.653547 -16.010723 9.577056
30.674072 -16.336943 9.745186
30.715994 -16.630621 9.911613
30.753855 -16.903419 10.074886
30.786856 -17.161404 10.237884
30.823336 -17.407959 10.405132
30.857954 -17.650146 10.578921
30.894955 -17.892414 10.763704
30.934328 -18.141331 10.963241
30.975416 -18.404314 11.181103
31.011040 -18.690634 11.418795
31.046835 -18.989954 11.667866
31.074278 -19.276575 11.906500
30.941767 -19.582193 12.131889
30.887190 -19.849316 12.368294
30.909067 -20.083969 12.596370
31.041012 -20.297482 12.821226
31.101156 -20.513556 13.041421
31.136528 -20.729118 13.257344
31.125000 -20.944540 13.469223
31.113104 -21.167665 13.676697
31.084837 -21.411844 13.879081
30.993967 -21.661596 14.077639
30.842480 -21.916882 14.272585
30.629070 -22.174376 14.462522
30.390079 -22.404037 14.610261
30.123236 -22.578733 14.707306
29.838947 -22.724642 14.758923
29.533457 -22.847862 14.771775
29.204218 -22.930548 14.754541
28.858311 -22.997095 14.716209
28.500706 -23.001314 14.663824
28.130386 -22.978346 14.600948
27.753571 -22.914057 14.529767
27.369564 -22.813791 14.450531
27.075542 -22.691700 14.341413
26.837450 -22.590185 14.194507
26.612236 -22.483969 14.019958
26.372686 -22.346239 13.825372
26.097183 -22.194201 13.636780
25.803743 -22.032400 13.472248
25.544369 -21.893553 13.347983
25.300385 -21.757999 13.238741
25.045101 -21.610947 13.118499
24.754766 -21.436495 12.961843
24.463415 -21.266476 12.798463
24.186941 -21.118107 12.647100
23.937040 -20.963675 12.496999
23.725092 -20.774910 12.336735
23.538805 -20.564722 12.171014
23.310966 -20.428349 12.034460
23.086700 -20.291424 11.899538
22.825386 -20.200108 11.780833
22.502649 -20.166719 11.679070
22.160887 -20.111071 11.563569
21.838381 -19.984608 11.419502
21.527712 -19.815870 11.258410
21.253534 -19.642792 11.100462
21.014860 -19.462711 10.945088
20.797054 -19.284216 10.795168
20.591921 -19.107422 10.650859
20.393129 -18.930147 10.511667
20.197765 -18.746107 10.375616
20.000153 -18.551147 10.241385
19.796663 -18.338860 10.106748
19.585974 -18.103104 9.970024
19.364283 -17.838081 9.829364
19.157795 -17.545856 9.692236
18.999607 -17.254780 9.579808
18.872795 -16.969563 9.488887
18.762344 -16.694393 9.415251
18.660837 -16.422598 9.351153
18.559690 -16.146275 9.288375
18.454086 -15.855254 9.218132
18.342268 -15.538780 9.131859
18.230326 -15.191434 9.022582
18.144646 -14.835417 8.902066
18.093193 -14.495410 8.784088
18.054132 -14.171752 8.669120
18.012089 -13.863028 8.557871
17.972967 -13.563538 8.449306
17.940350 -13.271265 8.343431
17.916805 -12.984108 8.239855
17.900085 -12.699982 8.138347
17.889639 -12.416687 8.038623
17.889835 -12.131648 7.939147
17.897333 -11.842750 7.839376
17.912212 -11.546992 7.738027
17.933187 -11.238729 7.633435
17.960857 -10.918157 7.525403
18.001575 -10.579436 7.410241
18.047613 -10.217607 7.288071
18.102194 -9.842545 7.159841
18.152067 -9.485972 7.035213
18.195213 -9.146539 6.915241
18.223475 -8.821281 6.802351
18.237471 -8.507298 6.696724
18.231541 -8.203418 6.600474
18.205261 -7.905223 6.513130
18.159479 -7.611466 6.435079
18.101997 -7.320098 6.364314
18.035862 -7.031262 6.300415
17.962137 -6.738805 6.241445
17.884903 -6.442337 6.187363
17.805082 -6.139522 6.137792
17.721825 -5.828091 6.092832
17.635332 -5.506542 6.051945
17.539656 -5.170906 6.017103
17.437284 -4.819666 5.987660
17.329155 -4.450073 5.963112
17.215342 -4.080980 5.948652
17.105623 -3.738492 5.947542
17.001261 -3.418029 5.957327
16.904108 -3.114002 5.975376
16.811384 -2.820158 6.001267
16.725721 -2.534125 6.032726
16.645212 -2.249442 6.068498
16.565851 -1.962884 6.108809
16.484154 -1.671359 6.153647
16.400684 -1.371568 6.201287
16.315140 -1.059062 6.250273
16.226767 -0.730371 6.299407
16.119913 -0.387836 6.352694
15.990476 -0.028671 6.410038
15.850155 0.317636 6.473687
15.713955 0.634954 6.542087
15.589559 0.933019 6.610809
15.473403 1.217429 6.679677
15.366181 1.493950 6.746959
15.261176 1.766359 6.813284
15.158176 2.040599 6.877220
15.058026 2.322918 6.936946
14.960432 2.618381 6.990720
14.858243 2.930485 7.039217
14.755702 3.266330 7.079525
14.646134 3.629068 7.112008
14.539270 3.992288 7.130597
14.444611 4.325820 7.132030
14.368460 4.639272 7.117070
14.289098 4.935217 7.095010
14.208138 5.222922 7.068041
14.123906 5.509941 7.039526
14.025431 5.801435 7.015759
13.928101 6.108899 6.994576
13.823908 6.438393 6.981138
13.700899 6.794419 6.982190
13.568872 7.148802 6.999135
13.440600 7.467013 7.028509
13.328562 7.764194 7.061321
13.216318 8.044511 7.099726
13.113232 8.322556 7.136275
13.014423 8.606400 7.168625
12.907165 8.900896 7.197417
12.790789 9.215856 7.218716
12.663819 9.560735 7.228776
12.544721 9.927164 7.222062
12.443313 10.266204 7.208426
12.349751 10.581040 7.191092
12.255982 10.878151 7.172253
12.156607 11.163685 7.153094
12.057878 11.447147 7.126139
11.948906 11.733311 7.093845
11.807117 12.021788 7.070353
11.642633 12.322616 7.043754
11.434513 12.636186 7.028325
11.190812 12.923669 7.035466
10.967878 13.170426 7.026799
10.754839 13.394711 7.000598
10.539715 13.601277 6.965790
10.312657 13.800291 6.927569
10.070246 14.002729 6.885032
9.810026 14.221362 6.835495
9.531939 14.471230 6.773053
9.265271 14.709010 6.707361
9.027784 14.917076 6.635241
8.811896 15.111515 6.550285
8.589672 15.297004 6.464853
8.348640 15.492051 6.372484
8.053351 15.697007 6.292146
7.737018 15.881490 6.242126
7.443343 16.030441 6.216430
7.163964 16.155622 6.203711
6.888649 16.270784 6.192289
6.603189 16.384581 6.176465
6.294021 16.504755 6.150809
5.946788 16.634134 6.113854
5.604258 16.749968 6.066877
5.297610 16.826735 6.022581
5.001863 16.877241 5.985094
4.692550 16.911068 5.962094
4.342408 16.935852 5.962906
3.965157 16.956766 5.989806
3.637293 16.982672 6.017025
3.336548 17.016117 6.038846
3.038864 17.046679 6.060880
2.719762 17.081827 6.073331
2.356392 17.119190 6.073581
1.986420 17.156952 6.058751
1.659053 17.188612 6.035975
1.354255 17.202707 6.017539
1.054297 17.209051 6.000606
0.741442 17.209631 5.988428
0.400158 17.178398 6.004140
0.020896 17.137547 6.036199
-0.322437 17.095074 6.082126
-0.630167 17.056581 6.132591
-0.923829 17.016706 6.184564
-1.225904 16.984976 6.224962
-1.555227 16.961893 6.245919
-1.926504 16.910318 6.259910
-2.285470 16.888264 6.237324
-2.605277 16.863716 6.203817
-2.907829 16.828968 6.169517
-3.203100 16.818947 6.113718
-3.515761 16.810259 6.047900
-3.877434 16.792288 5.974441
-4.237282 16.725903 5.941222
-4.547114 16.634142 5.937644
-4.829374 16.525961 5.949261
-5.107798 16.401632 5.969107
-5.412801 16.271845 5.981400
-5.758552 16.122061 5.994644
-6.080875 15.976816 6.007510
-6.362991 15.838710 6.023049
-6.630206 15.704475 6.035883
-6.902305 15.548840 6.058102
-7.205491 15.347964 6.098297
-7.484404 15.117351 6.172461
-7.707897 14.891058 6.268072
-7.901103 14.672287 6.368701
-8.085807 14.456610 6.465639
-8.275071 14.235522 6.557486
-8.477257 13.999506 6.645972
-8.708391 13.743228 6.725907
-8.961728 13.464255 6.802618
-9.193769 13.206492 6.869320
-9.408119 12.970392 6.922859
-9.606871 12.741271 6.970998
-9.803702 12.519634 7.005406
-10.010771 12.298415 7.024445
-10.243544 12.060733 7.030699
-10.487788 11.781077 7.049222
-10.702529 11.475022 7.096915
-10.864404 11.183393 7.162796
-10.993447 10.905504 7.234076
-11.103352 10.632446 7.306538
-11.208445 10.357897 7.375033
-11.311971 10.071246 7.441198
-11.421806 9.762408 7.504001
-11.543203 9.419315 7.563856
-11.674091 9.061801 7.617624
-11.803405 8.734645 7.661373
-11.929002 8.431207 7.697457
-12.047804 8.143229 7.728677
-12.162520 7.864600 7.754840
-12.281639 7.592048 7.772997
-12.408198 7.319150 7.782588
-12.542780 7.037333 7.784423
-12.684332 6.736225 7.780389
-12.822412 6.405977 7.777241
-12.960509 6.043996 7.774316
-13.059475 5.691483 7.777837
-13.120430 5.359781 7.784534
-13.176072 5.048558 7.783080
-13.227227 4.749342 7.776711
-13.271231 4.453718 7.769049
-13.310139 4.154505 7.761447
-13.347875 3.844689 7.754535
-13.398622 3.518619 7.747414
-13.458275 3.168194 7.742614
-13.528131 2.788381 7.740931
-13.601728 2.418672 7.740055
-13.669954 2.070557 7.739625
-13.735785 1.740883 7.739408
-13.797630 1.425561 7.739563
-13.856605 1.121103 7.740058
-13.918708 0.825149 7.740556
-13.991598 0.535667 7.740531
-14.071114 0.247948 7.740195
-14.150343 -0.043404 7.739992
-14.227633 -0.342505 7.740063
-14.302421 -0.653298 7.740517
-14.372561 -0.979898 7.741634
-14.436228 -1.326258 7.743705
-14.489032 -1.696703 7.747257
-14.527786 -2.085635 7.751879
-14.554473 -2.453870 7.754423
-14.574197 -2.799930 7.754945
-14.594151 -3.127562 7.753629
-14.623877 -3.440895 7.750307
-14.659637 -3.743859 7.746238
-14.700315 -4.041465 7.742366
-14.743532 -4.337893 7.739769
-14.795462 -4.635620 7.738679
-14.850542 -4.940100 7.740736
-14.914996 -5.253916 7.746008
-14.991228 -5.580464 7.755094
-15.074183 -5.924790 7.769488
-15.167480 -6.290689 7.789723
-15.269620 -6.665063 7.813759
-15.370999 -7.018674 7.837319
-15.471395 -7.353866 7.860793
-15.573500 -7.672758 7.884266
-15.673824 -7.979219 7.908731
-15.780233 -8.273267 7.933303
-15.885399 -8.560004 7.959567
-15.992356 -8.840855 7.987307
-16.093460 -9.121228 8.018379
-16.208447 -9.396635 8.049095
-16.325539 -9.674085 8.081966
-16.432631 -9.960775 8.120056
-16.536077 -10.257085 8.162374
-16.641249 -10.564558 8.208143
-16.743160 -10.887207 8.258747
-16.836660 -11.229317 8.315747
-16.918989 -11.593818 8.380047
-16.987177 -11.973015 8.447091
-17.023125 -12.342094 8.506953
-17.039549 -12.698127 8.558811
-17.037590 -13.042061 8.605148
-17.033735 -13.376085 8.645508
-17.026390 -13.699517 8.682373
-17.019287 -14.015573 8.717986
-17.017485 -14.326219 8.753852
-17.023317 -14.633176 8.792080
-17.042900 -14.937494 8.835190
-17.077925 -15.239990 8.885344
-17.133154 -15.541087 8.944736
-17.190069 -15.840410 9.018867
-17.239059 -16.139423 9.111368
-17.278334 -16.440088 9.223989
-17.317972 -16.744600 9.357985
-17.367189 -17.054541 9.514803
-17.432774 -17.370947 9.696150
-17.511566 -17.691973 9.903451
-17.590033 -17.981577 10.124729
-17.672878 -18.232925 10.355020
-17.878788 -18.414742 10.579814
-18.109629 -18.544756 10.810561
-18.310753 -18.650093 11.054674
-18.437841 -18.752247 11.305759
-18.460258 -18.893141 11.576389
-18.505064 -19.025295 11.852684
-18.558224 -19.163746 12.137715
-18.631680 -19.307894 12.431349
-18.764734 -19.422123 12.716450
-18.919661 -19.542488 13.003375
-19.102810 -19.667606 13.289287
-19.314833 -19.801153 13.573044
-19.557693 -19.933617 13.850300
-19.805532 -20.042898 14.111639
-20.062475 -20.115526 14.351443
-20.323450 -20.158857 14.567724
-20.615681 -20.111557 14.738291
-20.913271 -20.037844 14.881710
-21.180809 -19.983519 14.997489
-21.426153 -20.018692 15.121375
-21.689827 -20.097012 15.245831
-21.993792 -20.188723 15.362105
