-25.780930 -15.920850 11.619466
-26.110369 -15.868476 11.679008
-26.450951 -15.777392 11.721086
-26.801880 -15.668885 11.766554
-27.156448 -15.532413 11.807964
-27.509308 -15.358912 11.838681
-27.846586 -15.203382 11.893380
-28.163509 -15.061123 11.961177
-28.461555 -14.922437 12.031486
-28.763212 -14.834008 12.144979
-29.027708 -14.662689 12.182666
-29.279537 -14.480060 12.206380
-29.503851 -14.260693 12.189390
-29.742090 -14.057901 12.182784
-29.986101 -13.842175 12.159096
-30.237940 -13.605716 12.110447
-30.508419 -13.348425 12.036997
-30.762619 -13.083041 11.931535
-30.976709 -12.829804 11.801284
-31.158695 -12.588757 11.653278
-31.312971 -12.357114 11.491163
-31.448072 -12.132375 11.319110
-31.569557 -11.909893 11.138766
-31.670664 -11.682271 10.948317
-31.763004 -11.446364 10.751495
-31.850563 -11.196777 10.549512
-31.916695 -10.927881 10.341563
-31.938442 -10.633137 10.124694
-31.930767 -10.312404 9.902862
-31.921778 -9.994281 9.686385
-31.907278 -9.697288 9.477642
-31.850189 -9.423478 9.268429
-31.825657 -9.161938 9.071790
-31.814104 -8.908167 8.884623
-31.800556 -8.658216 8.702362
-31.871429 -8.382121 8.556551
-31.924931 -8.100089 8.420076
-31.933329 -7.825246 8.280286
-31.909094 -7.556130 8.136909
-31.853378 -7.294624 7.984513
-31.798687 -7.022233 7.837974
-31.754997 -6.729979 7.704844
-31.680992 -6.440627 7.552783
-31.588823 -6.147845 7.385664
-31.468126 -5.855069 7.189087
-31.334814 -5.547677 6.975122
-31.209225 -5.237241 6.781425
-31.077969 -4.946964 6.608682
-30.939083 -4.672674 6.456026
-30.809717 -4.401985 6.336886
-30.692272 -4.127827 6.250774
-30.584705 -3.850009 6.190837
-30.488413 -3.564852 6.152312
-30.404680 -3.268192 6.130094
-30.338585 -2.953503 6.121692
-30.276402 -2.623026 6.113976
-30.203323 -2.278922 6.096553
-30.125441 -1.913615 6.071808
-30.033140 -1.533876 6.034966
-29.938379 -1.177905 5.999772
-29.852497 -0.844071 5.973584
-29.756618 -0.533406 5.947519
-29.670160 -0.232847 5.930979
-29.576542 0.056447 5.916245
-29.467012 0.336759 5.898928
-29.347466 0.614772 5.881667
-29.219334 0.895667 5.865025
-29.072323 1.179537 5.843824
-28.912592 1.474186 5.821046
-28.735876 1.783302 5.794653
-28.532463 2.106880 5.759758
-28.319199 2.423848 5.721650
-28.098898 2.708530 5.678913
-27.883844 2.972988 5.638203
-27.675680 3.223240 5.600759
-27.473516 3.463481 5.566499
-27.270826 3.692292 5.532223
-27.076132 3.921936 5.502945
-26.893137 4.160004 5.480900
-26.715931 4.403778 5.462842
-26.528852 4.641863 5.440543
-26.337551 4.882920 5.417279
-26.148218 5.136001 5.396492
-25.957680 5.401518 5.376691
-25.764135 5.681665 5.357252
-25.562880 5.977674 5.336385
-25.348900 6.289974 5.312110
-25.124825 6.607562 5.283482
-24.922329 6.912664 5.259068
-24.731525 7.203302 5.235376
-24.534687 7.476429 5.206030
-24.345663 7.740910 5.177666
-24.190149 8.012719 5.162171
-24.077961 8.296492 5.164120
-23.987694 8.584535 5.175256
-23.915218 8.879482 5.194893
-23.844810 9.180872 5.217735
-23.770662 9.492442 5.242580
-23.679964 9.814590 5.265330
-23.573210 10.153627 5.287410
-23.441151 10.507455 5.305654
-23.282249 10.861450 5.318094
-23.128038 11.188132 5.331840
-22.982450 11.494272 5.348273
-22.843023 11.785125 5.366302
-22.686537 12.050790 5.376278
-22.520351 12.301250 5.381529
-22.329685 12.533221 5.376992
-22.141338 12.772341 5.373703
-21.967075 13.033572 5.375943
-21.789513 13.312119 5.377381
-21.561447 13.587727 5.363358
-21.311342 13.887647 5.344454
-21.087532 14.198739 5.331183
-20.910795 14.509709 5.327474
-20.768555 14.815434 5.329421
-20.637915 15.109182 5.331254
-20.515961 15.393909 5.332840
-20.400507 15.672655 5.334116
-20.283985 15.946756 5.333774
-20.144217 16.214804 5.327701
-20.014736 16.490299 5.323210
-19.889805 16.781509 5.319355
-19.754232 17.090775 5.313318
-19.610207 17.430418 5.305987
-19.447897 17.793636 5.294878
-19.263514 18.120697 5.275050
-19.060612 18.406773 5.247551
-18.835979 18.649679 5.212707
-18.617908 18.876598 5.176839
-18.390308 19.082724 5.137730
-18.152880 19.268555 5.096026
-17.908840 19.443020 5.052975
-17.657610 19.612005 5.009026
-17.403841 19.788471 4.965822
-17.148438 19.980833 4.924458
-16.891577 20.195683 4.886046
-16.634737 20.439859 4.852108
-16.365194 20.704424 4.820616
-16.097351 20.983047 4.792070
-15.843161 21.237810 4.761887
-15.597892 21.469913 4.729846
-15.367000 21.692387 4.699528
-15.151021 21.912868 4.673844
-14.926212 22.113493 4.645630
-14.706857 22.316351 4.623448
-14.484544 22.520069 4.606929
-14.249622 22.721491 4.594390
-14.001347 22.927814 4.588987
-13.730973 23.136545 4.589144
-13.429408 23.343613 4.592411
-13.118845 23.576935 4.614770
-12.815050 23.774778 4.642413
-12.528723 23.947409 4.679641
-12.251651 24.095831 4.722975
-11.977274 24.222527 4.770346
-11.704491 24.340960 4.822828
-11.425550 24.452738 4.877203
-11.135373 24.564850 4.932416
-10.825935 24.675205 4.985770
-10.484045 24.769112 5.031252
-10.103515 24.840958 5.065134
-9.734567 24.897800 5.086100
-9.395241 24.946724 5.097142
-9.077524 24.989151 5.101372
-8.775570 25.037285 5.103608
-8.482009 25.097170 5.106095
-8.192645 25.185068 5.114867
-7.897676 25.273260 5.131921
-7.589342 25.350140 5.156809
-7.264095 25.428270 5.193998
-6.916022 25.510952 5.246019
-6.546502 25.604061 5.316161
-6.203742 25.691284 5.397905
-5.895250 25.780396 5.490953
-5.613092 25.875444 5.593503
-5.344356 25.967617 5.701231
-5.080008 26.059269 5.812718
-4.805413 26.135653 5.923253
-4.516729 26.212805 6.033089
-4.201066 26.277935 6.137899
-3.850695 26.336374 6.236255
-3.486984 26.383781 6.317963
-3.166616 26.420753 6.369717
-2.863841 26.421804 6.396888
-2.555505 26.406219 6.414104
-2.217979 26.369755 6.428294
-1.837775 26.302015 6.442752
-1.474324 26.208508 6.453393
-1.135901 26.101217 6.462362
-0.818187 25.987272 6.471991
-0.514395 25.895658 6.489784
-0.219440 25.824848 6.513740
0.076457 25.819183 6.550790
0.378415 25.862467 6.592852
0.689538 25.930496 6.632014
1.009279 25.974779 6.658800
1.338696 25.970312 6.671346
1.682654 25.924149 6.671216
2.052551 25.890890 6.666289
2.440999 25.877348 6.656044
2.795036 25.840271 6.630500
3.118085 25.786795 6.592158
3.415051 25.698351 6.536272
3.691751 25.566402 6.457250
3.961096 25.431133 6.363899
4.256180 25.400215 6.296080
4.571774 25.383469 6.234883
4.930449 25.432766 6.206059
5.320193 25.463194 6.177363
5.699793 25.473095 6.143577
6.031433 25.446888 6.094505
6.330378 25.389948 6.034904
6.612317 25.298492 5.971120
6.896319 25.199011 5.909336
7.195710 25.090067 5.838709
7.526530 24.976208 5.756485
7.883971 24.869274 5.664227
8.209112 24.772537 5.570862
8.503268 24.671974 5.475945
8.779683 24.574766 5.381799
9.043411 24.465336 5.287132
9.302947 24.341360 5.192760
9.572979 24.209890 5.102150
9.868638 24.077847 5.015522
10.195483 23.931971 4.931437
10.538536 23.773605 4.854817
10.853691 23.621569 4.796987
11.151529 23.484879 4.758466
11.437538 23.362955 4.734569
11.721170 23.265398 4.715201
12.000340 23.162588 4.695279
12.282146 23.050425 4.669736
12.576185 22.929722 4.634284
12.903593 22.818352 4.587343
13.290257 22.754717 4.530753
13.653277 22.662172 4.456311
13.978882 22.555832 4.371477
14.269521 22.423059 4.276646
14.544664 22.289574 4.178286
14.801894 22.140900 4.076494
15.043552 21.974682 3.974451
15.276397 21.798006 3.881094
15.510518 21.607943 3.788398
15.739759 21.392565 3.695772
15.973864 21.154049 3.607054
16.213875 20.883810 3.523121
16.467426 20.596430 3.452080
16.700445 20.319471 3.392040
16.912287 20.053011 3.341936
17.105753 19.792740 3.300284
17.281172 19.535841 3.265783
17.450191 19.284445 3.240285
17.611465 19.032545 3.221132
17.770769 18.779011 3.208114
17.927937 18.519268 3.199393
18.095116 18.256348 3.196185
18.276966 17.989315 3.197448
18.468836 17.710938 3.200504
18.672310 17.418312 3.204567
18.893877 17.111473 3.209602
19.127417 16.802179 3.217189
19.343210 16.514730 3.230667
19.535435 16.240147 3.248839
19.707403 15.973585 3.271339
19.870432 15.715896 3.298575
20.031227 15.464784 3.330253
20.188433 15.212377 3.365234
20.347567 14.955386 3.403166
20.512901 14.689524 3.443597
20.689651 14.410763 3.486248
20.868204 14.106444 3.528941
21.043224 13.767440 3.569811
21.205885 13.427487 3.607057
21.339087 13.103884 3.638738
21.456013 12.797421 3.667285
21.571392 12.508502 3.695694
21.672674 12.224359 3.722481
21.787336 11.950835 3.753159
21.905890 11.677279 3.786804
22.039150 11.402943 3.826128
22.184464 11.120482 3.871437
22.345547 10.826340 3.924084
22.521545 10.514566 3.984302
22.710133 10.181643 4.051991
22.880058 9.860884 4.122058
23.029339 9.561643 4.193079
23.165798 9.280122 4.265083
23.301464 9.014807 4.339376
23.440220 8.759893 4.415159
23.581938 8.507069 4.490522
23.724007 8.246386 4.562833
23.877220 7.975924 4.633323
24.027971 7.679439 4.695859
24.172504 7.347111 4.746378
24.321259 6.988192 4.786407
24.458918 6.645346 4.814158
24.573040 6.314896 4.826177
24.685997 6.004502 4.831735
24.792582 5.706225 4.829749
24.895487 5.416534 4.822130
25.009268 5.137923 4.816561
25.141523 4.869960 4.818066
25.295872 4.609324 4.830162
25.488039 4.360422 4.863588
25.708097 4.114375 4.916034
25.922768 3.848871 4.969986
26.113409 3.547942 5.013148
26.298645 3.216469 5.055298
26.493120 2.888346 5.107286
26.679472 2.584616 5.159664
26.855869 2.299084 5.210515
27.021847 2.025970 5.258566
27.179079 1.761250 5.304193
27.325172 1.497994 5.344373
27.465305 1.235519 5.382737
27.608658 0.976181 5.427157
27.755035 0.715117 5.477479
27.897398 0.442220 5.526700
28.039934 0.155954 5.578342
28.179298 -0.150666 5.628653
28.326927 -0.475112 5.688350
28.474590 -0.826871 5.749080
28.609545 -1.173373 5.811095
28.726515 -1.498249 5.873923
28.844646 -1.800741 5.950851
28.928062 -2.101347 6.005408
29.000086 -2.395000 6.056185
29.061922 -2.686062 6.101766
29.128202 -2.974915 6.151290
29.198650 -3.267952 6.201963
29.271790 -3.569225 6.250795
29.348505 -3.884989 6.297259
29.419771 -4.226267 6.334264
29.468462 -4.611407 6.348401
29.517881 -5.013236 6.353416
29.577398 -5.396607 6.358395
29.654408 -5.757334 6.369566
29.720774 -6.113175 6.368119
29.789942 -6.457756 6.363455
29.909567 -6.765415 6.391549
30.090223 -7.029644 6.463774
30.303707 -7.265841 6.562539
30.491240 -7.509348 6.643662
30.660160 -7.757919 6.712394
30.824459 -8.005960 6.779827
30.993816 -8.248690 6.854841
31.160931 -8.492251 6.932024
31.315376 -8.744641 7.002594
31.448835 -9.012552 7.058884
31.587971 -9.281211 7.125278
31.710733 -9.565314 7.181936
31.825920 -9.861223 7.237174
31.942017 -10.164996 7.299613
32.054958 -10.480609 7.365873
32.159401 -10.812629 7.430830
32.256554 -11.161677 7.495843
32.354458 -11.524529 7.569974
32.448040 -11.894757 7.650771
32.517467 -12.245631 7.725319
32.581303 -12.566962 7.816861
32.634758 -12.866800 7.921102
32.678726 -13.149808 8.040250
32.716686 -13.418983 8.179951
32.737041 -13.687264 8.325356
32.736626 -13.962437 8.471724
32.723911 -14.244274 8.630800
32.694424 -14.541524 8.795903
32.646069 -14.861687 8.962730
32.589874 -15.199928 9.145962
32.520401 -15.532702 9.306749
32.438423 -15.852611 9.437540
32.343048 -16.165070 9.536813
32.242832 -16.467953 9.621840
32.149792 -16.753227 9.723069
32.060902 -17.022549 9.847382
31.956676 -17.302948 9.951386
31.791206 -17.694141 9.883568
31.673685 -17.995327 10.003700
31.436554 -18.602213 9.724868
30.935301 -19.918095 10.055703
30.677080 -20.151911 10.729589
31.031385 -18.686876 12.148279
30.860308 -18.823723 12.391793
30.677498 -18.922884 12.640380
30.497757 -18.985773 12.902572
30.333220 -19.039385 13.190062
30.040854 -19.214649 13.321663
29.807348 -19.392889 13.539289
29.527887 -19.647394 13.473536
29.364010 -19.848740 13.455014
29.188492 -20.105753 13.439830
28.999222 -20.396774 13.361392
28.823919 -20.662195 13.187936
28.663271 -20.891855 12.854773
28.491919 -21.130053 12.669976
28.336296 -21.349144 12.503552
28.182337 -21.566715 12.359792
28.019955 -21.795509 12.203588
27.803801 -22.092762 12.194241
27.566343 -22.412786 12.232552
27.362671 -22.692760 12.255208
27.182537 -22.938820 12.259130
26.987768 -23.185678 12.261739
26.762657 -23.445120 12.280136
26.500031 -23.738836 12.332750
26.254581 -24.019833 12.386049
26.016127 -24.287294 12.379530
25.791941 -24.528921 12.277364
25.578680 -24.710217 12.094433
25.361950 -24.806673 11.834938
25.186905 -24.816898 11.479846
25.085619 -24.791119 11.123121
24.940073 -24.779766 10.839672
24.803701 -24.748720 10.568202
24.592945 -24.716120 10.325029
24.392502 -24.638607 10.069455
24.266539 -24.497265 9.795400
24.168308 -24.305300 9.520973
24.075602 -24.064133 9.251359
23.988686 -23.786598 8.998923
23.916870 -23.510376 8.788466
23.858717 -23.233555 8.614149
23.811979 -22.952707 8.469726
23.780371 -22.666578 8.349202
23.757984 -22.375483 8.246904
23.746197 -22.079693 8.155849
23.748674 -21.778309 8.068380
23.754892 -21.468071 7.978580
23.772697 -21.142593 7.877517
23.754534 -20.803476 7.766118
23.686590 -20.450609 7.639436
23.585249 -20.109983 7.511056
23.473175 -19.805456 7.400938
23.353386 -19.525770 7.305253
23.219891 -19.263649 7.221378
23.085672 -19.004536 7.144121
22.944311 -18.743462 7.070745
22.798880 -18.470526 6.996630
22.648516 -18.176632 6.916940
22.481043 -17.855492 6.825780
22.323435 -17.520874 6.728028
22.190973 -17.211576 6.635664
22.077555 -16.920105 6.548898
21.974695 -16.640432 6.467530
21.891861 -16.360960 6.393220
21.812746 -16.078007 6.324778
21.740040 -15.781715 6.261944
21.676001 -15.462106 6.204111
21.606665 -15.113123 6.151161
21.534262 -14.732265 6.103356
21.446333 -14.368007 6.062115
21.374004 -14.018403 6.025794
21.302860 -13.684793 5.994443
21.233616 -13.364305 5.967453
21.170067 -13.053348 5.943915
21.139765 -12.742704 5.920697
21.083595 -12.444309 5.901883
21.027563 -12.149030 5.884843
20.968737 -11.855030 5.869256
20.904570 -11.560435 5.854753
20.842564 -11.260777 5.839710
20.769314 -10.957189 5.825053
20.692724 -10.645070 5.809029
20.585112 -10.332742 5.795299
20.405361 -10.028230 5.789190
20.216194 -9.712601 5.781024
20.025749 -9.380365 5.768575
19.825340 -9.039329 5.753005
19.631395 -8.721433 5.735436
19.441282 -8.426549 5.716493
19.272318 -8.145235 5.693786
19.113577 -7.874318 5.669117
18.965309 -7.607957 5.642633
18.830658 -7.339222 5.614162
18.702921 -7.067840 5.585274
18.574221 -6.795264 5.557656
18.446121 -6.518295 5.531593
18.316008 -6.233774 5.507536
18.184080 -5.938637 5.485629
18.049398 -5.629393 5.466033
17.912949 -5.301199 5.448685
17.771755 -4.950587 5.433929
17.628487 -4.590881 5.422440
17.513201 -4.248899 5.413091
17.402905 -3.928425 5.407727
17.317232 -3.617941 5.404160
17.232981 -3.318935 5.404288
17.149050 -3.026524 5.408005
17.072752 -2.735027 5.414148
17.006985 -2.440046 5.421780
16.955088 -2.136688 5.429669
16.906874 -1.821620 5.438328
16.862947 -1.487907 5.446766
16.826447 -1.130971 5.453210
16.789703 -0.744853 5.457506
16.756182 -0.359296 5.460316
16.710089 -0.002142 5.466532
16.620380 0.321851 5.483952
16.526699 0.627878 5.504414
16.436762 0.922342 5.525650
16.351904 1.211017 5.546715
16.256264 1.493064 5.572197
16.159863 1.776164 5.598648
16.057316 2.063205 5.627494
15.939853 2.355930 5.661851
15.832535 2.667464 5.690945
15.722743 2.998311 5.718780
15.618152 3.355598 5.741094
15.479668 3.717310 5.776116
15.354441 4.051986 5.808820
15.244223 4.363178 5.836610
15.142409 4.657095 5.860271
15.057984 4.944899 5.875472
14.980003 5.232765 5.885740
14.904009 5.527328 5.892045
14.821754 5.835799 5.895957
14.715865 6.161128 5.900259
14.604001 6.519044 5.899161
14.499685 6.888856 5.890693
14.347383 7.203317 5.890489
14.171151 7.479023 5.894171
14.025735 7.749746 5.888532
13.892906 8.017316 5.877114
13.759999 8.285236 5.862564
13.629253 8.564040 5.843316
13.480337 8.852251 5.825557
13.319023 9.161930 5.807106
13.136535 9.497082 5.791146
12.966376 9.828656 5.777758
12.822211 10.137147 5.765776
12.695786 10.428982 5.751976
12.564718 10.704415 5.740626
12.469095 10.996115 5.701182
12.353445 11.290583 5.654613
12.189668 11.575182 5.615499
11.879598 11.794737 5.642324
11.557606 12.029224 5.646135
11.271021 12.253489 5.621061
11.033083 12.479600 5.560595
10.832721 12.715999 5.466861
10.654784 12.961187 5.348373
10.480844 13.208859 5.218297
10.220659 13.363097 5.168197
9.925905 13.488661 5.152548
9.608378 13.612496 5.157129
9.304254 13.789639 5.140755
9.010787 14.027063 5.105013
8.763241 14.303959 5.056929
8.549067 14.557432 5.035390
8.337524 14.780648 5.048160
8.117180 14.985313 5.084951
7.878013 15.183629 5.133675
7.601984 15.378373 5.190050
7.284229 15.582712 5.239410
6.990164 15.747144 5.263165
6.730386 15.898210 5.265356
6.455952 16.058754 5.281978
6.143651 16.257324 5.335775
5.870904 16.453461 5.414335
5.638363 16.642958 5.497113
5.408156 16.822556 5.578534
5.141795 16.986597 5.655545
4.801606 17.118837 5.731076
4.452551 17.206537 5.793931
4.143888 17.289900 5.818984
3.860462 17.383419 5.805217
3.579785 17.506893 5.729611
3.258088 17.612783 5.671683
2.885361 17.645597 5.774083
2.550905 17.670950 5.886062
2.246811 17.712860 5.953517
1.958170 17.734406 6.039844
1.663887 17.743544 6.130225
1.344713 17.756229 6.202900
0.976220 17.853785 6.181783
0.613607 17.930698 6.149376
0.297636 17.973610 6.109727
0.009474 18.028931 6.033825
-0.291364 18.047380 5.984679
-0.619087 18.047907 5.962216
-0.983326 18.064375 5.945252
-1.351521 18.089029 5.955929
-1.671063 18.112207 5.993969
-1.969494 18.128948 6.038560
-2.275125 18.135752 6.071336
-2.617790 18.144209 6.066744
-2.997320 18.135048 6.023392
-3.332111 18.097284 5.968074
-3.630680 18.015888 5.919445
-3.915941 17.937843 5.857688
-4.206606 17.851107 5.797085
-4.520284 17.742678 5.753232
-4.877569 17.622944 5.726005
-5.222402 17.501350 5.722072
-5.538304 17.400511 5.722766
-5.838720 17.313070 5.724206
-6.132633 17.226971 5.726467
-6.417774 17.114864 5.742102
-6.686019 16.941891 5.792068
-6.954403 16.710093 5.868959
-7.305131 16.555073 5.846130
-7.585431 16.355869 5.836396
-7.819322 16.151939 5.818360
-8.054338 15.967269 5.777664
-8.312037 15.773086 5.749724
-8.637805 15.581882 5.731187
-8.957340 15.399467 5.741756
-9.207519 15.181780 5.818100
-9.439052 14.977905 5.900841
-9.673522 14.800052 5.968605
-9.906957 14.625987 6.031588
-10.167534 14.467813 6.068988
-10.446256 14.293760 6.099247
-10.738716 14.082087 6.131103
-10.999704 13.805260 6.188253
-11.189960 13.515479 6.257138
-11.411578 13.286214 6.278972
-11.610251 13.056614 6.300285
-11.782712 12.812931 6.328406
-11.931311 12.546364 6.366409
-12.089485 12.263759 6.405835
-12.287815 11.969702 6.442492
-12.513455 11.659052 6.485118
-12.719000 11.375975 6.537032
-12.883088 11.106367 6.598819
-13.035522 10.848555 6.657477
-13.184104 10.588881 6.706882
-13.301766 10.299438 6.752079
-13.398800 9.967171 6.788156
-13.545499 9.612467 6.790124
-13.759068 9.308071 6.749563
-13.927718 9.016623 6.705587
-14.036219 8.722710 6.668906
-14.151597 8.445890 6.619188
-14.200094 8.146131 6.590886
-14.254004 7.844586 6.559067
-14.337161 7.542570 6.516174
-14.435064 7.224808 6.471618
-14.540313 6.879235 6.432435
-14.655260 6.508943 6.398349
-14.767674 6.158175 6.363249
-14.877438 5.830284 6.326235
-14.995430 5.525206 6.283596
-15.111036 5.234157 6.241296
-15.224204 4.952524 6.200386
-15.336549 4.676323 6.161190
-15.449468 4.401480 6.124144
-15.548950 4.118341 6.095100
-15.644716 3.826769 6.070880
-15.736149 3.521661 6.052205
-15.820725 3.198420 6.040386
-15.907282 2.855819 6.033237
-16.003798 2.491907 6.029269
-16.083834 2.110792 6.036117
-16.147890 1.750683 6.052256
-16.210552 1.411408 6.073535
-16.277353 1.091028 6.097941
-16.336029 0.781731 6.127767
-16.389286 0.480291 6.161501
-16.442709 0.183930 6.197028
-16.501070 -0.110167 6.232419
-16.562885 -0.405771 6.266986
-16.640957 -0.702506 6.296768
-16.732508 -1.006239 6.321550
-16.840881 -1.318314 6.339433
-16.965309 -1.642453 6.349578
-17.113424 -1.979803 6.349430
-17.281500 -2.331507 6.338755
-17.447781 -2.666295 6.320364
-17.608118 -2.980110 6.295594
-17.768288 -3.275263 6.264274
-17.929905 -3.553946 6.227128
-18.085419 -3.827179 6.186415
-18.241165 -4.092938 6.142261
-18.400520 -4.350542 6.095641
-18.557617 -4.606564 6.048822
-18.721996 -4.855829 6.002045
-18.891975 -5.103588 5.956831
-19.071764 -5.357704 5.913916
-19.262522 -5.614113 5.875362
-19.465614 -5.884452 5.842035
-19.685820 -6.174918 5.815664
-19.922810 -6.493222 5.798795
-20.172264 -6.812112 5.777812
-20.440193 -7.112935 5.747221
-20.624348 -7.439824 5.714065
-20.761812 -7.772447 5.678100
-20.866903 -8.104480 5.641187
-20.947216 -8.433150 5.605606
-20.999090 -8.759019 5.573613
-21.038671 -9.078994 5.546934
-21.072618 -9.392579 5.526314
-21.110579 -9.700523 5.509051
-21.152275 -10.003647 5.503026
-21.196154 -10.303949 5.510619
-21.240398 -10.603865 5.533811
-21.284670 -10.906186 5.574526
-21.331659 -11.213373 5.634740
-21.385576 -11.530791 5.715969
-21.446447 -11.853973 5.821288
-21.508984 -12.191536 5.951698
-21.593065 -12.536922 6.110660
-21.684240 -12.868438 6.292646
-21.767429 -13.171523 6.487324
-21.860662 -13.442003 6.693795
-21.955885 -13.687016 6.910981
-22.062899 -13.903239 7.138680
-22.178194 -14.094893 7.376999
-22.440054 -14.183504 7.633257
-22.592575 -14.308912 7.888646
-22.723217 -14.429605 8.146935
-22.757647 -14.608314 8.404469
-22.777672 -14.802244 8.667363
-22.839016 -14.971071 8.936707
-22.934830 -15.118729 9.209916
-23.034779 -15.275380 9.486547
-23.164146 -15.420594 9.765062
-23.321823 -15.557158 10.043635
-23.509274 -15.685568 10.320338
-23.733292 -15.799734 10.591943
-24.010321 -15.879761 10.851253
-24.336843 -15.913226 11.080628
-24.636787 -15.922369 11.241812
-24.910248 -15.920633 11.353784
-25.177231 -15.929001 11.449652
-25.472471 -15.933611 11.540564
