BEGIN_0
-25.6352083461613418 6.9911952994320004 5.0765389797301168
-25.5365737994305313 7.1783047777194682 5.0815747500976549
-25.4415179008459873 7.3667399700019587 5.0872973261600265
-25.3481370371741619 7.5571807374224278 5.0939289999736888
-25.2551056791942834 7.7499040160308468 5.1014945635944473
-25.1620586652757652 7.9445427600530678 5.1097935917488986
-25.0693747837664915 8.1404013608580073 5.1184854247982479
-24.9776241162109258 8.3372433447463123 5.1272101110470505
-24.8872930942579096 8.5355850386801464 5.1356542665931899
-24.7989830485681928 8.7359839301442790 5.1435360832572190
-24.7133698378224445 8.9384873566022875 5.1505894250159487
-24.6304871349460619 9.1431480598228347 5.1566252478792149
-24.5491643769230308 9.3505101230600047 5.1616310804261660
-24.4676005405185464 9.5608176621081711 5.1657799901975299
-24.3845947375491647 9.7729442428785234 5.1692737870636716
-24.3000896805165532 9.9848180620805920 5.1721102515106070
-24.2145799495746203 10.1952822304681590 5.1739508886187968
-24.1284177162076290 10.4052516712229632 5.1741184203929258
-24.0418807492128366 10.6165650038220178 5.1716357947137723
-23.9553945984273575 10.8297715220022184 5.1653062966662064
-23.8691870409686082 11.0431653742642908 5.1538820725040111
-23.7826683970069510 11.2538615209220794 5.1362427065280354
-23.6943042313424428 11.4598188038668312 5.1114578881058543
-23.6023399084752441 11.6611051101986831 5.0787732494598536
-23.5059264155424543 11.8593314894678556 5.0376830490367208
-23.4057317632726161 12.0556525130870256 4.9881181572633233
-23.3033647923827765 12.2493071468169248 4.9305005556147723
-23.1998557144559392 12.4381748791383373 4.8654689740359949
-23.0945696671077556 12.6204284444531467 4.7935470606155235
-22.9856495143881716 12.7956683801667808 4.7151278053249861
-22.8717305715787269 12.9649388302435895 4.6308296734414105
-22.7536079074743647 13.1299333725371739 4.5419619742129136
-22.6344266308405118 13.2922830355300974 4.4506517535341503
-22.5181302287029546 13.4536021962977443 4.3593778986606671
-22.4076307113961022 13.6159181777124658 4.2702636971025720
-22.3043481826314647 13.7818717327604716 4.1845759267845475
-22.2091521536241920 13.9542375883057304 4.1025173918703057
-22.1233092565654310 14.1346706021789288 4.0232333574886248
-22.0481633068943310 14.3225794743101673 3.9450548561086265
-21.9838083276415333 14.5153458148976995 3.8661082917640526
-21.9283269127876537 14.7098897955603078 3.7851180743154789
-21.8783992156933493 14.9044431690603076 3.7017739714016371
-21.8305771355105165 15.0991057058790474 3.6165667032201703
-21.7822527208585761 15.2947113006218558 3.5306394469713536
-21.7319318239034303 15.4913636407923434 3.4457380403512015
-21.6788849479347512 15.6883223933737170 3.3638622070977799
-21.6224526592926303 15.8852577134231865 3.2865929281361459
-21.5615728316274868 16.0831364546593036 3.2146976846718940
-21.4950568842715342 16.2834545348539166 3.1484456960598712
-21.4222975231025359 16.4866760809270048 3.0882089675789763
-21.3436037422085825 16.6914719415975057 3.0347153373974907
-21.2597423388208178 16.8955481055677339 2.9887893985725471
-21.1709561931136285 17.0975332875117800 2.9508665230174280
-21.0764193329865819 17.2981728982763272 2.9207387175674584
-20.9748245699513376 17.4996279726049551 2.8977029086753876
-20.8654531691326603 17.7038010359673521 2.8807662504957401
-20.7487232357772697 17.9110409591302684 2.8686283881359280
-20.6259390478657849 18.1196224981312710 2.8596226785351648
-20.4986203364264377 18.3260871930093998 2.8519102898041950
-20.3679700675899653 18.5264763507171750 2.8438845912991106
-20.2346518751276356 18.7177966351447438 2.8344659587356245
-20.0986773465480546 18.8988691470577024 2.8230917221734813
-19.9592710281439096 19.0704177583450729 2.8094956524367021
-19.8149683969039039 19.2346201636228074 2.7934983897335197
-19.6644038917132704 19.3940950704553856 2.7749712398361654
-19.5075810342322740 19.5505038288862423 2.7539674768466984
-19.3463227568466642 19.7037370705049995 2.7308323752692933
-19.1831032962388583 19.8523923385638739 2.7061306905466664
-19.0194542806629663 19.9948423158331252 2.6804704517125852
-18.8553337262310130 20.1300104514259957 2.6543746550488785
-18.6894163246966798 20.2576860893172181 2.6282421017726252
-18.5197643873551705 20.3784838811052182 2.6023866225869461
-18.3448696787614800 20.4935015365503546 2.5771670437695997
-18.1648314279411700 20.6038386749725859 2.5531607017144524
-17.9815994220289923 20.7104544770190486 2.5311996881671321
-17.7977034979854700 20.8145270486616738 2.5121497672735034
-17.6145837962267642 20.9176734529495221 2.4965880818094472
-17.4318747355578054 21.0214421430617406 2.4846203597398957
-17.2478917704482306 21.1263913612064158 2.4759307998716258
-17.0608725889462036 21.2317735375580412 2.4699886675635430
-16.8703949158228106 21.3363702347718203 2.4662535650149380
-16.6782325974664261 21.4398094329896054 2.4642723613485029
-16.4878552983890430 21.5434477130415374 2.4636801058108224
-16.3024910353180559 21.6503320753681621 2.4641740125714890
-16.1230637072664607 21.7639535214935478 2.4654984763368213
-15.9477026745181867 21.8861789500126065 2.4674332692382159
-15.7731044263507840 22.0157668868762428 2.4697721546255882
-15.5966469199292881 22.1485729993797023 2.4723056809977089
-15.4175973485868774 22.2794400350705715 2.4748396626461182
-15.2365136168363904 22.4048084198527633 2.4772508764862886
-15.0539333948027387 22.5244192618422616 2.4795154551135186
-14.8699388027144881 22.6410913921367154 2.4816337584262160
-14.6843813026512358 22.7591905301664070 2.4834876660372855
-14.4970904635644331 22.8829269264838757 2.4848168446868195
-14.3081897165214258 23.0150568094563326 2.4854558828158226
-14.1186357882476834 23.1562037452140004 2.4856586504246292
-13.9304218806336362 23.3050183416311611 2.4861041931678267
-13.7457568581187299 23.4592175307529516 2.4873714195266485
-13.5655611448519977 23.6166913011403707 2.4893985145189852
-13.3889191866939026 23.7753202058096846 2.4916431123393847
-13.2141821385715588 23.9319562617491783 2.4936793985565004
-13.0400794250209913 24.0827542896783768 2.4954742208240082
-12.8656552942163955 24.2247642827203293 2.4972281453688825
-12.6895362262307074 24.3569940641574121 2.4991512066176926
-12.5095654686267519 24.4801959755750715 2.5013792612155692
-12.3235188581447552 24.5957602130793447 2.5039810379401626
-12.1306233967604804 24.7044631487229722 2.5069702605735449
-11.9323022470192210 24.8060297541152153 2.5103115808614138
-11.7310266324209476 24.8998893499577818 2.5139423578668652
-11.5284220461188607 24.9862374567950596 2.5178040673761899
-11.3244358523767694 25.0664261749573853 2.5218575049857499
-11.1181974807241577 25.1425652611196000 2.5260667728170763
-10.9097811088615906 25.2168373284184426 2.5303623236301260
-10.7011283364384795 25.2911959099003028 2.5346164638749960
-10.4951364478894877 25.3677108331156234 2.5386530653478143
-10.2940318326380851 25.4490396702742103 2.5422763022906687
-10.0985984999119278 25.5382682147955222 2.5453075911969889
-9.9086512840174397 25.6377995197644637 2.5476437915557781
-9.7239990214619958 25.7478989278013799 2.5493290783602647
-9.5446406639003509 25.8663799125054581 2.5505969146628220
-9.3698278331479052 25.9901132349401323 2.5518517560147611
-9.1974182429453801 26.1168428456244612 2.5535595827868600
-9.0247714780257375 26.2456361634859192 2.5560043942382351
-8.8503669774390268 26.3762118569407207 2.5590553653130721
-8.6744517271289130 26.5081244457983018 2.5622366519764577
-8.4980753103524354 26.6404380097680757 2.5650847259233220
-8.3214703279799487 26.7721463739972663 2.5674210034831395
-8.1434975760102315 26.9027019849142093 2.5693274687456880
-7.9628070718602189 27.0317171443890345 2.5709756680784244
-7.7792830981167800 27.1582778774496774 2.5725052325482456
-7.5939904450441560 27.2810605281966616 2.5739839062791896
-7.4075700020327933 27.3993748199990605 2.5754106829756722
-7.2189209605062343 27.5138887514545587 2.5767452646046682
-7.0256783901271893 27.6261169694949800 2.5779414605943765
-6.8257146501731505 27.7373208053817066 2.5789671945289196
-6.6182440469936292 27.8477832740582727 2.5798174862649019
-6.4041617670534778 27.9566987590895337 2.5805127838603239
-6.1858038566323748 28.0625514250432815 2.5810620896976153
-5.9661908688948380 28.1637451473826346 2.5814274007696727
-5.7480199290375831 28.2590831135208305 2.5815502549174929
-5.5330100044212100 28.3479370267546287 2.5813899604169075
-5.3217763910957654 28.4303176490155991 2.5808967283950865
-5.1137997487403872 28.5069706449893303 2.5799470150651351
-4.9071570096107386 28.5793796276648422 2.5783163342022322
-4.6984274445355405 28.6494405759633892 2.5757355804458508
-4.4836860371356879 28.7184901460644113 2.5720685067357496
-4.2606320670156563 28.7858254651601086 2.5675495452882928
-4.0301700761878916 28.8480149175695715 2.5628108023553655
-3.7959396684742552 28.9004052559626530 2.5585169192740262
-3.5625110812957339 28.9401268787060246 2.5549089934565234
-3.3335320537513486 28.9679097887522445 2.5517334585926505
-3.1106022404660112 28.9869381074307100 2.5485817442187253
-2.8932867409953702 29.0000968972545579 2.5452942557066622
-2.6798987839469217 29.0082013827513165 2.5421953503925345
-2.4681961547793461 29.0102234434536896 2.5401066646562547
-2.2557440604213759 29.0047649770109430 2.5401238641422417
-2.0405637774698682 28.9916550514374691 2.5431478635419205
-1.8222909247012948 28.9730814772044738 2.5492649912880898
-1.6026544911877472 28.9540705687361566 2.5573294750650160
-1.3844610100167769 28.9421001038018417 2.5652296461105610
-1.1703430313417416 28.9458220180521053 2.5708986695034226
-0.9622428137258592 28.9733445236203266 2.5732693061886112
-0.7609945812534418 29.0300193597030471 2.5723196236134118
-0.5657257290933227 29.1156119536285374 2.5685408511766243
-0.3738965390175326 29.2231014439935848 2.5626268793094971
-0.1822220257242875 29.3413580239389518 2.5554444759087511
0.0124734778831491 29.4595229943029793 2.5478662515032493
0.2130285960934801 29.5693665812362241 2.5404704969514889
0.4216197970457738 29.6647522457598356 2.5336027818241140
0.6387639354238637 29.7400871341406514 2.5279813408496423
0.8629420820712275 29.7902776697663967 2.5250224987885983
1.0914049189049431 29.8126219687082070 2.5258472042876674
1.3209997638904860 29.8088701796475064 2.5297503015732516
1.5492161437694312 29.7859084917024148 2.5341897372590316
1.7756125121126261 29.7544806991673383 2.5366977443415633
2.0019389167205621 29.7257635482701730 2.5366186003670319
2.2307054693708892 29.7066597220646287 2.5348946946516637
2.4637682030927364 29.6969085019703556 2.5327355904239193
2.7013989773940441 29.6907346840646156 2.5308369825876094
2.9417010611492254 29.6812637645438500 2.5294287688230424
3.1807340713713059 29.6638045116456937 2.5285484115761139
3.4140367130259870 29.6364374710316909 2.5281835384814562
3.6392399409596403 29.5989238706778863 2.5282932314234130
3.8575331031199296 29.5515802010781528 2.5287784972023268
4.0722767546039176 29.4951055103317827 2.5294150366955743
4.2863792289928382 29.4312195401638235 2.5297673562095855
4.5008981218224751 29.3631767203387852 2.5291955689574772
4.7155546426569979 29.2951206593648550 2.5271113876639792
4.9304146576484964 29.2301626099483585 2.5234252572156284
5.1471979424446976 29.1687171648600128 2.5187514956733752
5.3685760427410889 29.1088489357846782 2.5140168058914023
5.5956763004763399 29.0481683956219783 2.5098334384643723
5.8265036738855684 28.9852730700056327 2.5064010036738464
6.0571644564774552 28.9198206025943705 2.5041331087408998
6.2841772417205242 28.8519064649146060 2.5042341308791367
6.5056230126242003 28.7814046774130787 2.5082979604442324
6.7210251492500879 28.7074462463401545 2.5172138327224913
6.9308435875615171 28.6284810998567067 2.5307712579652080
7.1359543305232052 28.5433252332160095 2.5484678510101384
7.3372292448316871 28.4524924017563379 2.5702545095198843
7.5354010771064317 28.3583469436147979 2.5963758209890377
7.7311782647474212 28.2636083130638838 2.6270652640887424
7.9253529924974098 28.1695858262981602 2.6625722365315090
8.1187433283311670 28.0757811443921952 2.7028027005175774
8.3121717283586563 27.9809441734199069 2.7464547667293706
8.5063708522620196 27.8846316213993290 2.7908836230979008
8.7018151528931984 27.7880910152583951 2.8332557750185554
8.8989620545627783 27.6939642933458430 2.8718620502545078
9.0985988585229993 27.6056004485653474 2.9064292947895956
9.3015858668943938 27.5265725850997001 2.9375868275478232
9.5080562295900286 27.4599385108925560 2.9662632261262272
9.7171216492096075 27.4070543355044833 2.9934123005052182
9.9278670815677863 27.3668682709404507 3.0199294182158449
10.1405442871685540 27.3364082726774456 3.0465536903804948
10.3563899971134976 27.3119650571562147 3.0737391966051204
10.5764429567084424 27.2900289792079036 3.1015918140666416
10.8005478372102921 27.2676577998640042 3.1298984018122891
11.0269113707236421 27.2425375555362592 3.1581912638169243
11.2522570059217415 27.2129725577637842 3.1858338870766683
11.4729642371479610 27.1777499523449606 3.2121881475641789
11.6870058139385229 27.1357953618542567 3.2368493982432520
11.8950593678095728 27.0858330384206454 3.2597623782838951
12.0995623269097674 27.0263443076186647 3.2810864755021285
12.3029101207901377 26.9557550809227848 3.3009687849851312
12.5064513888960871 26.8726287835198576 3.3194265844393431
12.7104047178550221 26.7758557932004848 3.3363521759724213
12.9139531128281337 26.6650187379554282 3.3515480889931468
13.1151560833769931 26.5410088800940187 3.3647290379135302
13.3111471663312511 26.4065088236248826 3.3754835283027940
13.4994481128812165 26.2654979124013863 3.3832316845057755
13.6801379650307062 26.1214576533072247 3.3872567827532918
13.8566523775311055 25.9755864705699153 3.3869042673763397
14.0334571238362305 25.8268765511203000 3.3819397550454409
14.2124697759056300 25.6740248960087811 3.3728049722000506
14.3917807115956791 25.5172752454803700 3.3604436366787209
14.5676057044741150 25.3584847389962960 3.3458043056945259
14.7369787905596450 25.1998747762951609 3.3294656280128798
14.8990135291808787 25.0428522701473497 3.3115690828267494
15.0548434746743105 24.8875342103147190 3.2918738037683264
15.2070665378891086 24.7330346643069490 3.2697791826283060
15.3588365750464799 24.5785200378484063 3.2444362853632205
15.5126065959496078 24.4244955135776962 3.2150935084126688
15.6693393754787529 24.2729489935999112 3.1814723324897369
15.8289449000015701 24.1257610622360446 3.1438631110471662
15.9912440062494934 23.9830459951011505 3.1029830067427850
16.1562554892159689 23.8432886109785755 3.0598554716125066
16.3235718691637146 23.7049411061920594 3.0158536880510880
16.4918888678919444 23.5676382486410532 2.9727185169121326
16.6596275995928238 23.4320724729323331 2.9323032993040075
16.8260494774031351 23.2993622027011043 2.8961664548552197
16.9918357230734962 23.1707895244496100 2.8652701735354325
17.1588473384011984 23.0476368353209295 2.8398788260482406
17.3293450791503325 22.9306001974135540 2.8196379097330886
17.5051855580086979 22.8191720106693907 2.8038045093157460
17.6874257970040425 22.7117886240441962 2.7916041976504604
17.8761781382573943 22.6065449872011115 2.7825962691542148
18.0703183410904877 22.5016944618499295 2.7767719781504505
18.2673313088186013 22.3957871359170824 2.7742958010349534
18.4640060061286810 22.2875041785487582 2.7751799208797752
18.6579430691272954 22.1753319081580713 2.7791385243898321
18.8485597974319283 22.0575859100938700 2.7855215579822672
19.0364927792565730 21.9329821478356948 2.7933334301876847
19.2220583080670941 21.8012175019508447 2.8015295633997912
19.4041698252747352 21.6629951905459848 2.8094924989793717
19.5807025673078670 21.5193504294410971 2.8172070413253856
19.7501315096916805 21.3705137808889205 2.8250010245781549
19.9127278154587586 21.2151643813044046 2.8331869612200915
20.0699638409165004 21.0509536936596788 2.8418272173229462
20.2232014087770082 20.8759116731233618 2.8506406142120846
20.3730356796393721 20.6895995842458689 2.8591224505167023
20.5191239403432384 20.4936399536075058 2.8668463248065437
20.6601625813138021 20.2918153415284834 2.8737226224968939
20.7943607997292723 20.0891391505944839 2.8800573180938014
20.9206094700063083 19.8894271510424971 2.8864037094978223
21.0395739078386299 19.6929201491711581 2.8933166552580620
21.1535301301855618 19.4962710867939393 2.9011859245732894
21.2649369379184954 19.2951234049107256 2.9102660638123452
21.3748318044368055 19.0873800091362895 2.9208628980116234
21.4822744356995337 18.8745199138478270 2.9334526162303707
21.5851690272019603 18.6599888126152464 2.9484927321477428
21.6814504152642016 18.4467801334884101 2.9660728966463790
21.7697689540951380 18.2363630662432570 2.9858985454212390
21.8497197294188510 18.0287797250805895 3.0076939165148553
21.9217888510808478 17.8228170642434165 3.0315695106974045
21.9870445990207450 17.6162059733897962 3.0579734038767246
22.0466750093384078 17.4066555691551628 3.0873160924147682
22.1016053790602065 17.1935969861832945 3.1195567087779259
22.1525232414694919 16.9788690140656868 3.1540601800850023
22.2003766359008772 16.7652563506037282 3.1898488428318275
22.2469111832424460 16.5544268728719999 3.2259542956684872
22.2948651587291167 16.3462278434136650 3.2615287928476460
22.3477338377474695 16.1397542706661170 3.2957275854755754
22.4091341065027478 15.9352075860403133 3.3277191480532466
22.4820458228495674 15.7346688397793031 3.3570783850501087
22.5683551026391385 15.5408368500223304 3.3842539452053244
22.6687537918517812 15.3552171809102660 3.4104733290240219
22.7824787172693739 15.1773801458654418 3.4369875914383488
22.9067253047503741 15.0051581391146414 3.4643225050382722
23.0368064716288039 14.8351459154256347 3.4921223846513323
23.1677075245583382 14.6637264244516246 3.5195188564109126
23.2960580753681192 14.4884356043679574 3.5456348399750772
23.4209065022244509 14.3087920949027847 3.5698461830300920
23.5429258084489064 14.1259521526626770 3.5918746173894971
23.6631584153559977 13.9413817913673768 3.6118746274030924
23.7823730604567487 13.7554062260902228 3.6303407789836553
23.9009305074405596 13.5668970596433951 3.6477123290829185
24.0185207037298589 13.3745561383617542 3.6640102312722274
24.1339153886625084 13.1784113667924956 3.6788697933376220
24.2453919640915103 12.9797584929014462 3.6918878187501103
24.3517839539902567 12.7795135389629380 3.7029901056485870
24.4531061225357185 12.5769847069755585 3.7125879224449942
24.5500863666195208 12.3706744926711352 3.7214705776744510
24.6432846723036185 12.1600791643302202 3.7305848726225763
24.7326923534102541 11.9465981804142132 3.7408450931284070
24.8180026074684719 11.7329574913220469 3.7530087846424722
24.8992241918152502 11.5217100479406227 3.7676318116566887
24.9771199564632447 11.3138009524362602 3.7851307981188316
25.0531175252424205 11.1081687586005344 3.8059208204799644
25.1286592624823797 10.9028404947434225 3.8304685258413320
25.2044182661176315 10.6968591372251396 3.8591305227575052
25.2802018633258783 10.4911917683428300 3.8919490212791921
25.3557558539168824 10.2875367163309122 3.9286862710420918
25.4315090409454321 10.0865859635314905 3.9690201878582156
25.5084638288308270 9.8878419593162761 4.0125742795917123
25.5875244225508531 9.6909502962234839 4.0586914390242699
25.6690865664135579 9.4965674689371227 4.1062747756453222
25.7532636727224222 9.3055246788256767 4.1539667716407180
25.8403914546126643 9.1175809172472739 4.2004328034311431
25.9312213421213720 8.9314932031300600 4.2444265816122027
26.0264382754312393 8.7462124525451017 4.2847349008658506
26.1259362588063979 8.5615672523376958 4.3203471463255108
26.2287114709060418 8.3775962463672968 4.3508755579088030
26.3333021332663186 8.1935847052790791 4.3767876126131222
26.4382338112280024 8.0081580597771520 4.3991009594824186
26.5423362141340142 7.8203616333464510 4.4187387273537322
26.6449802875123893 7.6304743636612784 4.4361200556747189
26.7462421342603172 7.4396549198139468 4.4512879882423348
26.8469186726696591 7.2488333902493451 4.4642861439068042
26.9481590262307833 7.0581557986120345 4.4753550480273452
27.0506803903404922 6.8674829879746753 4.4848466433720011
27.1542527660929061 6.6767429498710484 4.4930697468127425
27.2580630887353301 6.4853632544537945 4.5002383505195969
27.3613894758978375 6.2919170058889762 4.5064983801064482
27.4635867068754287 6.0951130333315078 4.5119672312649373
27.5636568291654100 5.8951396245378049 4.5167721419934468
27.6603875707261828 5.6935861964809504 4.5210677663600105
27.7531802504194225 5.4918363090128963 4.5250108549971166
27.8425605477626945 5.2898775195549206 4.5287238899889273
27.9295304344769733 5.0869594042936512 4.5323472644929801
28.0144662430073161 4.8829341430233768 4.5362002203324918
28.0968916687629573 4.6785244801191439 4.5408590741324542
28.1762881763668531 4.4743586899324939 4.5469958482830117
28.2528608510666395 4.2699764889233833 4.5551256774656146
28.3273400825958532 4.0640618585459052 4.5655275282732681
28.4001805752061323 3.8558678125890253 4.5783332111431152
28.4713031054881149 3.6461020698284976 4.5935988781452863
28.5407832343922259 3.4361212842651341 4.6112918801853624
28.6095094426465515 3.2268704821877598 4.6312326710755425
28.6789204933017245 3.0189897153589271 4.6530760679319894
28.7502091965522588 2.8131850499817155 4.6764021245255458
28.8238988157185752 2.6097594759406100 4.7008581214659877
28.8999012886402831 2.4082633628022592 4.7261497760602449
28.9777563380802867 2.2082563347122104 4.7518904137392148
29.0570936414431777 2.0101540903805848 4.7775542984066872
29.1382521253047067 1.8148579336396509 4.8026570839895779
29.2225685029698212 1.6227452868016954 4.8270258801237098
29.3120833160907708 1.4333085316862793 4.8509684150825683
29.4088520287294948 1.2457715035172541 4.8752076788420062
29.5140612400732287 1.0599600790717396 4.9005316657947500
29.6273302062151167 0.8764949438388356 4.9273514644174536
29.7468451550538973 0.6960066956602731 4.9555314472049989
29.8703560260713488 0.5180098953165988 4.9845966717793138
29.9960191513568013 0.3406324133246308 5.0140155752434339
30.1222468939828261 0.1617056895992768 5.0432604642052263
30.2471318502468236 -0.0199276571532643 5.0717323293514056
30.3685015825062550 -0.2043466390666495 5.0987964962303574
30.4846871614321202 -0.3917032384404493 5.1239617571772342
30.5949986513378178 -0.5829708350684228 5.1469875952841964
30.6992116823529777 -0.7791116786461423 5.1677745355800697
30.7967849643375224 -0.9797817714832036 5.1861974309638930
30.8868594631897757 -1.1834696705306307 5.2020969076725345
30.9690550861344676 -1.3892241753113765 5.2154243085777976
31.0441146881530514 -1.5979714667377749 5.2263630884596806
31.1137161811972192 -1.8117780295369812 5.2353136078655274
31.1797854447688394 -2.0320206750058567 5.2427887005713103
31.2437866935773840 -2.2582308163999159 5.2492631135968386
31.3061698711311500 -2.4881854070556813 5.2549954326615964
31.3662932655698583 -2.7188533071009964 5.2599429838328096
31.4229871465285235 -2.9475163962171358 5.2638711624748007
31.4752132398233293 -3.1724685085671247 5.2665374336171213
31.5222929365798450 -3.3932113544037712 5.2677832794340533
31.5638725395815030 -3.6105393816314297 5.2675207737477141
31.5999201254186595 -3.8268295425347034 5.2656569992396314
31.6307207883855419 -4.0462188380027655 5.2620371342934247
31.6567715127174552 -4.2738532692476063 5.2565033990787597
31.6786579682314766 -4.5139683022234642 5.2489954240086263
31.6969706030875251 -4.7676368208749800 5.2395566947596670
31.7120836424322050 -5.0308785995093643 5.2283443152489726
31.7238453444600879 -5.2943130293633871 5.2156914277940425
31.7317109802539932 -5.5474034875070330 5.2019739877274382
31.7354277763293062 -5.7855505580666602 5.1872901160172793
31.7356346318235154 -6.0120687630101592 5.1713974200801642
31.7339908573831515 -6.2336630316516484 5.1540302599190948
31.7328327259671710 -6.4552737474840534 5.1352099172582459
31.7343593425659733 -6.6789176614450660 5.1151366392367894
31.7397957860959608 -6.9058049380417010 5.0937759187658926
31.7492633925456822 -7.1370453841976662 5.0707233972043886
31.7624515855606653 -7.3713723956287431 5.0455179634863363
31.7794386852426527 -7.6050656004662720 5.0177485567588302
31.8009570817931895 -7.8358913313068896 4.9867292915178254
31.8279095873465785 -8.0639079773095972 4.9516015562659605
31.8608679687643601 -8.2883497270092228 4.9119999735983786
31.9003526311806453 -8.5063700983251174 4.8684332030128710
31.9475210970490728 -8.7152659387105800 4.8218813246580563
32.0040735268837011 -8.9148325697925337 4.7730661495415072
32.0711102936122643 -9.1073491906146309 4.7221497601620923
32.1481871846182443 -9.2961865168397715 4.6690218901171239
32.2335482750005866 -9.4847700551260772 4.6138088675332556
32.3249791347791415 -9.6762099431682351 4.5572128720291571
32.4201914991036233 -9.8729613205522107 4.5005187050187727
32.5164722870934213 -10.0760198054599641 4.4453223032855345
32.6103735574568674 -10.2841952191322434 4.3932621813738928
32.6982603647740930 -10.4948845728411406 4.3460380431939507
32.7775200449296804 -10.7065512589024578 4.3052975258445612
32.8472431021384423 -10.9204467669735230 4.2716526412489237
32.9076151710520790 -11.1394469175655928 4.2436304649865813
32.9588697886799835 -11.3658241753758418 4.2183898625867364
33.0010132724469685 -11.6011380623279869 4.1938221674259539
33.0340206607356492 -11.8482499048555994 4.1695371201533744
33.0575205661026459 -12.1115740809378565 4.1460788550124876
33.0702965118477437 -12.3928395809137086 4.1239922836777225
33.0707718223170559 -12.6861799726287181 4.1032947730857083
33.0585563062160190 -12.9798477439336342 4.0828156231070887
33.0354259280531863 -13.2639214420403846 4.0604984941190310
33.0041474816245568 -13.5345040029889958 4.0360369171347337
32.9659946027823167 -13.7916110153449942 4.0139137965714413
32.9195576338153444 -14.0360459805476605 4.0032222259110366
32.8621886664422220 -14.2685865297193164 4.0136108548356946
32.7928289742173718 -14.4899119610640827 4.0503131775640044
32.7134292074157784 -14.7000590398048576 4.1120687127785738
32.6274113005341277 -14.8990042391981898 4.1932699354218457
32.5372502788590339 -15.0881887468304097 4.2877013918289224
32.4444470881338844 -15.2707618524451210 4.3906491591449139
32.3521277662185582 -15.4506649026167580 4.4991986924927838
32.2667070453015938 -15.6325375389732546 4.6125768379583851
32.1950779647803387 -15.8215729562721403 4.7323350343831381
32.1390483964644886 -16.0207543011695961 4.8603312058720469
32.0934877004449532 -16.2268008500727845 4.9953292530390652
32.0511505201658196 -16.4306410381951338 5.1325728475552603
32.0083925299510170 -16.6244484981444245 5.2677517995769252
31.9659027667864244 -16.8071279869243568 5.4002156979879619
31.9256975682148578 -16.9829482149963376 5.5322340300059487
31.8884264961679378 -17.1569926134146655 5.6666375461432006
31.8527888267091051 -17.3320980864143976 5.8052658872771419
31.8164268950712028 -17.5080938072896046 5.9481759814814330
31.7768631805840656 -17.6825439488245095 6.0935234554869506
31.7316016169658432 -17.8527702181169303 6.2387520201949318
31.6775527653328979 -18.0185613410113667 6.3827591933294121
31.6106068008170986 -18.1835722371216555 6.5272468737643887
31.5261035666654443 -18.3536980850427867 6.6757796085872076
31.4203608940499137 -18.5330683191791792 6.8309589259958203
31.2922811619581331 -18.7202824665260117 6.9920445320994267
31.1432481576501097 -18.9078343211860442 7.1556381985448008
30.9751828532611633 -19.0851705099107924 7.3189618391979900
30.7892732092297301 -19.2426447905115765 7.4819761065336818
30.5872550850012850 -19.3738212932787164 7.6458268484170278
30.3734774676159489 -19.4758017876394582 7.8092741954962941
30.1545383520221968 -19.5484001798945286 7.9667870487980501
29.9360485509982865 -19.5932926106542737 8.1102712581134213
29.7193540233926115 -19.6141052881441880 8.2334139165829772
29.5019851248482183 -19.6166843332010217 8.3351807928942954
29.2812018885816485 -19.6088941534851351 8.4203687853081615
29.0566026593908440 -19.6002123512548465 8.4979464349775800
28.8299668439623282 -19.6003222720762942 8.5780906949582363
28.6039923198555357 -19.6155487190030016 8.6678613150408204
28.3815212531341530 -19.6447474910564992 8.7673095396488439
28.1645993970482422 -19.6788358169763882 8.8697037015293478
27.9533161872694542 -19.7055530352808859 8.9663623416002594
27.7457869336618614 -19.7153072048835512 9.0517673794769884
27.5395921693385368 -19.7037402800740828 9.1251335380725109
27.3332563315033283 -19.6713976346115516 9.1891994538425603
27.1265322792930910 -19.6229042628630772 9.2489152735134255
26.9197531986435195 -19.5660237677792850 9.3107221939803928
26.7133214460994743 -19.5095746810682513 9.3813265747777592
26.5077887724226571 -19.4604023452481663 9.4656421743775354
26.3043024850561800 -19.4210654331668309 9.5649770949516544
26.1049099701795662 -19.3895576182014366 9.6768697598189686
25.9122154860007470 -19.3609586377011524 9.7969785706937369
25.7281457214161016 -19.3296875353441990 9.9216853294633847
25.5525995009444884 -19.2913541990209012 10.0492474074628468
25.3827656165542024 -19.2443666575115380 10.1785255167721189
25.2127078064483818 -19.1907583063499629 10.3064955338263218
25.0340184123807106 -19.1345090442245080 10.4267925937760566
24.8394739718152096 -19.0776430947344693 10.5309854596449242
24.6279203288074662 -19.0178793738547540 10.6119726800344463
24.4052033766842342 -18.9505134338801469 10.6667567228091666
24.1800031337934946 -18.8722855485368726 10.6966318497152386
23.9590065222054776 -18.7837725017344752 10.7048204452674280
23.7455189621195721 -18.6890628864591619 10.6938963031427061
23.5405426070111297 -18.5930829977233039 10.6653669283552208
23.3437533170017097 -18.4984348738355671 10.6209596619700637
23.1535894589097033 -18.4041902476509200 10.5632180323218776
22.9676210534501664 -18.3077577330637737 10.4942831863516624
22.7837382692219670 -18.2081158436195416 10.4143244083865856
22.6014649497342077 -18.1074323239661155 10.3218530212419140
22.4221163793293599 -18.0096341841886023 10.2159308546332834
22.2472203153576409 -17.9176616651712095 10.0981370453455170
22.0763688164398566 -17.8323337168793969 9.9732773251503168
21.9060602835779399 -17.7531869156163644 9.8494438614398732
21.7305336500728465 -17.6795915902155016 9.7367028316295663
21.5449295501862359 -17.6105498047558484 9.6430279963878451
21.3492954050914641 -17.5427178464267008 9.5696985427218468
21.1501724866008942 -17.4687445840950630 9.5110784454681845
20.9577492584119369 -17.3788677212676568 9.4597110261786099
20.7806705540321097 -17.2655991981609347 9.4116878460355764
20.6226327756218275 -17.1277591775254336 9.3673351550327499
20.4824493874276818 -16.9700805464837430 9.3280232750661956
20.3562534318723607 -16.7990070173891937 9.2933678099627137
20.2401098988690009 -16.6192260816234807 9.2611739515360121
20.1314362567389402 -16.4331870465468945 9.2290574604202238
20.0287267092388035 -16.2420225481000884 9.1956580120322826
19.9307511431997320 -16.0461072643365839 9.1604703209534097
19.8363822753186341 -15.8453203041670392 9.1228805176057097
19.7448737070962039 -15.6395585509062691 9.0817484997285511
19.6560153657264323 -15.4291642973855598 9.0361383011515866
19.5699906369030501 -15.2147317307241767 8.9863807615409659
19.4869425325761867 -14.9965200343872898 8.9341979653809922
19.4065248402627191 -14.7741019811520129 8.8817181000287437
19.3279197309142710 -14.5464576727323305 8.8303745027274889
19.2504118606049950 -14.3123047435161102 8.7805123267348399
19.1739903000419680 -14.0704527567681410 8.7316660053417916
19.0994336507934221 -13.8201657756342975 8.6829846857101654
19.0278450236851526 -13.5615681373685000 8.6335980763492159
18.9599759686536302 -13.2959964409161930 8.5831174081222645
18.8957989480624420 -13.0262503003102879 8.5322169025879759
18.8346627411069427 -12.7568229731869192 8.4827851845399529
18.7759236308205288 -12.4937371457847259 8.4372986474558633
18.7193915604691838 -12.2428682195852190 8.3977364625240014
18.6650381127772391 -12.0067671510954330 8.3647374330468516
18.6124150724639499 -11.7828942892271726 8.3375394846276336
18.5606287910939436 -11.5655724651613809 8.3146815792384547
18.5087968870786206 -11.3493466805858922 8.2947915716139011
18.4564378143411076 -11.1306441416691015 8.2768987475385352
18.4035962454268436 -10.9075705587915266 8.2603211057480124
18.3507615465598413 -10.6792092136600907 8.2444554035362856
18.2986419870904342 -10.4451740968754230 8.2286547227361915
18.2479271013761064 -10.2054013926879144 8.2121947408756473
18.1992048577558094 -9.9600580896513158 8.1943173667146194
18.1529995522614840 -9.7095776190527872 8.1743980393855900
18.1097064700099324 -9.4548477230900829 8.1522345735202748
18.0693821444500315 -9.1975442459450854 8.1282961750377485
18.0316751710868921 -8.9405337797598037 8.1037098913901637
17.9960946263195964 -8.6879123531801667 8.0799128642165883
17.9623862550328752 -8.4438806558369350 8.0580742754981944
17.9306457390816405 -8.2104151355473469 8.0385353861950062
17.9010782147748202 -7.9855019776599612 8.0207194618978654
17.8735979945210381 -7.7638877953550391 8.0037684218193714
17.8475995797909910 -7.5400575795076357 7.9873829530527978
17.8222111605231106 -7.3114808412720613 7.9720637617655399
17.7968833791817538 -7.0797445499534533 7.9585988023544250
17.7717106670558955 -6.8486923483531505 7.9473954231503061
17.7472562536609928 -6.6216267797108408 7.9382146590996268
17.7242097020738640 -6.3997367907481468 7.9302812668751521
17.7031996731009897 -6.1819101290177372 7.9225015186388728
17.6847878440434982 -5.9653865143692251 7.9137244409724090
17.6695113076156503 -5.7472468707706845 7.9031031616106233
17.6578178891810111 -5.5263830574219597 7.8904249755696760
17.6498480600956853 -5.3043197330849736 7.8761040567783560
17.6452956301359514 -5.0838189721631721 7.8607596699179698
17.6435898798759894 -4.8666797802396395 7.8447164624962156
17.6442062319099726 -4.6524825741665232 7.8277826558243326
17.6467535125940138 -4.4385460647678023 7.8094233276146898
17.6507096205563414 -4.2206639077102004 7.7893168434886686
17.6549098494950591 -3.9943630788445361 7.7680408135446335
17.6571558619374152 -3.7567385012549970 7.7473502631665001
17.6546157491547504 -3.5089285096359362 7.7297160718627440
17.6452129713043533 -3.2574886179136939 7.7173159490374648
17.6287913103572080 -3.0110514425537147 7.7110609426600742
17.6067687742728438 -2.7741043003115244 7.7103401680862307
17.5808678847203232 -2.5455198171536217 7.7136483382096452
17.5522581002349298 -2.3222673719420861 7.7194286914558203
17.5214186035837614 -2.1023737375251415 7.7265154269621394
17.4882645761798088 -1.8845377720208134 7.7341753083583278
17.4523086259181071 -1.6668315096962125 7.7419903071901635
17.4129375847100398 -1.4470784679915454 7.7497201410119780
17.3697265641594676 -1.2244225052819218 7.7572197866431063
17.3225300168243912 -1.0002018823759720 7.7644663452071301
17.2711759899800192 -0.7770423699006450 7.7716748269682494
17.2149859669705414 -0.5566343244343734 7.7793481616355127
17.1527925640615813 -0.3381548967077954 7.7880365134213365
17.0837811199913610 -0.1188497728843920 7.7978167429239393
17.0083821958554537 0.1040685249755349 7.8079412511314201
16.9283385597749145 0.3317241349691962 7.8170703883266910
16.8461811071645222 0.5627668217521062 7.8238562247838903
16.7647239250420341 0.7937517832400118 7.8273478283898399
16.6864270976938158 1.0208496851114433 7.8271006799289840
16.6124809682840109 1.2421364885564934 7.8231441073314318
16.5423826754220400 1.4586791890312263 7.8158269716185345
16.4746918723367628 1.6732635280623391 7.8055633717702646
16.4084248021992281 1.8878372044144101 7.7926510223803440
16.3438377015303580 2.1022538382243070 7.7772134692631427
16.2820987507086450 2.3155110374722518 7.7591162846111841
16.2244840789514839 2.5275369087874466 7.7379389488162147
16.1716356391827709 2.7392828613811808 7.7132832013057184
16.1229488604233318 2.9514325225406530 7.6853052882710928
16.0762491957102043 3.1636410835570281 7.6550264766507121
16.0281313194442276 3.3749321966215931 7.6242078479109843
15.9750894280050701 3.5840596522045622 7.5949359725913341
15.9147047272639171 3.7896115817880904 7.5691148462475990
15.8459661486812351 3.9906652949774042 7.5480133213913829
15.7687722520810585 4.1875449620228054 7.5320143194386482
15.6834181202401339 4.3816160943819682 7.5205809297245469
15.5905236210626494 4.5742340396279957 7.5124001265481342
15.4911039433484596 4.7660161132767485 7.5057322585030652
15.3864826836849566 4.9569798519666151 7.4989046378736335
15.2781929485708954 5.1469178661777235 7.4907442044933106
15.1677758894970776 5.3357515841793131 7.4807057321486985
15.0563903064397042 5.5240482467568555 7.4686514821449963
14.9448276810536473 5.7131215018133332 7.4546023452289516
14.8340577946325620 5.9042141183502892 7.4386470646310157
14.7253924032628465 6.0978085662357131 7.4208603751500126
14.6198983114947616 6.2940138239824606 7.4013038971883924
14.5178718337613315 6.4931841288099577 7.3803216408703074
14.4191651863365937 6.6955969616687696 7.3589060339174575
14.3239625682337977 6.9007241544236919 7.3386087478100617
14.2330138162948412 7.1074214361237011 7.3207957953906595
14.1470207735326863 7.3151979906492457 7.3056389971488080
14.0660456451057811 7.5249176073354747 7.2917395185625251
13.9897038893804773 7.7376409291391823 7.2769528570514792
13.9175995762381142 7.9529813106096015 7.2597348777735551
13.8493566137486859 8.1690115413784312 7.2396622930018024
13.7845400873475139 8.3837455719311436 7.2168359719781092
13.7227618371987674 8.5964051102616565 7.1911930363176042
13.6637022470066771 8.8071877196115977 7.1624539563411922
13.6069857767605917 9.0163636277738490 7.1303682878849868
13.5522591473548797 9.2240127720143121 7.0948000777010458
13.4994680464653314 9.4301229424790449 7.0557398465163450
13.4487341146801676 9.6346818046299560 7.0134561729950011
13.3996437640002846 9.8379279197546623 6.9687638847557576
13.3506643791865418 10.0403669737290855 6.9232744187666491
13.2992907684035409 10.2424239836779520 6.8794109468221265
13.2428125048585770 10.4442015134139083 6.8400317905526391
13.1791509533290458 10.6453826948108770 6.8078884452678858
13.1071635944789531 10.8450713612652194 6.7853227621222194
13.0263447824243617 11.0417642471182589 6.7742016348198995
12.9364749827303136 11.2339912440706371 6.7756045611657383
12.8377128803568876 11.4213151968841018 6.7891659593367022
12.7309456704450366 11.6045923725278470 6.8127475800620907
12.6178428698154672 11.7851763654488906 6.8429828531425940
12.5004337638407232 11.9640791004021736 6.8763211525818377
12.3805418952383377 12.1417742546629555 6.9098953189596974
12.2594139848294308 12.3183852492646011 6.9419435270161705
12.1375926851488440 12.4939881316153034 6.9717874899305414
12.0151529473296250 12.6689229590898123 6.9992475148305626
11.8923879815217841 12.8439728183169777 7.0236207688237728
11.7704531275814794 13.0201936284521480 7.0433124320948588
11.6510042820959541 13.1984783552812317 7.0574508586548435
11.5351112240057034 13.3790252941780849 7.0685772914564353
11.4230930584449961 13.5611362876943389 7.0832795630505565
11.3158626111825011 13.7439388510226053 7.1092831070097384
11.2163716618537030 13.9275083378537587 7.1508335418666178
11.1292028358707942 14.1130726455532240 7.2055954370798592
11.0581081105238113 14.3024997325537342 7.2651875666892218
11.0036653153966650 14.4987086224541102 7.3189056928567924
10.9631370728587196 14.7067290878076236 7.3578125983186533
10.9324629352822562 14.9322086136269832 7.3767817971475855
10.9084133940615846 15.1773819414668196 7.3749657920504692
10.8885166530612043 15.4401659310673409 7.3558212300197185
10.8687643870648216 15.7164777907886162 7.3264549421578522
10.8424995695107480 15.9982312571689747 7.2961133092052819
10.8019955762874353 16.2708035959876867 7.2739453346948428
10.7409064962811573 16.5190987907879290 7.2663845254051393
10.6564288677502770 16.7367863232888681 7.2755435106265036
10.5502895438497060 16.9275839665557228 7.2993298898533450
10.4273915631692784 17.0996556735424861 7.3331122375867439
10.2930809065337776 17.2605295649528614 7.3719260826612922
10.1513221122896411 17.4153930504825638 7.4118954507966688
10.0044918526711299 17.5674154728626775 7.4504831171889903
9.8537837826329078 17.7186509737210116 7.4861785605479660
9.6997099391990140 17.8705932223366446 7.5181525054546094
9.5428010646089874 18.0239865843483074 7.5459983385957141
9.3838693649868059 18.1786911863820606 7.5696529342389702
9.2234128418352483 18.3342965344435243 7.5894398094009921
9.0612004294247477 18.4907588349276324 7.6058464376265080
8.8970011229397823 18.6481443596684571 7.6188582416005737
8.7314352266972204 18.8058936209211467 7.6275453997635294
8.5655400142587599 18.9623597522990437 7.6308269804951827
8.3995115561449580 19.1148624954523072 7.6289515612198002
8.2321762535672249 19.2603421052675117 7.6239899003721199
8.0616688587872183 19.3963493752311820 7.6187188504010912
7.8866027704651787 19.5216586243725629 7.6149405658750746
7.7066398922690924 19.6363214019808723 7.6124667894061435
7.5221374635469882 19.7413488588896513 7.6093653378109716
7.3337148994328878 19.8379368347648821 7.6033459569364679
7.1421742105687285 19.9266505290626696 7.5933723278123919
6.9483580613951821 20.0073359846463177 7.5802854235625805
6.7527989951679208 20.0796156331291655 7.5659582261462583
6.5555081348840867 20.1431058015158513 7.5517625663929646
6.3561787863672459 20.1969789783294402 7.5377368628831523
6.1544870935223077 20.2396292882338003 7.5230041085355763
5.9501734598905838 20.2693275739113545 7.5069332670457802
5.7431250112686500 20.2855143444843193 7.4900946452143691
5.5334132539229648 20.2896419682900486 7.4741389310774178
5.3210400611543545 20.2850867432765583 7.4606331285345453
5.1058575718412209 20.2763914429075598 7.4500586449482578
4.8880824746442242 20.2683251285466284 7.4418807250015115
4.6685578690194021 20.2651485329259202 7.4352604071435406
4.4481360894589157 20.2702289198552137 7.4295842216553343
4.2271960989300696 20.2859021904473593 7.4246191164793141
4.0061702414932761 20.3133788117812202 7.4205890721243195
3.7859398324285674 20.3525761853824392 7.4184288373812617
3.5670984027817103 20.4018924896221705 7.4201822093268817
3.3493106891032944 20.4580181264450687 7.4291320987653089
3.1321600487191419 20.5160917207472338 7.4490686798367021
2.9164050225920084 20.5704995402505304 7.4827508424581479
2.7038315655649185 20.6158551450463392 7.5307636657061225
2.4957647915478467 20.6475128889850197 7.5917627978275259
2.2918778897802241 20.6620245178266018 7.6633536760259995
2.0902581384129313 20.6579825890603459 7.7422703569118907
1.8882011989163636 20.6365439114058944 7.8237989115587929
1.6832359305140099 20.6013341961170653 7.9016892801580010
1.4742956270609588 20.5580974472202342 7.9695493630183947
1.2621012495032038 20.5131077955498782 8.0228053919533195
1.0480666505840850 20.4703861844366983 8.0591781523762371
0.8331665044339274 20.4306216495138742 8.0773184012761501
0.6180842521306945 20.3930494082018896 8.0756729906588554
0.4037413324007010 20.3576951269131499 8.0530712758651841
0.1912985756665134 20.3259468024631644 8.0102446366065507
-0.0181885417377630 20.2999043067260061 7.9508275199065057
-0.2244362130834945 20.2813114236743957 7.8813796155170781
-0.4284833574660659 20.2703776448483168 7.8104618274662272
-0.6323300227474489 20.2651658156900680 7.7464635493073990
-0.8377158663051416 20.2623687434309474 7.6946502084998061
-1.0451187040059995 20.2589437752465855 7.6554583392843014
-1.2539893157438604 20.2529080814620741 7.6257195398692526
-1.4637932892039729 20.2427516871146409 7.6017796006852736
-1.6744742161374955 20.2265783196387474 7.5819023097795775
-1.8859023440462668 20.2020452245773114 7.5665823155826324
-2.0975898838707145 20.1671897078596274 7.5570655996619029
-2.3093868805844378 20.1214278820081276 7.5533285244568775
-2.5218287446614811 20.0657667697142799 7.5532051060581828
-2.7351519003984550 20.0020324329579040 7.5533711018032363
-2.9484368473355347 19.9320443353515344 7.5509795703107256
-3.1601334281778395 19.8575113256511742 7.5445806328365705
-3.3689461863164563 19.7802733861538158 7.5341789450502672
-3.5740325774759829 19.7020010143978084 7.5207768571825957
-3.7751678428132829 19.6233596964623374 7.5057004247167747
-3.9729863055324985 19.5437468420670726 7.4901353718337678
-4.1684944248900280 19.4620917859076954 7.4750204938658671
-4.3622496412441532 19.3778007914326622 7.4610295011749868
-4.5541781090375624 19.2910030292643597 7.4484769115763338
-4.7440665003473947 19.2023494198615268 7.4372060161200322
-4.9321066320054010 19.1128043809558648 7.4268009544948823
-5.1189574300617444 19.0233870338381621 7.4174758861874182
-5.3055314818054145 18.9350404402127310 7.4108098576169628
-5.4928897685299081 18.8492117679435225 7.4090822623716734
-5.6821620678451232 18.7686293087376512 7.4139825086360878
-5.8741989219715807 18.6966481456901263 7.4263275548763161
-6.0691015377627986 18.6349448719488748 7.4464380885854249
-6.2660765051298899 18.5813891809955933 7.4741612328403448
-6.4636412627874380 18.5299171312310875 7.5086555368527765
-6.6599471083401953 18.4725389943589704 7.5480727285383908
-6.8531981140938107 18.4021964947457590 7.5890582872340806
-7.0421015974603396 18.3148370814763624 7.6267358970026624
-7.2258287039599640 18.2096500054907011 7.6558864276451351
-7.4034813582520060 18.0878438367876555 7.6729444750088547
-7.5740917503401688 17.9514784635256461 7.6774470666608901
-7.7372965443110839 17.8032200586290088 7.6717187499173809
-7.8935654088139060 17.6465473740456176 7.6590731193133230
-8.0437231989028675 17.4853568518085467 7.6420555275376492
-8.1886650958373579 17.3226331048341535 7.6219534753323384
-8.3293187769955530 17.1593639421683690 7.5994157864697218
-8.4663314633491815 16.9948209266004895 7.5752116585541014
-8.5997417522387991 16.8277950604655899 7.5504958312863728
-8.7291309685654550 16.6576596669906891 7.5266726228774266
-8.8539517101658269 16.4847435004442602 7.5055178240310090
-8.9735450058914950 16.3099913189769623 7.4900033501998724
-9.0869330178206624 16.1342164851383743 7.4850202531209415
-9.1929384272222645 15.9573799921249631 7.4961616440659462
-9.2909416376087908 15.7784115063639021 7.5257463165281404
-9.3819388107762993 15.5957929737073542 7.5686937684901610
-9.4688082903922552 15.4087576719032455 7.6129599046397765
-9.5551448089772553 15.2183400476889332 7.6453998501854903
-9.6437351305142727 15.0269939946419271 7.6583248449280790
-9.7358244730914603 14.8369546894119182 7.6523911000017346
-9.8311315617279593 14.6489802226564620 7.6351792314766103
-9.9284471383628325 14.4623913477431927 7.6167952909502850
-10.0265825050327990 14.2759155267105626 7.6043905844823056
-10.1249262902542227 14.0883125985475957 7.5984303612290933
-10.2235411104402214 13.8988057811550902 7.5933609106273332
-10.3233369611668202 13.7077041291446164 7.5822925305295490
-10.4259919058216539 13.5166711066300493 7.5623958551173196
-10.5326872396204738 13.3277054543347759 7.5374190424109626
-10.6423109174865012 13.1410663394833307 7.5155097737663246
-10.7513750567779063 12.9546048745023228 7.5042500194519102
-10.8564387663205810 12.7658286858493284 7.5070168348137418
-10.9567505206942855 12.5740715632402100 7.5221184271960810
-11.0546534825486837 12.3804121537132872 7.5436672362546187
-11.1538092651365108 12.1864905703351951 7.5636583065684952
-11.2570925613686796 11.9938938725851543 7.5752627101621846
-11.3653716755609739 11.8038851062330750 7.5760540308750741
-11.4770919139408196 11.6169401036644544 7.5689173992515499
-11.5887586406428440 11.4322201167620108 7.5597945080913016
-11.6966692406927102 11.2475921394337348 7.5538125223729278
-11.7990297053019155 11.0607536651943192 7.5526014115133222
-11.8968672640949169 10.8709006333297253 7.5545256605527600
-11.9930638703763712 10.6793246583066050 7.5571076643684183
-12.0901413581118877 10.4881965725684836 7.5595619735873614
-12.1882257943316308 10.2987049972641529 7.5637111386977161
-12.2847243543481799 10.1101662697921171 7.5729068975027509
-12.3760677944783666 9.9207796495001048 7.5901909558020586
-12.4598637348306180 9.7291434118740270 7.6169961541549158
