BEGIN_0
13.9539449760840597 24.9076769350179958 5.1840556573099796
14.1181611202375041 24.8409709926751958 5.0369216377264916
14.2809852123629497 24.7756126385193909 4.8878143151024922
14.4407421843645380 24.7107226699418980 4.7414628808481840
14.5960199149579672 24.6443941690677519 4.6012070492391022
14.7470644783646616 24.5740206994960246 4.4683156482220348
14.8954778838647890 24.4969341292525407 4.3427238578181004
15.0430061017100005 24.4108689357782751 4.2243229944120788
15.1907992232996278 24.3140578275538424 4.1136490983492617
15.3394262626640661 24.2051354130416385 4.0118524104751554
15.4892120091376810 24.0831338072980543 3.9204116800871098
15.6405442216757091 23.9477669640130557 3.8408962634246002
15.7939648193201911 23.8000223598687128 3.7748051408312602
15.9498676728827444 23.6427095289062663 3.7234211397046497
16.1078702367727402 23.4801794287794507 3.6876553485485495
16.2665188531234435 23.3167055024220957 3.6679190428444084
16.4238873476727427 23.1545148489234904 3.6640829777724324
16.5783071041684735 22.9935113801527820 3.6755587988293428
16.7282613409798735 22.8329627328165259 3.7015210669763317
16.8721694416994410 22.6728663420797716 3.7412748474428632
17.0087647974216765 22.5135939584571929 3.7946741559186101
17.1376941091764863 22.3547833977123638 3.8623731618838537
17.2597761717198956 22.1949279568267315 3.9456250299358278
17.3764765179735470 22.0323072149232324 4.0454320870526530
17.4887133741627885 21.8667615378403291 4.1614873410277937
17.5960971926576804 21.7004849461294640 4.2920524098813875
17.6973045163536860 21.5366751467440452 4.4350174520393395
17.7908139184115122 21.3776065903220314 4.5886957435892235
17.8753208863194502 21.2240055095790474 4.7514330066581607
17.9500648487684131 21.0756054679112701 4.9208306696138884
18.0152091653239275 20.9317461363393704 5.0937505287854705
18.0719224494049300 20.7914870812652950 5.2671369536667267
18.1221509835516770 20.6534585297762519 5.4387083993634917
18.1684836489330976 20.5157350761027075 5.6070833306293135
18.2140353866634825 20.3759075005139572 5.7716899496702680
18.2619718562444433 20.2316569047265560 5.9322077084189804
18.3148935266214323 20.0818111273099262 6.0871589093721816
18.3747513837193885 19.9269637358752227 6.2328740072571698
18.4434154251122102 19.7688130418600707 6.3641830870822460
18.5231881319585021 19.6089668736403837 6.4759637741754403
18.6166253342850254 19.4484846124745765 6.5640685893721944
18.7256226100697951 19.2883471598600416 6.6254823892690240
18.8503034877435418 19.1300372461476798 6.6582929894373546
18.9884576102860301 18.9753876615341674 6.6619282996823284
19.1358974075787067 18.8257087293159238 6.6375754427228166
19.2876228825553859 18.6809771385977470 6.5882169421114423
19.4394171542459837 18.5395457942256137 6.5179618536754642
19.5887856637731126 18.3985707813377957 6.4313059535468042
19.7343364741073763 18.2552471433401067 6.3331287679866595
19.8745505254886901 18.1081377068826441 6.2287766604910129
20.0075686338874235 17.9574552200734736 6.1232993242222982
20.1323201268348093 17.8039117168263878 6.0203036602199251
20.2495955175404667 17.6472533504450411 5.9215388590645066
20.3616592677742574 17.4859072564936291 5.8275574859226378
20.4708882413127071 17.3176941256121957 5.7388492329303329
20.5788305952339563 17.1407240600593624 5.6565638594326320
20.6861975322426126 16.9539952737548063 5.5824020654041000
20.7933232060119622 16.7575587274086786 5.5180207379031554
20.9003146992462447 16.5523940478954472 5.4645870531807539
21.0065759829037191 16.3405342686875912 5.4227276948597734
21.1104432648101259 16.1253849327140948 5.3926710302195744
21.2098025574975892 15.9110090365178500 5.3743350950999744
21.3032967226732630 15.6999925529280748 5.3674225365322599
21.3908245311857144 15.4920340709312505 5.3717032692654172
21.4729444226491744 15.2850690182410780 5.3873298063468393
21.5500488715217529 15.0774923022043250 5.4147997512233683
21.6219157301002447 14.8695253848618645 5.4544567292125219
21.6876669216907381 14.6631401925634712 5.5059470978932872
21.7461681042184303 14.4606224922650775 5.5682191469844309
21.7966900559355352 14.2629793583142508 5.6400854386736583
21.8394269582426048 14.0694770781786787 5.7207231320748821
21.8755586955757906 13.8785037105675908 5.8095124235554891
21.9068110719472635 13.6889052788395418 5.9053219446945562
21.9349176119800724 13.5004148631372516 6.0060066811825745
21.9616247230919299 13.3127799228265324 6.1086032461469912
21.9892737755697496 13.1250292581322672 6.2096586097761755
22.0213229037408595 12.9360076926838481 6.3049969697867745
22.0622283656014844 12.7454420109510753 6.3891850436864779
22.1164232189420566 12.5542901217914498 6.4554528339706714
22.1866485302481742 12.3643113324083558 6.4964858613210978
22.2726351646433116 12.1775714484415261 6.5061934581156642
22.3711089795144495 11.9962668844867704 6.4818192418759395
22.4772617015507059 11.8223326789245800 6.4249373795030511
22.5868347743818809 11.6565936634187004 6.3404734903759241
22.6972667265576717 11.4983307864136375 6.2348334466808826
22.8072357448742515 11.3458334543778818 6.1146466253708986
22.9157688234690582 11.1970330388809778 5.9861070596170212
23.0221476249573982 11.0493887724254272 5.8542869043006682
23.1263011621766097 10.8996918832713270 5.7227310038783106
23.2287400659813308 10.7446770434418095 5.5938563662743128
23.3299238105001372 10.5820491279948872 5.4698118470768033
23.4296340332783011 10.4112068384353780 5.3531721846409379
23.5268663369427529 10.2333327524942188 5.2470120280124242
23.6203884461932141 10.0504738230915276 5.1542107088852163
23.7095779064021563 9.8637312120062024 5.0764698994957786
23.7947466203526936 9.6720711762720235 5.0140160234468301
23.8765959287627361 9.4730694915575260 4.9662965872870863
23.9553917217095709 9.2647638281252540 4.9328196768728834
24.0305342887166056 9.0470896253752855 4.9133877836134587
24.1007049274277669 8.8221281834329570 4.9078597406262645
24.1644004963716839 8.5930090595954134 4.9159260725870357
24.2204729726299064 8.3623051748479753 4.9371051975306717
24.2682619265716752 8.1317357060334352 4.9707921959337575
24.3073803192171312 7.9033106193324727 5.0161958800643234
24.3377001117022687 7.6796751760198712 5.0722897940811720
24.3595632157550206 7.4633037624006162 5.1378386117654387
24.3737837933048525 7.2560756790393022 5.2113324512396328
24.3813664710305211 7.0597650180539624 5.2907559321817992
24.3832382625057704 6.8763619970774341 5.3735824046462124
24.3800499328692339 6.7067913067172293 5.4576863544589767
24.3719189720127893 6.5482709574227949 5.5430896347860763
24.3582904523783057 6.3933399349296636 5.6327940099928515
24.3382075648592284 6.2332119580542713 5.7309724736156689
24.3109133110142039 6.0628857287680038 5.8398320785717583
24.2763197255070047 5.8829624225828407 5.9581498829527497
24.2350246874500463 5.6973881385581295 6.0821580911154864
24.1880516518444750 5.5097438491814419 6.2073393027785286
24.1368992412120349 5.3206142782946468 6.3295302286874939
24.0843165958143004 5.1268329656642191 6.4449449621050405
24.0354546509548932 4.9223521049232941 6.5499677132940111
23.9982405451683185 4.7011816721185582 6.6417300144529232
23.9817266599215628 4.4629954466510693 6.7193285439490396
23.9925443838581991 4.2175201699630147 6.7844159290491195
24.0318339021631111 3.9799716409359913 6.8404242784973075
24.0953162809931065 3.7598086108647513 6.8911413110659270
24.1762902119913576 3.5563170454574351 6.9395170522601992
24.2687935442869396 3.3635017524202127 6.9872226255669627
24.3689612473207333 3.1758493960484433 7.0349196338283528
24.4747765881990773 2.9902288240927213 7.0827575919374857
24.5852999459719079 2.8052570168912592 7.1307201151725810
24.7000655397346840 2.6203347824716960 7.1787655920062825
24.8187735631921527 2.4351161279393061 7.2268584305664616
24.9411718192848433 2.2493176554717031 7.2749685745609449
25.0670194817007861 2.0626681522305041 7.3230680877578846
25.1960780083306055 1.8748982976232167 7.3711295966340176
25.3281092453052956 1.6857390059762576 7.4191258425652107
25.4628750947479787 1.4949212147077713 7.4670295857260580
25.6001374656362266 1.3021758629808726 7.5148135888040777
25.7396582676585339 1.1072338900520347 7.5624506147638462
25.8811994105655998 0.9098262351801996 7.6099134265952157
26.0245228041126779 0.7096838376241941 7.6571747872899447
26.1693903580553275 0.5065376366428360 7.7042074598399104
26.3155639821491185 0.3001185714949379 7.7509842072369972
26.4628055861496030 0.0901575814393141 7.7974777924730878
26.6108770798123437 -0.1236143942652266 7.8436609785400648
26.7595403728928893 -0.3414664163598751 7.8895065284298109
26.9085573751467990 -0.5636675455858171 7.9349872051342114
27.0576899963296249 -0.7904868426842491 7.9800757716451489
27.2067001461969440 -1.0221933683963549 8.0247449909544990
27.3553497345043155 -1.2590561834633203 8.0689676260541567
27.5034006710072916 -1.5013443486263327 8.1127164399360012
27.6506148654614421 -1.7493269246265779 8.1559641955919080
27.7967542276223121 -2.0032729722052469 8.1986836560137739
27.9415806672457094 -2.2634515521034224 8.2408475841935243
28.0848560940908030 -2.5301317250604782 8.2824287431238055
28.2263424179608826 -2.8035825517899049 8.3233998958064586
28.3658015491349076 -3.0840730926667757 8.3637338053408286
28.5029954021413943 -3.3718724042173971 8.4034032356754231
28.6376859228381697 -3.6672495051181802 8.4423809567750538
28.7696352457696420 -3.9704730947733005 8.4806397725339089
28.8986064153258759 -4.2818095847371573 8.5181526318234120
29.0243658479037556 -4.6015116085166774 8.5548928901099330
29.1466886436086838 -4.9297629351669485 8.5908341314396157
29.2653598141422542 -5.2664661774588737 8.6259452531756864
29.3801336229254595 -5.6106068827433511 8.6601660623069296
29.4905690213013614 -5.9588625408973570 8.6933377041514301
29.5957188966278295 -6.3037078780563611 8.7250911222718379
29.6939896686283120 -6.6329205970298126 8.7548162766437745
29.7838310175494030 -6.9334178125200552 8.7819459182032702
29.8652750340460393 -7.1989492217439199 8.8065752572686371
29.9408057734795321 -7.4348642296844645 8.8299276686676862
30.0142143007331228 -7.6543949539312592 8.8541532646007397
30.0884918972403064 -7.8704886296018124 8.8816094405919390
30.1645348700913729 -8.0901134576944784 8.9141148369155498
30.2412845436009476 -8.3136466917416101 8.9526291322756126
30.3168328016105839 -8.5379277237262201 8.9974981884877163
30.3894818205766413 -8.7596586921641304 9.0488665686763206
30.4581062350499110 -8.9769348615102587 9.1068807561915612
30.5219659445979588 -9.1890524144768193 9.1716970548474066
30.5804948887209598 -9.3957749615323927 9.2434251233776621
30.6333146669094205 -9.5968750296086469 9.3220587455310771
30.6803792118072209 -9.7921265855699104 9.4074772992158326
30.7220475578030232 -9.9816208031495712 9.4996272991072992
30.7589527588393494 -10.1662076084849531 9.5988618285444751
30.7917645487294003 -10.3477344915328189 9.7062207959171172
30.8209923019197589 -10.5285809890435367 9.8232663576509758
30.8467759747153210 -10.7103387796327176 9.9513030237385358
30.8687038250116501 -10.8928856530691540 10.0908527500802769
30.8859850649581418 -11.0755473028848819 10.2425728265951541
30.8979605742683354 -11.2587478898017430 10.4081846284647561
30.9043880815668466 -11.4426056845679227 10.5885563768748234
30.9053276896800639 -11.6241390014185448 10.7806485771334657
30.9009089501579375 -11.7973062614976492 10.9774870263298574
30.8911106806974729 -11.9560064358025819 11.1715525197929821
30.8755903513684729 -12.0973623276671489 11.3586612914993026
30.8536990226454968 -12.2227984274645749 11.5392361989539474
30.8246659570551174 -12.3363258506118392 11.7163040886597365
30.7877074412698875 -12.4421658599976261 11.8928243488316028
30.7419657804647564 -12.5437280599784238 12.0704188256883604
30.6865616364683689 -12.6438450379945806 12.2490514509438277
30.6210328194672563 -12.7452909044088507 12.4270527932379498
30.5456610176151280 -12.8510911036595346 12.6019403076503949
30.4609221397684529 -12.9644472207242352 12.7719294504528200
30.3667867133261247 -13.0881232078182350 12.9368516771177031
30.2634881962357518 -13.2234883794203597 13.0973383098238685
30.1535640124678750 -13.3698865442971204 13.2528993071379215
30.0427131713181979 -13.5250707898449001 13.4012857702596300
29.9380488473581750 -13.6864843991798679 13.5403129097827701
29.8456251753652708 -13.8522208700923493 13.6701781919733758
29.7692969644564727 -14.0214969469897888 13.7941838697843338
29.7109828434209220 -14.1948840138296468 13.9177188282777937
29.6717196450990066 -14.3735142018744746 14.0461186486067664
29.6528968442967518 -14.5566503294776126 14.1818891473284872
29.6567392918149224 -14.7396328396019172 14.3228301740606074
29.6851696699974923 -14.9157045131479151 14.4634653540374511
29.7375911156023705 -15.0808795776166242 14.5990085533166400
29.8096671161869082 -15.2364088498270647 14.7274851498811490
29.8942836246435633 -15.3873273550233804 14.8486287673160007
29.9835864067844255 -15.5397556343511631 14.9620457414152117
30.0705631018504747 -15.6986383897977007 15.0671104330871035
30.1496549698851339 -15.8660237332242922 15.1644458473775146
30.2164149214255531 -16.0404006484155062 15.2565369953772070
30.2666896682463644 -16.2179812777239043 15.3460000687219384
30.2963720341762155 -16.3956597880784294 15.4332522950351496
30.3022610143323554 -16.5734616086650846 15.5161414001227875
30.2830634868266984 -16.7537653155060688 15.5912075041344753
30.2398294131530605 -16.9382230520382038 15.6555663908551352
30.1767907951543251 -17.1263025542849192 15.7097927287790728
30.1028906152860003 -17.3155311213962051 15.7600483992118932
30.0316990378640440 -17.5023032124991147 15.8176363833139568
29.9776752975150593 -17.6830772961591336 15.8956929082055129
29.9504432530502633 -17.8548543275580336 16.0034363964093735
29.9510421785895815 -18.0148117183127923 16.1414528227039931
29.9730332118571283 -18.1605617918286519 16.3023043276177333
30.0073161941650035 -18.2911551438629765 16.4757849073208327
30.0458134407895407 -18.4082021366032578 16.6545133956249103
30.0818556570230022 -18.5157639386691137 16.8355436872412874
30.1093614691484710 -18.6187102273661651 17.0180422530315028
30.1230136965566082 -18.7212061768233795 17.2010055100351380
30.1194247314671237 -18.8262962341385887 17.3835081735962120
30.0978270468748192 -18.9355582867548193 17.5653020929592785
30.0593644690698376 -19.0488621275318195 17.7461041727311937
30.0057313593712074 -19.1657144828837112 17.9260890672760027
29.9387223092288544 -19.2864056816295388 18.1066063864699842
29.8609539700419155 -19.4109051888072415 18.2888669126984631
29.7759580055860624 -19.5372695383786557 18.4723227562853012
29.6866453819531309 -19.6624040309779708 18.6552224204900412
29.5938558580341819 -19.7844033769642564 18.8360193485746841
29.4964550163332397 -19.9037532619207802 19.0139742048163072
29.3928162353289544 -20.0223379950166525 19.1887471103088885
29.2821247760284535 -20.1416004556919006 19.3599697038514620
29.1644116939377653 -20.2616574380471945 19.5273685200161715
29.0400327564771068 -20.3817722192181670 19.6906358485656270
28.9091567435173324 -20.5016393313709457 19.8493039140154650
28.7715684443060269 -20.6222570401347696 20.0032262390843947
28.6272437222342973 -20.7454574696310488 20.1531400964277765
28.4774408584381753 -20.8724831566068048 20.2999663319535522
28.3244575349124617 -21.0032987214776199 20.4430517408694215
28.1693802471332120 -21.1372681505380839 20.5793318945154553
28.0104098834987241 -21.2737213692420255 20.7038293811194904
27.8436221226482878 -21.4118831849272908 20.8108176387384276
27.6656395715439558 -21.5508455765230096 20.8952922709832229
27.4762815580176785 -21.6896952915596231 20.9542522089626928
27.2785490563437172 -21.8277329872883001 20.9870836288263014
27.0757777763912877 -21.9647909551795877 20.9949677887579469
26.8698570543939823 -22.1010966784797702 20.9797933430396704
26.6622497365404278 -22.2364623895367686 20.9435215376238233
26.4549796291513957 -22.3696573264633685 20.8884010014775754
26.2500886435671070 -22.4988054567788325 20.8175211505836018
26.0497291997673699 -22.6220128535008698 20.7348794937862415
25.8565187407000430 -22.7377848180032345 20.6439450025590183
25.6726017845760488 -22.8457415906030050 20.5454199335252596
25.4983917802509836 -22.9478096381538563 20.4372348928519330
25.3314521891772841 -23.0487221025042643 20.3182782134893749
25.1659969791109752 -23.1541474057987244 20.1925656087748493
24.9947702680464943 -23.2674411113267183 20.0700792167304058
24.8125572836279531 -23.3882101981216408 19.9636217333059705
24.6183264260970631 -23.5141982178644540 19.8836470080648766
24.4145847085936474 -23.6442581444278730 19.8340273866309111
24.2049737531868061 -23.7792477878655006 19.8108237005281715
23.9930712206281314 -23.9199261732576716 19.8052184570442513
23.7829092694445308 -24.0643272901554113 19.8091675022223015
23.5784292335066290 -24.2080602573753723 19.8193258436258333
23.3815854380843682 -24.3472241257451998 19.8361711316799934
23.1909478563188998 -24.4810362135175481 19.8599299933651636
23.0022281032718432 -24.6120537496896290 19.8869314915341633
22.8111343105509334 -24.7434960596967315 19.9084562129774660
22.6167441844977901 -24.8761663735538363 19.9123195588245956
22.4224592404387373 -25.0079389925161450 19.8866306524048682
22.2345851766224207 -25.1351758589280294 19.8241067521744228
22.0598230588963347 -25.2541739555741458 19.7246643499983954
21.9030307756988876 -25.3617336751588383 19.5944892155414436
21.7662813822348085 -25.4552866343383783 19.4418551283765844
21.6490904683392884 -25.5334419204940772 19.2727070683630615
21.5495595994026381 -25.5964133955396278 19.0894391693982470
21.4653368782688645 -25.6457745699532893 18.8923749756827988
21.3936658844994270 -25.6836039858242486 18.6819128668851846
21.3315875522476937 -25.7113337633915933 18.4605993245138293
21.2767020713248804 -25.7292535934803297 18.2326121190478112
21.2279145474290125 -25.7369138926973875 18.0008729688718638
21.1856575633333932 -25.7338022443264478 17.7660913366885076
21.1511346689110162 -25.7198674397915994 17.5283285876271435
21.1250067862664466 -25.6956350868159049 17.2878117601582701
21.1067901403230955 -25.6615890156604038 17.0439071246374709
21.0951096519107288 -25.6172762101083720 16.7942102295307158
21.0879588010301759 -25.5617138987826067 16.5363607067964011
21.0826130346309775 -25.4956730039268962 16.2724995444760339
21.0757828362561810 -25.4231226506059187 16.0111501157166494
21.0647076867031977 -25.3491345916338062 15.7617292362823243
21.0482616399977474 -25.2762056877518191 15.5272203906983002
21.0269782865864236 -25.2032167258309272 15.3042389520305413
21.0021554865953668 -25.1275177467884205 15.0885819495914344
20.9746089337939381 -25.0475292002992589 14.8788001612947589
20.9436953426014796 -24.9639493450694445 14.6758301889259535
20.9072062773045424 -24.8790301414565675 14.4803443334798043
20.8624922284771444 -24.7948524390023906 14.2914352114515211
20.8081926610871655 -24.7116971824307043 14.1076036672850620
20.7451087847840121 -24.6273672976027882 13.9276798402075990
20.6754475629982650 -24.5379851184266329 13.7505759519137296
20.6013547857397832 -24.4397354308082129 13.5752460781810509
20.5241621910858143 -24.3304801989567707 13.4016293184814117
20.4448397422810118 -24.2103654354096989 13.2317113504483057
20.3645176356700581 -24.0806714198447409 13.0687337772247218
20.2842008060381893 -23.9418015418470418 12.9152101651622750
20.2042259293039592 -23.7922096591991590 12.7726289810456368
20.1244442724975379 -23.6287662372025054 12.6436505213027406
20.0450365271012068 -23.4477563050592508 12.5339825228944477
19.9668772665212728 -23.2460950382485194 12.4502035359737739
19.8912314815083739 -23.0233046130879941 12.3944958531428711
19.8196545593128199 -22.7832863895057329 12.3623498082059751
19.7539782820212153 -22.5329832321111638 12.3457987850355977
19.6959440093211242 -22.2790725643006908 12.3380088482480410
19.6467765835509915 -22.0259799141244628 12.3352145264563369
19.6070984455374457 -21.7760232276660517 12.3360085523465752
19.5769823938465102 -21.5304766597946511 12.3397491177723673
19.5557825854523415 -21.2901664880821997 12.3453979312802673
19.5420745448152502 -21.0549908610794603 12.3514091954089835
19.5342384931364137 -20.8230580955783680 12.3565852364189155
19.5312897714767111 -20.5908509002126436 12.3608380819321546
19.5331038469397633 -20.3548271747999863 12.3647643288104092
19.5398686186885833 -20.1129264474833462 12.3685045072275770
19.5513398849573861 -19.8650084048202160 12.3712881241413619
19.5663875953566446 -19.6140134322369128 12.3719384660810192
19.5830273369601926 -19.3666985499475253 12.3694449873161183
19.5989800857013279 -19.1295838852121207 12.3631851222750360
19.6123326584374915 -18.9045471433706673 12.3528675022291416
19.6219299380217542 -18.6887780512912336 12.3383690792597740
19.6272373627016634 -18.4780336520749771 12.3196825648929575
19.6277745557084913 -18.2687683639947096 12.2968018946954949
19.6225982583749001 -18.0579405808570108 12.2694541110509174
19.6101579265203227 -17.8429044394254994 12.2371024393313892
19.5885652165515829 -17.6226076078715330 12.1993658895209052
19.5560766948836395 -17.3985738525247911 12.1562755217244796
19.5114281893218369 -17.1742219198749986 12.1079347731058320
19.4539087152389598 -16.9532567683416637 12.0540154638090122
19.3832970066052042 -16.7382936410577017 11.9936627845225203
19.2997766313527066 -16.5301984463121308 11.9257519425418579
19.2039788322691827 -16.3284902635126024 11.8491445982393238
19.0972526848755351 -16.1325201759660892 11.7629690995214453
18.9820741388133314 -15.9425147141044654 11.6671533610592597
18.8622333017042507 -15.7597126111122527 11.5629470265472598
18.7422272679456903 -15.5853061263384163 11.4526746839391684
18.6257450855060576 -15.4188914834352389 11.3384082396917947
18.5143793343362759 -15.2580660356398994 11.2207219461201220
18.4078846980765647 -15.0996676068500939 11.0989904092622922
18.3054122291476915 -14.9410860673550445 10.9727559027574948
18.2063325185230482 -14.7804302452635881 10.8424967073152025
18.1103718611938405 -14.6160463056848791 10.7092474699510625
18.0175405825441040 -14.4463591990704145 10.5739316796446925
17.9280923313812153 -14.2701554160681887 10.4371870369216495
17.8424423755143309 -14.0867497922931975 10.2996578251749291
17.7610306271510190 -13.8957461322432287 10.1623024432712015
17.6842120171830359 -13.6966599285338297 10.0264055678815325
17.6122746645356258 -13.4888138622882856 9.8934042120083507
17.5454803607401466 -13.2716243765486048 9.7648807819598158
17.4838932121159836 -13.0449803017489785 9.6426742616395007
17.4271294523387041 -12.8093875527386771 9.5287159620318427
17.3745281511337026 -12.5661587894743505 9.4245966130265373
17.3257951776569357 -12.3182038684556332 9.3313548882283115
17.2814748247822259 -12.0707905200303465 9.2496909761468835
17.2426112912059466 -11.8302900398339226 9.1800787700322246
17.2097992855424380 -11.6004955584264984 9.1221667722695692
17.1826162988154394 -11.3798894776843262 9.0741002265386310
17.1599443934113225 -11.1629129218248799 9.0329416392601445
17.1404898600476265 -10.9433630796414150 8.9959312963271927
17.1228930435893147 -10.7171722871453952 8.9614423890777815
17.1056798239688348 -10.4843910905741637 8.9291478170392260
17.0874408267472546 -10.2498049948476435 8.8996179095870076
17.0670963115717953 -10.0201063468099605 8.8736034938935724
17.0439655952857834 -9.7991051455419758 8.8513733895320978
17.0177449376093968 -9.5860615581648183 8.8325816993467257
16.9884580197843214 -9.3773564023332554 8.8165484448721383
16.9562169139310974 -9.1676231707505451 8.8025012777401734
16.9207823975668070 -8.9487886843007836 8.7896263272406596
16.8813198573318815 -8.7094676933414057 8.7770936440507601
16.8368960062531912 -8.4383266479207535 8.7642456836762044
16.7875951562369075 -8.1309957353851630 8.7509023312280050
16.7350940726788586 -7.7937942590699834 8.7374602931173158
16.6819021693385068 -7.4394220626026915 8.7246039898574743
16.6301531058620533 -7.0796559175670062 8.7129164269435933
16.5810606159014213 -6.7217148050847406 8.7027100453182946
16.5350800439356149 -6.3687944148318216 8.6940738877261303
16.4922667365524980 -6.0219144743000896 8.6869795398207650
16.4525223081143892 -5.6812477271782811 8.6813536026420053
16.4157028841577528 -5.3467144191653340 8.6771094103601047
16.3816539170654281 -5.0181752693674504 8.6741571939613760
16.3502188389204264 -4.6954796937714782 8.6724065988052743
16.3212407702315545 -4.3784753615690128 8.6717671802104874
16.2945627921766416 -4.0670097211673575 8.6721484821664188
16.2700279818687150 -3.7609301981420398 8.6734600474958370
16.2474794160782317 -3.4600842161444394 8.6756114189235980
16.2267601715523035 -3.1643191986949226 8.6785121391679318
16.2077133250367780 -2.8734825693067592 8.6820717509467009
16.1901819532774525 -2.5874217514929043 8.6861997969777605
16.1740091330201281 -2.3059841687663152 8.6908058199789568
16.1590379410105953 -2.0290172446399506 8.6957993626681471
16.1451114539946552 -1.7563684026267659 8.7010899677631830
16.1320727487180910 -1.4878850662397145 8.7065871779819126
16.1197649019266969 -1.2234146589917483 8.7122005360421895
16.1080309903662737 -0.9628046043958225 8.7178395846618670
16.0967140907826192 -0.7059023259649031 8.7234138665587881
16.0856572799215201 -0.4525552472119330 8.7288329244508134
16.0747036345287739 -0.2026107916498763 8.7340063010557962
16.0636962313500256 0.0440836172082353 8.7388435390916754
16.0524781471287383 0.2876805558480875 8.7432541812777540
16.0408924585783694 0.5283326007379312 8.7471477703520932
16.0287822420688357 0.7661923281461451 8.7504338492675906
16.0159905706616073 1.0014123124138141 8.7530219630479920
16.0023604905325953 1.2341451121789166 8.7548216735644786
15.9877348633336034 1.4645431777713576 8.7557426584691811
15.9719554827647450 1.6927583269284767 8.7556952664113368
15.9548589521943729 1.9189392514530947 8.7545931102014070
15.9362608486727666 2.1432215977853240 8.7523630171414446
15.9159065814159195 2.3656951383269149 8.7489756758631394
15.8933521804783044 2.5863140882937969 8.7445179663220856
15.8677524182612437 2.8046976579256615 8.7393090345298070
15.8376290968267881 3.0197817334181778 8.7339662488723846
15.8008425223925730 3.2293978606133216 8.7291515885176327
15.7549637755000180 3.4301403740783432 8.7246760863420292
15.6978490860545747 3.6181909120467974 8.7180987202676583
15.6279368252272430 3.7913940957670658 8.7039145554266462
15.5443996695924529 3.9512118469664976 8.6747901942687164
15.4478682810570227 4.1021411554789076 8.6248286466938335
15.3412482085840303 4.2489294206785635 8.5526190878245991
15.2291523317099244 4.3949521457767728 8.4618320264155251
15.1161811392031726 4.5425571393810449 8.3594384332244474
15.0054312211156091 4.6937841455380944 8.2530725894250381
14.8980790519016484 4.8506424545455040 8.1489518138683632
14.7939960517937195 5.0149315135806667 8.0513357105651799
14.6927448633626252 5.1877360096600356 7.9633064777855225
14.5941334632646562 5.3692843951493341 7.8875145250756189
14.4981750077373395 5.5594126020469261 7.8261510861529340
14.4050319748052118 5.7577320493423851 7.7806516692381189
14.3153524524206084 5.9628974312154295 7.7517175371619631
14.2305114852905916 6.1720576060975771 7.7395607107273898
14.1522102338693028 6.3817357533915473 7.7441691305037761
14.0817555935009846 6.5896528376920855 7.7655831601758036
14.0197240348340397 6.7957631767730220 7.8040870134308769
13.9662260918927466 7.0014462488757436 7.8601148886196484
13.9214528715319172 7.2076953578343117 7.9338978624962184
13.8860101381271086 7.4144547086405588 8.0252946447028943
13.8607484200168294 7.6218053383799731 8.1340196148466113
13.8462369829846814 7.8305732906528460 8.2593578869242812
13.8421857342620136 8.0402571364038113 8.3984326520239776
13.8471423833557434 8.2465410038354996 8.5445406389233760
13.8587297907917169 8.4428077628851916 8.6886374244687730
13.8740967266498547 8.6245706111651153 8.8231115982410344
13.8900097356691514 8.7914093938184266 8.9434826325933976
13.9028240282271618 8.9471208743809605 9.0482353385248331
13.9087315348291014 9.1001844346261542 9.1385968898591106
13.9039466327798831 9.2608916994923849 9.2163827289197737
13.8847044067819390 9.4347845616841397 9.2802305660393767
13.8477560515255167 9.6198546441743780 9.3251552350913709
13.7913967977116343 9.8098986724635076 9.3460804022818422
13.7160878925178960 9.9990666927794436 9.3409346261437172
13.6241495496574618 10.1838582840529384 9.3107400175254345
13.5191222678039225 10.3629168486420173 9.2580715412168360
13.4053511157288590 10.5363553953094122 9.1860484399705502
13.2875605043702301 10.7054352026941828 9.0984205544084844
13.1701560761385394 10.8722272976590020 8.9998999296132212
13.0564724720730272 11.0390635396005923 8.8957039652463941
12.9482919004367822 11.2083929407698193 8.7903602604723279
12.8459268073765998 11.3828188612289658 8.6869030281025026
12.7489462615059725 11.5644271504422225 8.5870347544836179
12.6571153513985593 11.7537086171116023 8.4918944701166321
12.5709439158249623 11.9491793133418192 8.4028926599985692
12.4914706840265328 12.1483553425050470 8.3219690382978584
12.4194615185655888 12.3494389393930195 8.2509603272827547
12.3547547521670342 12.5520333454919477 8.1907980572230770
12.2964992881274284 12.7561274488545173 8.1416210168297773
12.2440547451992732 12.9608778394042474 8.1037582686723972
12.1975999325441062 13.1650674642923544 8.0785535785162619
12.1580317277941994 13.3689847806441922 8.0683392908088685
12.1266537987759442 13.5754485811367509 8.0759227583558904
12.1050922507393857 13.7887219260815481 8.1040919380295371
12.0950842517051154 14.0122051118922357 8.1546587122346192
12.0977596523339610 14.2452195307525376 8.2264172663172310
12.1127433500550925 14.4805483002743589 8.3132743405045648
12.1377307530248189 14.7073360336654382 8.4052290511691368
12.1684873755066700 14.9180446198667731 8.4917619129727147
12.1986362989535841 15.1108239756841822 8.5636383645758549
12.2193044499774253 15.2864968041285945 8.6126997377324734
12.2194037174751529 15.4461397232405169 8.6325545062291358
12.1874298651618247 15.5905226429664232 8.6206916019504209
12.1152351781615994 15.7190831188058198 8.5798993090917008
12.0021869569416033 15.8298224610891420 8.5173567192808015
11.8559476340790084 15.9222667322778051 8.4416879541684402
11.6884112089011243 16.0002784516960581 8.3601728706529990
11.5104543959011796 16.0713969506580767 8.2778922330040636
11.3295385301304989 16.1439695285266467 8.1984725662642610
11.1500785984642850 16.2247961094322903 8.1251032178118940
10.9742343861857936 16.3181696743609521 8.0610359827031335
10.8024276723464148 16.4256451859716179 8.0096287961006372
10.6343964947597058 16.5461426374682183 7.9740464695852218
10.4705539121383229 16.6768983099280419 7.9564361588532124
10.3124191862376300 16.8152395330403372 7.9570477718693944
10.1618242510203487 16.9599242897594209 7.9743918397267857
10.0201317386889670 17.1111071010302425 8.0065096678582837
9.8884257593099800 17.2691994132141105 8.0520534207125785
9.7680828598186586 17.4334857951628379 8.1101995335530397
9.6605718155517142 17.6017895492390508 8.1798701212013771
9.5663876639817307 17.7717625977926872 8.2593104931002888
9.4841673958379253 17.9424647525250549 8.3462193878121180
9.4108566414865447 18.1145530887842163 8.4379746839468694
9.3425951962768607 18.2890561633276931 8.5316574569500663
9.2751557711967614 18.4660066283945312 8.6237188794960815
9.2035349891268883 18.6437729649140493 8.7095647262284199
9.1216690065441188 18.8187043576407937 8.7834986466350902
9.0232141931895065 18.9847451991145064 8.8391854724027041
8.9033339260780338 19.1337994240667193 8.8707768305911596
8.7604957267568189 19.2578434787112123 8.8748559510080423
8.5969931006585085 19.3522218777760528 8.8524262637189430
8.4176163621444164 19.4179031752872291 8.8090970221476894
8.2274403520022368 19.4612584959705401 8.7528445356841260
8.0305248740379902 19.4920232346771911 8.6910246602007604
7.8298584835202707 19.5208287841893195 8.6287994327038717
7.6277669195098490 19.5570590315645063 8.5696058941949609
7.4263941599406147 19.6072798204622920 8.5166105020688896
7.2278007573216403 19.6743641120310571 8.4737452002577491
7.0335538629512362 19.7575370145620752 8.4455825689705719
6.8446088162736753 19.8535578090006126 8.4360052166275388
6.6617713221119814 19.9586944100939476 8.4463460356090270
6.4857105347184376 20.0703335346138729 8.4744505412246340
6.3162957523576342 20.1871563559126486 8.5156620708793760
6.1521602934882011 20.3081711893759120 8.5647098196480940
5.9907382172037629 20.4316825521539087 8.6168311597927048
5.8288686963927105 20.5547641174597899 8.6679781901461190
5.6637677416254029 20.6730170049349553 8.7144683327591572
5.4933907812281593 20.7803746529429745 8.7521942431455173
5.3162931120451820 20.8693941729714822 8.7763368144671539
5.1319574036566369 20.9326428711732930 8.7822695049436739
4.9415648550495348 20.9650497802765834 8.7669659673025926
4.7480648060059094 20.9662636065505623 8.7301247524290808
4.5548769997968943 20.9414483325580179 8.6745343650199782
4.3639435095949768 20.8995058601703469 8.6054043156691513
4.1746048936829174 20.8499947994304868 8.5291267670945459
3.9841934172111944 20.8011860997376026 8.4520313448905320
3.7898699782899512 20.7601707496400500 8.3793658652632157
3.5902750430691470 20.7334392458408985 8.3150337022974377
3.3859676028258852 20.7261015842362646 8.2624333798089609
3.1786777984710737 20.7401943271297355 8.2254837968008623
2.9701707700918361 20.7740967954277203 8.2084396289912345
2.7618072905338198 20.8240968640794506 8.2141699881780106
2.5550672508462244 20.8867714887806812 8.2421720985514391
2.3519493153402928 20.9600209178206143 8.2882108230139231
2.1544712477186589 21.0426026272467723 8.3462257008862544
1.9637921679745651 21.1337435700145164 8.4110657358835432
1.7799760398204989 21.2333067783063001 8.4798667193061874
1.6027436445654619 21.3415574456363188 8.5513498399489229
1.4323603767775466 21.4582648791843127 8.6242003308868131
1.2692362321227848 21.5819527561662348 8.6960839936446028
1.1122259398232925 21.7100040033601971 8.7640834070919844
0.9579215172226665 21.8393991536908132 8.8259343396168095
0.8020891279343634 21.9672094524898256 8.8805646243979286
0.6412086446046330 22.0904061448459643 8.9276738217951390
0.4727130681783078 22.2052508924800307 8.9672700504478247
0.2952008063053984 22.3068878026936304 8.9995211569126496
0.1090928488247416 22.3894195412015868 9.0244199348032517
-0.0833375346473550 22.4465271052000404 9.0410935197934936
-0.2789656309605721 22.4731443556174568 9.0474910368317367
-0.4752094151399144 22.4680828819909735 9.0412815486037914
-0.6708849993988131 22.4358952107981970 9.0216056606201462
-0.8662460344897074 22.3859230976517551 8.9901264172448911
-1.0625180594939621 22.3290295132397212 8.9505824244460612
-1.2612717356384864 22.2746747291269998 8.9076471905686816
-1.4636853709822075 22.2297369722895368 8.8659831488540739
-1.6699052364185079 22.1984095276139577 8.8295388102248786
-1.8788519683021097 22.1823637125222710 8.8009334769508776
-2.0886800146745008 22.1812461598654949 8.7811942577857494
-2.2977068351649876 22.1935327936697604 8.7700012238930576
-2.5052056636596749 22.2173290450336793 8.7661540328630245
-2.7114022346218070 22.2506841297548341 8.7679103010566859
-2.9168245483510171 22.2912653914058829 8.7730192875367514
-3.1216115967333762 22.3355829041708347 8.7784640624992338
-3.3253862618715679 22.3782206090419926 8.7801654405707446
-3.5274963462718656 22.4116358278650054 8.7731150248398890
-3.7267372979442488 22.4270938647087235 8.7522740744552188
-3.9206232910604548 22.4168603563724353 8.7141324693415605
-4.1055741625985833 22.3767423835018171 8.6582116792022497
-4.2784107580647612 22.3073289467053186 8.5872682222456440
-4.4378635226738128 22.2130413140890326 8.5056841214259649
-4.5849795997940248 22.0998828821861579 8.4172928640577229
-4.7225835677721850 21.9735217934080858 8.3243420238016910
-4.8544414458064260 21.8386129935186943 8.2279760381338711
-4.9847215955276134 21.6991226769658532 8.1292244686745896
-5.1177226121446076 21.5588820848788387 8.0296337901658923
-5.2572521816510385 21.4218750721451485 7.9316112082529040
-5.4056907969698367 21.2919877759102363 7.8386503392653388
-5.5635790112138928 21.1719142483969733 7.7550740226472605
-5.7302008526371644 21.0621088699283021 7.6853991772774055
-5.9045153468977514 20.9610036954174817 7.6337563311336121
-6.0855884139682743 20.8664629544451152 7.6029857492941577
-6.2727909276655822 20.7775525070102844 7.5932952242323015
-6.4658989573964583 20.6955865655081723 7.6017678530202897
-6.6646061221012580 20.6236471927272902 7.6236161934613591
-6.8680491477413579 20.5649183724573490 7.6541804143629086
-7.0752300404100499 20.5210864742558599 7.6901529918645037
-7.2854511276781810 20.4917514721725276 7.7295864072205882
-7.4978189557257142 20.4746940157231023 7.7712743581298867
-7.7107052011994917 20.4662407915324138 7.8143278986986004
-7.9221123579574027 20.4612893394240132 7.8582532310648725
-8.1299804700800813 20.4531293664735330 7.9029980769496362
-8.3314221009590295 20.4334833682479342 7.9481325124407967
-8.5217124401218562 20.3932474899271625 7.9910886332180198
-8.6945474152223756 20.3242646671048206 8.0259088247729657
-8.8440560985123220 20.2219649171466607 8.0446022617887607
-8.9678649828559838 20.0877340611829140 8.0411873702432111
-9.0693135248308536 19.9289635643156302 8.0153782177689834
-9.1570032179241103 19.7559151557535770 7.9728959824188168
-9.2418018791932042 19.5776756231836231 7.9227428864813705
-9.3333957544206108 19.4001843380303001 7.8740327044092941
-9.4381214254346286 19.2267629631585635 7.8340936995180375
-9.5584276270242263 19.0594635596264794 7.8077762561218513
-9.6936207661516995 18.8999053444249405 7.7973761396081844
-9.8413707752764576 18.7494866213205000 7.8030000142777309
-9.9991599765002661 18.6092792128346183 7.8232733440003379
-10.1646854080883031 18.4797909555287099 7.8560400681984977
-10.3352934489142854 18.3605342909892180 7.8987689775850463
-10.5075851325325988 18.2493161536105895 7.9483979489256633
-10.6775195644303569 18.1413612266398232 8.0006600064577515
-10.8400114120173221 18.0285059425666958 8.0496666238742662
-10.9873848333991937 17.8996171902463921 8.0882956269092858
-11.1084616371491656 17.7442504404092780 8.1092665302174751
-11.1912140744566546 17.5596166255956234 8.1068710362501797
-11.2288985289924454 17.3552472035707197 8.0789628644876430
-11.2248168806124813 17.1477337054328522 8.0277237801167907
-11.1909898233579046 16.9487596480795304 7.9583094535812942
-11.1421867380518176 16.7596678009717408 7.8766023118509549
-11.0907124961380905 16.5754181087303252 7.7879352771545944
-11.0449037820898504 16.3902520585244993 7.6972736187825284
-11.0101552689754385 16.2002433224461271 7.6098486372768521
-10.9900443547665407 16.0036274623110195 7.5311407869028866
-10.9867464163592139 15.8006200082743256 7.4662937677466701
-11.0011372339228188 15.5929425551106391 7.4193978352058343
-11.0328086289486809 15.3830137025730931 7.3928668502421937
-11.0800779130419738 15.1733639402268778 7.3872201775201054
-11.1403232610092111 14.9664570192185344 7.4013969276191158
-11.2108283543471980 14.7643465830578933 7.4334065863263037
-11.2895778785340912 14.5683320089839583 7.4810086545859287
-11.3753740659504334 14.3791222966110688 7.5421631077359743
-11.4674153706141553 14.1970591664158601 7.6151495958783846
-11.5648261214613051 14.0221610122994527 7.6983684879105292
-11.6665672916873042 13.8539770847138115 7.7900042954100632
-11.7716215452829207 13.6912085680702482 7.8876081453478175
-11.8787996128067572 13.5315216129847862 7.9874875177576072
-11.9861106185318231 13.3716496630833799 8.0842176154784848
-12.0903289261056912 13.2073330172619450 8.1707439921666278
-12.1870701386578375 13.0331169976294277 8.2391186750054288
-12.2713046837289586 12.8427871234053175 8.2818612911029899
-12.3383260326084319 12.6316799494271841 8.2939985706667407
-12.3850377749912681 12.4008696820916757 8.2752279251916594
-12.4108741365267754 12.1595190994866584 8.2306744902748861
-12.4178246150369080 11.9204919599655348 8.1689283762250557
-12.4096935993652906 11.6921485699778671 8.0984637361448861
-12.3910829798196680 11.4753113302253560 8.0252849737879899
-12.3665489032288161 11.2660874905293529 7.9526336821198287
-12.3400551310830568 11.0593348773631810 7.8818337249176373
-12.3147647947935805 10.8506936704281376 7.8134637843704242
-12.2931221994858646 10.6376617371029010 7.7482749844348362
-12.2770102774963519 10.4200741220582955 7.6875436515760809
-12.2677912401175515 10.1998782383565221 7.6329410977456655
-12.2662115531531253 9.9798360540697164 7.5861474619057585
-12.2722790751864785 9.7614115145554763 7.5484763401107999
-12.2852463471166811 9.5435253387603289 7.5208188429866301
-12.3038435010419356 9.3235402589462932 7.5038907267981472
-12.3268289416335133 9.0994166950422777 7.4982928280932812
-12.3535579879582595 8.8712750861673655 7.5041652809977224
-12.3840295890690051 8.6416584535983514 7.5208552092928258
-12.4184389304498826 8.4144640371680719 7.5470649167077068
-12.4569200281657899 8.1929635021017244 7.5814795123045577
-12.4997746267876462 7.9780916094765733 7.6234627839038254
-12.5477358145497693 7.7682302629869868 7.6732088818058681
-12.6017536107869947 7.5606449754017993 7.7310394654384602
-12.6624011035562614 7.3535637976654451 7.7964285827681117
-12.7295351000678867 7.1471848418064106 7.8678517677285917
-12.8024609122151904 6.9427944380915498 7.9437008256510522
-12.8801455214251597 6.7414243814834363 8.0230791655384710
-12.9611448561774516 6.5436421172785604 8.1053756185057697
-13.0435059773873370 6.3498983225774790 8.1892409345838182
-13.1250702602797737 6.1600991975832535 8.2724223259767555
-13.2040358670454907 5.9726028278672096 8.3524961864428189
-13.2791441106817043 5.7837828514320160 8.4271708810686174
-13.3490845131863569 5.5883961173231738 8.4936744275691574
-13.4115265218242197 5.3802707763298212 8.5483257133252391
-13.4626825840955515 5.1542461867463416 8.5874021941570913
-13.4979942385862852 4.9107144466420616 8.6088752425945962
-13.5138426412214478 4.6589546413570728 8.6135343167085026
-13.5092184390347452 4.4123797406351910 8.6045104256009459
-13.4859340293743877 4.1786345026287552 8.5855930061564276
-13.4473193110173277 3.9562392114933171 8.5596888375419926
-13.3968333856875095 3.7392096199641269 8.5283220597090548
-13.3375562873340829 3.5222045045956083 8.4920741741022567
-13.2722326738841421 3.3023796626424193 8.4513684872049737
-13.2033079020236155 3.0792533395561232 8.4070196570711389
-13.1330291638367580 2.8543782939242437 8.3603223591326561
-13.0637092912745061 2.6309814694791456 8.3128607922270454
-12.9976875048019807 2.4126715743404663 8.2662004121744701
-12.9367341645141600 2.2011457114806117 8.2214802142400245
-12.8815413344002501 1.9948491068135379 8.1791403262225941
-12.8319254721370815 1.7901718985447488 8.1390933315712140
-12.7874117936629297 1.5836601116580198 8.1011591712479074
-12.7476231760627385 1.3731163556283672 8.0653701839256602
-12.7123622907039184 1.1574217143162127 8.0320186961156104
-12.6816031525770079 0.9359797160225334 8.0015326747013233
-12.6555729175109999 0.7083494360597982 7.9743261781727002
-12.6348552397049314 0.4741290325424963 7.9507558300018140
-12.6203753707966495 0.2329645250829895 7.9311563664828384
-12.6131964557427860 -0.0154046202536939 7.9158580788921276
-12.6141945213055084 -0.2711009549340151 7.9051804360460407
-12.6238621986743986 -0.5340675059371751 7.8994396474919464
-12.6423580808213316 -0.8039318808074665 7.8989800245975310
-12.6696434235870559 -1.0796358208211334 7.9041956396887061
-12.7055452900939514 -1.3589139594469444 7.9154987926599123
-12.7496904579745447 -1.6381235164646437 7.9332571621956820
-12.8013680208840412 -1.9129646049821982 7.9577509408272515
-12.8595906702701210 -2.1797689063128445 7.9891186601088107
-12.9233884901636635 -2.4363077596255120 8.0272958682111160
-12.9919484611534806 -2.6817134826397755 8.0720511024653199
-13.0645197332836904 -2.9159967419240616 8.1231081424996567
-13.1403890790520599 -3.1396290957323583 8.1802018391687952
-13.2190078045437147 -3.3532663194678154 8.2430170860012346
-13.3000651532178473 -3.5575502184421630 8.3111285553347880
-13.3833616222510354 -3.7530269046628053 8.3840389341762638
-13.4686445950454257 -3.9402153187110542 8.4612582094006896
-13.5556352330678180 -4.1197290555381176 8.5423533352288104
-13.6442231906516529 -4.2924124627570954 8.6270317058917989
-13.7347403666954158 -4.4596270030909615 8.7153592754652678
-13.8283320269126300 -4.6236533317960458 8.8080681275351402
-13.9271917434766017 -4.7876314204243862 8.9066324627845930
-14.0340341993539681 -4.9543829858620789 9.0126416140344361
-14.1507451074395796 -5.1245503116361171 9.1265065017560563
-14.2773361016951945 -5.2958360306567727 9.2465557537232819
-14.4121679831222913 -5.4644229597351632 9.3694723803591629
-14.5528992511931641 -5.6272336418541897 9.4914824778186606
-14.6972677616351071 -5.7832695803434611 9.6091691085263786
-14.8434790338035683 -5.9337248730201253 9.7196705182633423
-14.9903576727433148 -6.0814856328110167 9.8208586467350898
-15.1373273435992104 -6.2304381889176454 9.9116363184320129
-15.2838742620412127 -6.3844948601554385 9.9915648362574583
-15.4284001753846916 -6.5463257350271533 10.0598860885419157
-15.5676090857158655 -6.7166751027605009 10.1153767228398799
-15.6974424942217290 -6.8951099111316019 10.1576629046347673
-15.8146341268534840 -7.0811951794666967 10.1884417631546604
-15.9174892786506312 -7.2744341611227341 10.2109648035464460
-16.0059744754251874 -7.4734765508115437 10.2282696394766504
-16.0817723614902448 -7.6766172689385783 10.2419656402801564
-16.1478729151498186 -7.8832239396877917 10.2524131743142028
-16.2074177705684015 -8.0939786610506275 10.2595790286706663
-16.2626268401832590 -8.3096855786277537 10.2636348765590544
-16.3144756724700670 -8.5299380556824360 10.2650862495578323
-16.3629632577236706 -8.7526837714467369 10.2646780707439103
-16.4075932157607980 -8.9752039553752994 10.2632906283795045
-16.4478385970940053 -9.1961237156986719 10.2618773591041332
-16.4834037014190322 -9.4166577720696054 10.2613995663116455
-16.5142786234472219 -9.6397037768018095 10.2626864759178211
-16.5408136057972612 -9.8678573654061417 10.2662292778325384
-16.5637692251408311 -10.1019647690235459 10.2720659161757943
-16.5841218421158985 -10.3405232162423992 10.2798670487716990
-16.6027657743506900 -10.5798642939501626 10.2891329100410029
-16.6203723386088278 -10.8156686502775514 10.2994291695359994
-16.6373958481114492 -11.0457388237525507 10.3106608083605735
-16.6541531140233374 -11.2718793102589494 10.3232592524870448
-16.6709589086685739 -11.4987966374981667 10.3381650449116655
-16.6882188085296725 -11.7308887156703179 10.3566523882920727
-16.7063418034801927 -11.9690003658953401 10.3800280168663406
-16.7255714451803357 -12.2091174813833447 10.4092891539829004
-16.7460491969904055 -12.4447087832295971 10.4450435001715682
-16.7681359884106271 -12.6712570700813991 10.4878216454331241
-16.7926444468460758 -12.8886767856814366 10.5385037202873928
-16.8208685211545195 -13.1006944975186101 10.5987388850785145
-16.8544868524443707 -13.3129976167602990 10.6712123144551576
-16.8952197287012282 -13.5306002927067759 10.7591565421847761
-16.9441986664068054 -13.7546435872746144 10.8648913926063564
-17.0015037414551458 -13.9811468085251889 10.9885882801719816
-17.0663566421763662 -14.2035250692133772 11.1285332472212506
-17.1377598068970691 -14.4162811889976830 11.2822592654729057
-17.2149296839495740 -14.6166890072724946 11.4473079143021401
-17.2971757462431590 -14.8043401638375300 11.6214735427455533
-17.3835827163510928 -14.9800365403542735 11.8029572104077811
-17.4729981409207653 -15.1449674071830174 11.9904813625846813
-17.5641950278395562 -15.3003146661535787 12.1832198496101434
-17.6558485948443789 -15.4471340666960906 12.3806271645311998
-17.7465206370429627 -15.5863548245083727 12.5822714908405864
-17.8350192876892706 -15.7188189702131282 12.7876022777405236
-17.9208667918947420 -15.8453454553210520 12.9957015509644656
-18.0043326132109733 -15.9667932885000319 13.2052365471059598
