BEGIN_0
-23.1200491058392750 7.8575162542664518 8.2954231925882560
-23.1603336274739213 8.0340695449863233 8.2006657274975030
-23.2134063424449550 8.2087754369035792 8.0878719589837758
-23.2725539039668483 8.3805178001337293 7.9627178572725956
-23.3316397542643621 8.5495992897118107 7.8304735812378992
-23.3853373870089456 8.7172015736161814 7.6956676235010866
-23.4295722801577320 8.8854869789356865 7.5618893384259405
-23.4620648765666644 9.0584319967636073 7.4314637488960082
-23.4824333498212603 9.2421558617430914 7.3055193097241657
-23.4915445558819158 9.4432631071924593 7.1848505231695245
-23.4905690381472496 9.6646147008562711 7.0715690828906030
-23.4804175371587043 9.9014416966653229 6.9702517509111370
-23.4616892644580020 10.1433668029492683 6.8864431890045079
-23.4348311702164196 10.3817888799229880 6.8233783911132342
-23.4003499929666425 10.6142616672278614 6.7807975917627559
-23.3589873105306580 10.8425145608081657 6.7565548957191615
-23.3116867759694593 11.0681431737152458 6.7485561874628592
-23.2592227346688567 11.2905400414787120 6.7553965802226035
-23.2017295970204778 11.5077564122896696 6.7760304442954089
-23.1385263672694208 11.7181084968967557 6.8094088151775800
-23.0683589419210371 11.9208887156569556 6.8544105929618615
-22.9899031129700298 12.1163127080714688 6.9098693480858699
-22.9022528096307418 12.3053173085941090 6.9748063106786518
-22.8051772139066955 12.4890516108965421 7.0488710449156731
-22.6992224747010205 12.6678510120485832 7.1320370462208285
-22.5856378200717494 12.8407131774434973 7.2232292693601314
-22.4659464005349356 13.0062344499736486 7.3195330432522221
-22.3414280705556898 13.1641373379722939 7.4169590924247037
-22.2130791027193304 13.3160950141507879 7.5114865428934872
-22.0821698603206968 13.4655234700699218 7.5992907774138843
-21.9507469923502327 13.6165962795137219 7.6765468972997351
-21.8215749809238559 13.7731262222924080 7.7392071823417741
-21.6979318857127623 13.9378145065356787 7.7827815104260409
-21.5837957352788052 14.1115521907316239 7.8025415505930358
-21.4838063958245797 14.2927637134751500 7.7945736350329629
-21.4022079570201278 14.4775479065383408 7.7572354169305182
-21.3412981575801979 14.6608851930779540 7.6920036281693163
-21.3005527833876229 14.8383770910474819 7.6030422415431334
-21.2769522862623397 15.0079442014479607 7.4954208466837651
-21.2661135726082655 15.1710302696902701 7.3726859854037663
-21.2634216308939656 15.3321994030023134 7.2355521767021154
-21.2645158261233043 15.4968332921205647 7.0830229935338656
-21.2653091983558085 15.6684507041476806 6.9152324764169473
-21.2622947710327317 15.8465162711055889 6.7364224873527263
-21.2531715563595043 16.0259266454820377 6.5555499964920596
-21.2369360253082959 16.2003703228916436 6.3823907450499107
-21.2131233961506709 16.3676133761338285 6.2222518652768546
-21.1809037402482900 16.5308858823590654 6.0755095647936397
-21.1387991873290204 16.6958837273712390 5.9410070809993254
-21.0850977549329315 16.8672747989507030 5.8182513457200962
-21.0186065242342686 17.0471042413299436 5.7073565307602827
-20.9393484785250585 17.2352044481173152 5.6086070790700866
-20.8487323207264375 17.4303951388875760 5.5225349077164356
-20.7491237997759725 17.6309221128155507 5.4501309371066196
-20.6432402959834853 17.8340787716420088 5.3926255455212662
-20.5333304921276110 18.0366625578119191 5.3508582564876761
-20.4201206309846306 18.2368331993400403 5.3248377881777760
-20.3027268228728204 18.4350284848732002 5.3138827251965388
-20.1803031259478125 18.6320786624894339 5.3170866806058505
-20.0535736729594731 18.8269170749618695 5.3335727775158119
-19.9243799578333167 19.0167441374139727 5.3624336370043935
-19.7943022749064426 19.1987699345173688 5.4026338313599176
-19.6641951720169992 19.3715615138318853 5.4530383774104383
-19.5347014253366069 19.5356021243128168 5.5126546150739539
-19.4065162874603345 19.6932675921872189 5.5810337969118731
-19.2798985182881957 19.8480289475145142 5.6583848283658398
-19.1544927113416890 20.0029388142377726 5.7449585468022768
-19.0302678846901081 20.1592289493702808 5.8400186730782035
-18.9083536799214045 20.3161281987565800 5.9413344791866827
-18.7902206994638412 20.4720779855002419 6.0456500446755417
-18.6757945072395088 20.6260402090649251 6.1493939101875483
-18.5624949193259852 20.7778985366577444 6.2487411303647811
-18.4466352072818367 20.9284284012141839 6.3391496827500937
-18.3263679492118037 21.0794360992900209 6.4152368262663462
-18.2035246032642384 21.2336310937851103 6.4713480667113465
-18.0829221920464143 21.3939382618584304 6.5019033238228072
-17.9705966734399176 21.5630517028309256 6.5006302326505381
-17.8725685491518860 21.7433929728642212 6.4597329206447736
-17.7936318784880143 21.9361218807872334 6.3712304511623312
-17.7355615279341592 22.1382615702634737 6.2319662416800199
-17.6959814092117611 22.3400913936558574 6.0499851042693376
-17.6694124474099219 22.5274849954893881 5.8446525486563967
-17.6498480210922573 22.6898028751750118 5.6363888191234697
-17.6325332018487835 22.8259741490223398 5.4353764852444595
-17.6138548730208129 22.9431186082541245 5.2405326139260477
-17.5904547281037900 23.0509603969158761 5.0468068174099496
-17.5591376411658864 23.1573330222554858 4.8522100590973949
-17.5176228636518836 23.2666240770125334 4.6593057530233217
-17.4650109293131344 23.3805576652444387 4.4719022476487851
-17.4014420375298187 23.4997013848140099 4.2923523163912218
-17.3273339236296096 23.6247306633558907 4.1219304560333452
-17.2427309477699637 23.7571059941809750 3.9622251235957933
-17.1471378740655851 23.8987527051800299 3.8153943888902191
-17.0398822620644275 24.0509934073711271 3.6834610943074715
-16.9207804018979111 24.2136940926034150 3.5678930855738873
-16.7907784190477400 24.3850434379262424 3.4697573226970633
-16.6521041660480371 24.5617607013000452 3.3898663788999652
-16.5075361779302412 24.7398364768649159 3.3285326117733582
-16.3589758503571403 24.9159654745545538 3.2851571827565866
-16.2062510709709784 25.0889624100601409 3.2582515711621785
-16.0468658436950875 25.2599715940713345 3.2461370116091679
-15.8771499436547643 25.4309165237688504 3.2477666043577358
-15.6950585904640931 25.6017924110124753 3.2629688527002170
-15.5022907693113616 25.7693486226561888 3.2920007278324341
-15.3032031986901806 25.9287419048302752 3.3349434356028205
-15.1020840050557013 26.0760727168663387 3.3914361281622956
-14.9016215491749158 26.2094444600772221 3.4607585680255095
-14.7030594314595575 26.3286274052097440 3.5420261050060891
-14.5069070425871303 26.4343851988781253 3.6343234141615746
-14.3133420983259363 26.5278480458508952 3.7367303240366176
-14.1223635941898991 26.6101655945049238 3.8482920897180382
-13.9340093597185728 26.6827406467858097 3.9680197562520476
-13.7484504979390572 26.7474124395317503 4.0949422933548281
-13.5657749420021752 26.8058555772520748 4.2281487446966963
-13.3858025932535885 26.8588396785252641 4.3667679196205285
-13.2082310757226669 26.9063650176897369 4.5099027465956869
-13.0329051669377911 26.9485022576335709 4.6565699742894004
-12.8598894195205382 26.9859703900035228 4.8057013115866205
-12.6893393204287026 27.0200074481516381 4.9562206448166606
-12.5213356825199735 27.0518691334390624 5.1071462451491207
-12.3557815630462002 27.0823984921282701 5.2576927870500150
-12.1923634046862457 27.1117886012473974 5.4073518626416934
-12.0304757905516819 27.1395699632007030 5.5558177804951061
-11.8689491504418356 27.1649989274574288 5.7027152532668239
-11.7056146638756076 27.1878401986419789 5.8474620172270075
-11.5372022178354445 27.2089481145761525 5.9894771509794396
-11.3602958611021307 27.2299058550280471 6.1280421802779284
-11.1732832762382301 27.2520039637442082 6.2611052033285226
-10.9776676214065176 27.2759210142044459 6.3840804471196062
-10.7772136892499510 27.3026872057174330 6.4903097495313204
-10.5758700939023012 27.3345995576004128 6.5729000705424969
-10.3764169828749324 27.3746226792862863 6.6265457320331667
-10.1803427263317676 27.4247979185256483 6.6487784850921230
-9.9880498184220929 27.4851846301406368 6.6407706847773582
-9.7989297188636613 27.5539680838861969 6.6072520378827448
-9.6117169092681713 27.6283427355808477 6.5551970410409321
-9.4250547023095699 27.7056279829095260 6.4921449564261682
-9.2378678752438823 27.7842176663438316 6.4251668549178529
-9.0496833521160784 27.8638491729235938 6.3603683923625383
-8.8608176464585071 27.9449137576134632 6.3023881958746149
-8.6717848696052684 28.0274793530669655 6.2540981049895326
-8.4824114187104076 28.1110485935846484 6.2171479143127417
-8.2920197887404097 28.1950793173026710 6.1928713678810734
-8.1004097820909848 28.2793064434157309 6.1825328285549226
-7.9081334779975183 28.3634647664387103 6.1870424352164353
-7.7158221013980857 28.4470294453177139 6.2067814952927947
-7.5237727041207343 28.5293252389164955 6.2415783349413356
-7.3324290646463499 28.6096401899819099 6.2906063420675853
-7.1427222576371214 28.6872587423810685 6.3523393228834593
-6.9553817350952691 28.7616769135475359 6.4247130383857893
-6.7701994714355518 28.8328051620026287 6.5051318131096778
-6.5862332729162301 28.9009547776212514 6.5900357567850740
-6.4023477462284006 28.9669023038478812 6.6743927910278131
-6.2173965006943384 29.0319735450945942 6.7514855988082960
-6.0306222617140062 29.0974236059875153 6.8128714705971687
-5.8425499974431947 29.1631858501858439 6.8488381135189647
-5.6555315627006397 29.2271566006355776 6.8501984960130882
-5.4734059210556270 29.2857054279978506 6.8111442140254077
-5.3004279394493610 29.3350016626469987 6.7313503182634342
-5.1397743876998421 29.3723973445641668 6.6158304423147403
-4.9924748844375459 29.3972393564750227 6.4728867831211652
-4.8574420420709830 29.4109225889836274 6.3114620150424088
-4.7320179282635682 29.4164042915887087 6.1387735086016288
-4.6125201439115635 29.4174131363125717 5.9591530428963644
-4.4949474421470406 29.4174072410854421 5.7747772292282864
-4.3756066084053344 29.4185314356058321 5.5873185458892092
-4.2512894497279436 29.4211198775329450 5.3990378792181559
-4.1191510850197588 29.4241186103564232 5.2129306595310343
-3.9766325064249894 29.4261041709415245 5.0324161354429489
-3.8215733233458167 29.4261860120302892 4.8610698675953614
-3.6525578683009865 29.4244290831800051 4.7025473098259258
-3.4694520919742295 29.4217976124465110 4.5605648554005196
-3.2737104704637998 29.4196297743015798 4.4386730827095580
-3.0677126167639619 29.4188309874123846 4.3396597222757283
-2.8531833044850980 29.4194136008097544 4.2648950293565839
-2.6304052375985751 29.4207981381880295 4.2143307064428637
-2.3996436006564146 29.4223959218705886 4.1872844029162835
-2.1633687059950653 29.4238473312532207 4.1831386659931109
-1.9267878422758606 29.4249045277732009 4.2013394776012305
-1.6961421687146787 29.4253041320178710 4.2410346234556187
-1.4764529662894206 29.4248343758824120 4.3009452797123178
-1.2704028623530856 29.4235041505968873 4.3796159909990156
-1.0784937309020561 29.4216074592898202 4.4757836055126958
-0.8997615286326202 29.4196606469573645 4.5885319330509482
-0.7326293731019651 29.4183150415444707 4.7169813841552681
-0.5758402121334631 29.4182397511412823 4.8594999742917331
-0.4290348750954038 29.4199191891990850 5.0130936474112016
-0.2922373619177345 29.4234686951833702 5.1741202738891623
-0.1646474204638246 29.4286279058208464 5.3401466221597609
-0.0441609703938872 29.4348918332488232 5.5110176928400545
0.0722081744160232 29.4416091616765847 5.6881914629524015
0.1875829811418739 29.4479622903418345 5.8728778818596545
0.3044218889517265 29.4529275738904950 6.0640076033992614
0.4242882041585858 29.4554518072805429 6.2574664103933770
0.5486958227636980 29.4549185201317485 6.4473251615350389
0.6801732192061976 29.4516363217575403 6.6274949037873689
0.8222515230506491 29.4470662506188141 6.7918483934415903
0.9781664410441246 29.4436668034354021 6.9331409210829751
1.1493637946121251 29.4442063023973901 7.0429454935897198
1.3349115354026879 29.4505389232453965 7.1140060207426119
1.5317639593566770 29.4622703329254314 7.1437829524341669
1.7356112466068643 29.4763178779134627 7.1363534519830125
1.9422971683291652 29.4880771039530565 7.1009992453218507
2.1490967916689634 29.4933192696069177 7.0487533868101071
2.3550600620290112 29.4892642585527867 6.9894756974341075
2.5604841579433311 29.4745046473593462 6.9306964309785695
2.7660644037069901 29.4488067711235537 6.8778052770510305
2.9721742803608286 29.4134612473978123 6.8347328392720916
3.1785757071646232 29.3713304784434541 6.8045616185375000
3.3843031686837688 29.3257275709832896 6.7899301490832054
3.5876175904607290 29.2789813354022073 6.7931671549195691
3.7866123057137480 29.2319831743024068 6.8159702195424359
3.9801869313123137 29.1846548998964970 6.8587752768466039
4.1683826202281073 29.1365785232983185 6.9202547100416485
4.3521058012590235 29.0873620804636310 6.9969850261283080
4.5328734087021036 29.0368369474400261 7.0831491617428526
4.7126691203489717 28.9853912510974574 7.1707166679359933
4.8937364876441674 28.9343681425500669 7.2501294757410903
5.0781665589991558 28.8860734123673879 7.3108995960742886
5.2671925775482435 28.8430682653985251 7.3427530018012304
5.4603303700368162 28.8070632289958510 7.3381776120175291
5.6550534606283067 28.7780492005203996 7.2950855134256276
5.8477347891357354 28.7540623810743732 7.2170017152208681
6.0354469904751573 28.7317095751357741 7.1104619065525236
6.2171414711927824 28.7074387552958363 6.9822615411267579
6.3934114270048674 28.6792283120635823 6.8386946905814474
6.5655141472773488 28.6477423816348242 6.6860495765294470
6.7343795699600602 28.6158659687622148 6.5305975257948283
6.9002290737307206 28.5865991572459244 6.3775902440041481
7.0632373618045721 28.5607543487914839 6.2301067263692218
7.2244201638217822 28.5363271052749639 6.0888664561349977
7.3855346458071294 28.5097707426477101 5.9533404673634074
7.5482948177459317 28.4776123728205164 5.8231297187061308
7.7138751482817671 28.4371797466947314 5.6985956987633131
7.8829383765257823 28.3865152161317056 5.5807663422914988
8.0558656523010370 28.3240670013702704 5.4710258619546313
8.2329428248729180 28.2485273345956749 5.3708899917392809
8.4144689242716613 28.1589578966225638 5.2818919718194834
8.6008100737368949 28.0553232502829957 5.2055124159827049
8.7923331772493256 27.9394796758331196 5.1431101150958050
8.9890453983212932 27.8161710874809778 5.0958734906277261
9.1899141563734048 27.6928199884052830 5.0648568391036601
9.3923955300294732 27.5771165237918865 5.0510990093951023
9.5929575441088808 27.4735535771137336 5.0556587386189591
9.7884562863928011 27.3818979141612147 5.0794124030949011
9.9772298749744124 27.2988015986268522 5.1227388291774538
10.1592847448775210 27.2205048466493693 5.1852953499466850
10.3356216425180545 27.1444703329688046 5.2659000598194439
10.5071153134681570 27.0696333500537634 5.3625685663068428
10.6738624559745876 26.9958176265387699 5.4727010552998436
10.8357224571133113 26.9228926841854239 5.5932729722990953
10.9934325325001012 26.8502679317980935 5.7210121660521960
11.1490676640843827 26.7770403000904551 5.8523030919286363
11.3055852817365814 26.7025734988158803 5.9824695383727438
11.4661710607360359 26.6269175923643004 6.1049640469454971
11.6337455166088208 26.5507261048920284 6.2113397920954938
11.8102231605984649 26.4750165217523303 6.2922462839345688
11.9955354232989642 26.4011098612647253 6.3394666331945544
12.1872695066781898 26.3304580876746570 6.3485224966557006
12.3816594241744440 26.2640966288945990 6.3202399378939944
12.5750617363007056 26.2022203076399443 6.2599513811368741
12.7644932609343211 26.1443047171445144 6.1751168005340666
12.9476903458814974 26.0894170754777974 6.0730671099906886
13.1238006819408159 26.0363602726293450 5.9595242477017827
13.2940439330269324 25.9837952198040156 5.8380589769647280
13.4610721080229290 25.9304965284163380 5.7106190463187634
13.6275829232224925 25.8755686826264650 5.5785014241623685
13.7954854668315647 25.8184724167999562 5.4430055716887029
13.9658855471770345 25.7588779291450933 5.3056272396276238
14.1393316972192107 25.6962838444361417 5.1680064544360853
14.3159209320375407 25.6294923415052587 5.0318281144216073
14.4953567690922451 25.5564353265782103 4.8987777764772211
14.6771237083654640 25.4745922773391662 4.7705543636537566
14.8606686901998408 25.3816040977831392 4.6488958738726840
15.0453831121628827 25.2757137085533898 4.5355983837172964
15.2303163207750014 25.1561450459267704 4.4325307418947926
15.4137825512874169 25.0236379673109326 4.3416065574526268
15.5933672610397664 24.8808469976156772 4.2645912430195292
15.7669351070808084 24.7317752878449255 4.2026528552375577
15.9342487529125627 24.5799924887616861 4.1558900541594426
16.0973288269675017 24.4270282099896505 4.1233893896941716
16.2585199462789376 24.2725348559837926 4.1039618624457308
16.4182032768057944 24.1157091415060520 4.0969157727088952
16.5744708145937309 23.9563288940247894 4.1023166067836385
16.7246649551114075 23.7945293556382751 4.1208122817615820
16.8671151692593142 23.6298332186741220 4.1532957736977849
17.0018581869060377 23.4607556718332688 4.2005142210141724
17.1300373527687739 23.2858298785523630 4.2627031023827087
17.2524965488967865 23.1055054038385421 4.3394115112358751
17.3688571834415448 22.9229055155068338 4.4296608201681948
17.4778974387850532 22.7422883707322185 4.5323505868545091
17.5783897488731640 22.5668328746874529 4.6464904944930936
17.6694388966713731 22.3977174380080228 4.7709993149457457
17.7504569997109627 22.2345604336014162 4.9043390058438483
17.8212878448566769 22.0762292918730338 5.0443770801344012
17.8826014919186136 21.9213052219538014 5.1886806350679038
17.9361900236321503 21.7680369161836964 5.3352747189701155
17.9846871637066883 21.6141909436188726 5.4833692125674709
18.0307992974535196 21.4575776686342934 5.6330029717431529
18.0767056287820438 21.2972068102434982 5.7835209897693129
18.1241798667665783 21.1336687361872180 5.9324814058989972
18.1752676074001016 20.9679108534233158 6.0761718524770565
18.2327648829722726 20.7998942352878231 6.2107062765459471
18.2999292131667772 20.6289224982243091 6.3323003157166742
18.3795350611784585 20.4553257348201569 6.4367307309882502
18.4729624753534729 20.2814567478190568 6.5191288329705817
18.5799506917081985 20.1106847250022085 6.5749909953723993
18.6989737820344430 19.9453877207239145 6.6017476839379334
18.8276890208952601 19.7858317245624313 6.5996381822579906
18.9630465801630663 19.6306887651100901 6.5715332732227409
19.1013880638689137 19.4782911509528915 6.5220559894071659
19.2391290962053603 19.3272220077320789 6.4564534629467918
19.3739070464611842 19.1758312069348840 6.3796442326860596
19.5052159792001163 19.0216894413650763 6.2956028482605184
19.6337149728726246 18.8620502556664391 6.2073190663418973
19.7599125352914520 18.6950926041295702 6.1173911285907288
19.8834745485020186 18.5209641300753312 6.0286594789447676
20.0034908343672129 18.3417702354920849 5.9441801602674520
20.1192099593988694 18.1601604686701457 5.8664886807840819
20.2306596008571056 17.9772758538871251 5.7970229612551289
20.3387668011129783 17.7918078288891905 5.7364400010881962
20.4449009729602764 17.6010728852286107 5.6854047887920078
20.5502818127730684 17.4027547640117461 5.6447658936844469
20.6555220377136912 17.1958383787093219 5.6150716775396532
20.7602846344379515 16.9808949810057115 5.5963640575233438
20.8632081813207897 16.7602620786900722 5.5885124473524321
20.9622577184253203 16.5377679927539738 5.5914398252155308
21.0554030484658448 16.3175084490237872 5.6049116344319074
21.1413844321648021 16.1021840317103724 5.6283899888401887
21.2201557899807831 15.8920697558672295 5.6613764596762497
21.2925493281943048 15.6851949828369435 5.7038545323068632
21.3592940788495902 15.4788043070140837 5.7561395943055729
21.4202255033771998 15.2714694570192222 5.8181224233091609
21.4744540543401676 15.0641272485331612 5.8887460961921825
21.5213657015025568 14.8589338480819162 5.9663762112617977
21.5614603770700874 14.6572393016174871 6.0496087460778636
21.5963354520377990 14.4585934184892828 6.1376047070680126
21.6280225055537585 14.2613888483363489 6.2296016133725161
21.6584438626467204 14.0643660124464542 6.3240535808560132
21.6895944347250698 13.8674253657549293 6.4182677074179821
21.7241329789157405 13.6710243422762687 6.5087817678801798
21.7655216598383348 13.4754377118784348 6.5916883594426263
21.8173715641730119 13.2810163327325910 6.6624496761753154
21.8822885341336715 13.0886657117424932 6.7158455266842729
21.9608663158294846 12.8995633915336541 6.7467312722958184
22.0514726784415380 12.7146018059163275 6.7512693472124186
22.1510329033264419 12.5342157360553905 6.7278731423889049
22.2563604093959881 12.3586248216839873 6.6775829074028525
22.3651049001090705 12.1881859575880860 6.6039500438599301
22.4758091531714186 12.0233872070587768 6.5123550697105959
22.5875667726332665 11.8642162617573135 6.4086441922198532
22.6998088570194092 11.7092663575534086 6.2976049952515645
22.8120158530173889 11.5557163360167579 6.1825036369582929
22.9231704392673130 11.4007453232810185 6.0660853609461007
23.0315499805050159 11.2430791403734425 5.9515968246798909
23.1353225777390072 11.0829856047361268 5.8425219417589265
23.2335699397058342 10.9207329024547661 5.7415342466495769
23.3268549469554074 10.7552585190445775 5.6498828544464175
23.4167374257243992 10.5842971938908939 5.5677082408175060
23.5046804202638100 10.4053281986572674 5.4948123495030163
23.5912916668099335 10.2163436504504439 5.4312391814315184
23.6763191868285006 10.0161680094142973 5.3774657132820813
23.7590642233669307 9.8044863793405845 5.3343592991725757
23.8386324296527086 9.5818633227865355 5.3030224346457331
23.9137972826999601 9.3500034571050730 5.2845088610839550
23.9828065404226116 9.1121234999626282 5.2794896788433920
24.0436288398808529 8.8727806145256025 5.2880389383499136
24.0946136627438570 8.6367415507597336 5.3096617662265864
24.1350045045650354 8.4074984040491181 5.3435665207471938
24.1649413615450470 8.1863614051480802 5.3890493157101922
24.1851332203414948 7.9724036665913127 5.4458157843404749
24.1964891521889314 7.7631815479055639 5.5140298378898329
24.1997803686430721 7.5562528717602753 5.5938706931857496
24.1954143878379817 7.3508331033156367 5.6848146825228572
24.1834235602104535 7.1479022564036230 5.7854873346627684
24.1636492779755905 6.9484944941324631 5.8943637471299031
24.1360003011562547 6.7527032598424883 6.0101804758621817
24.1006457986103655 6.5605606325848642 6.1314363649070600
24.0580630329697627 6.3727686663983452 6.2558964182790255
24.0090510828046249 6.1901971107315825 6.3805978282482378
23.9548823271393836 6.0127971725554099 6.5021356838316837
23.8976387646675690 5.8383460443977624 6.6171281349934823
23.8407877687756873 5.6611536105111604 6.7227402813432739
23.7900212303966399 5.4718649757778239 6.8170575313001676
23.7537190106259715 5.2607146858596039 6.8993260564493619
23.7414506524303377 5.0250135432928849 6.9700455870450826
23.7598635651406305 4.7752427916171500 7.0308358549720698
23.8087271900661790 4.5306036489430666 7.0839936500064926
23.8814266802907618 4.3056916784565855 7.1318809029115373
23.9696201150602555 4.1027847563966979 7.1765139348469535
24.0672028635525947 3.9156349487914532 7.2193808607819303
24.1710447311852121 3.7368420349660152 7.2614055306470782
24.2798784470482119 3.5615644908036650 7.3030519013858974
24.3931930575247833 3.3874818658460146 7.3445025066878920
24.5106905322327933 3.2136272242937469 7.3858095615293289
24.6321136151504483 3.0395452616566345 7.4269787469652737
24.7572094164404106 2.8649280917628968 7.4680027011240897
24.8857248851279493 2.6895014231266074 7.5088711552269087
25.0174067952568180 2.5129971406838365 7.5495733217015140
25.1520018810995794 2.3351480554074033 7.5900983388089154
25.2892568713477992 2.1556870920385229 7.6304353363897643
25.4289184941685917 1.9743471867716291 7.6705734435436277
25.5707334777001449 1.7908612767417527 7.7105017893225449
25.7144485500807036 1.6049622991463242 7.7502095027767615
25.8598104394487045 1.4163831911860854 7.7896857129565467
26.0065658739426127 1.2248568900619041 7.8289195489121770
26.1544615817008754 1.0301163329746466 7.8679001396939334
26.3032442908619615 0.8318944571252000 7.9066166143520853
26.4526607295643288 0.6299241997144325 7.9450581019369126
26.6024576259464567 0.4239384979432135 7.9832137314986920
26.7523817081468032 0.2136702890124216 8.0210726320877050
26.9021797043038404 -0.0011474898770665 8.0586239327542231
27.0515983425560265 -0.2207819015243899 8.0958567625485252
27.2003843510418228 -0.4455000087286596 8.1327602505208887
27.3482844578996911 -0.6755688742890058 8.1693235257215893
27.4950453912680857 -0.9112555610045661 8.2055357172009096
27.6404138792854894 -1.1528271316744441 8.2413859540091217
27.7841366500907725 -1.4005506490975712 8.2768633651966006
27.9259604318285675 -1.6546931760699728 8.3119570798150697
28.0656319527194640 -1.9155217753494398 8.3466562269339111
28.2028979418186587 -2.1833035092726796 8.3809499358150674
28.3375051359082200 -2.4583054362556869 8.4148273374898999
28.4692003321782927 -2.7407945837357754 8.4482775767193257
28.5977307265856773 -3.0310377708562051 8.4812898882417329
28.7228457318429733 -3.3293006229291109 8.5138540037353643
28.8443050789504092 -3.6358429275011037 8.5459619566468845
28.9619083223602409 -3.9509001137064530 8.5776146498245556
29.0755804419986745 -4.2746209734694212 8.6088410650547065
29.1855602372972065 -4.6068925729875154 8.6397418351763218
29.2926794336798508 -4.9469367337994399 8.6705605480245822
29.3985173695745026 -5.2925830459845535 8.7017521870610679
29.5049881553397562 -5.6393728831954419 8.7339782716737471
29.6131436639120054 -5.9802136294041581 8.7679882572927674
29.7219357658006942 -6.3067018720335852 8.8044781073766387
29.8283484960373393 -6.6123042412727671 8.8440818839572621
29.9291578777762197 -6.8952822858980269 8.8874705750333192
30.0226659281238071 -7.1585930329014822 8.9353501112625686
30.1089672762305014 -7.4070511764827209 8.9883237193520991
30.1891112427416530 -7.6446903801206965 9.0468109824167353
30.2641924090155925 -7.8740119505901234 9.1110989387615486
30.3348964948288433 -8.0964909204087334 9.1814152550298047
30.4014310834146144 -8.3132003904489835 9.2579334527782464
30.4635791188543799 -8.5250269654602775 9.3407460835366045
30.5208128696685854 -8.7324916344089516 9.4298700207044810
30.5725406378162852 -8.9355141283795874 9.5252709664612745
30.6184198865224815 -9.1334889013707077 9.6268740097363903
30.6585363126563983 -9.3256994892782998 9.7345773616943667
30.6932907440823328 -9.5117384537185572 9.8482970205346909
30.7231290271027326 -9.6916323011371226 9.9680361429796740
30.7483518616461922 -9.8657340363202088 10.0938639855955579
30.7690629407445790 -10.0345635322523634 10.2256260803188184
30.7852566059406847 -10.1985804072313506 10.3625072173050725
30.7970296332097710 -10.3578776807193549 10.5029978988004622
30.8047082361668458 -10.5119720497514209 10.6455110122522285
30.8086906841515109 -10.6598099543322036 10.7889637141166759
30.8091890876183818 -10.7999927538534450 10.9326091187640397
30.8061584562048481 -10.9314773695600032 11.0757504016461397
30.7993427284533183 -11.0549303741536207 11.2186268127410234
30.7882021533127705 -11.1735855857033606 11.3638072702844681
30.7717706573434597 -11.2917261525379047 11.5154301050978276
30.7486406292904526 -11.4116791227389882 11.6763311611102090
30.7170822552736240 -11.5328645785258352 11.8466570303191538
30.6753532750047881 -11.6535452791014329 12.0246337156142715
30.6223117159008780 -11.7729577825364586 12.2073535425496473
30.5580244986491891 -11.8920464892167459 12.3909395592356297
30.4837167515159955 -12.0127868883291598 12.5710352021538654
30.4009681759180239 -12.1373006776182528 12.7440331854640583
30.3108045419911782 -12.2678020623145869 12.9083389656421019
30.2134763803375819 -12.4069129800220388 13.0645397314466045
30.1095965474865785 -12.5570327096393193 13.2140409552379943
30.0021567570676204 -12.7187841928573100 13.3572590808964922
29.8972381104063594 -12.8903860672751414 13.4933310217750435
29.8021450771310761 -13.0689778903567522 13.6219377591845490
29.7226562919028545 -13.2525373157222823 13.7453278903170997
29.6616934192045569 -13.4408023564382901 13.8685112301977771
29.6201231755317700 -13.6342460321967991 13.9971422636301881
29.5986984438652314 -13.8311292247316970 14.1338866340976637
29.5995470951164101 -14.0252583529673132 14.2758441395264288
29.6258764706768574 -14.2084017888465937 14.4161853027534050
29.6796052723350101 -14.3760846818249384 14.5489649856411720
29.7585370118523258 -14.5301517656436729 14.6718786262782057
29.8556243036897655 -14.6765262476565077 14.7853453033539193
29.9610321936005164 -14.8220180673455140 14.8906062637072356
30.0651673421073831 -14.9725295765977613 14.9890732998950593
30.1605384824209182 -15.1320963171151313 15.0829568230173940
30.2418013285249287 -15.3023872607373015 15.1757468896713164
30.3046476565830822 -15.4832153992109056 15.2710917912803303
30.3448099749430611 -15.6736182331473159 15.3702190174696902
30.3582234307651539 -15.8721261805753500 15.4697718870943692
30.3421337989730766 -16.0762692648001178 15.5624000765053481
30.2966252970215777 -16.2831644951596850 15.6412067898060290
30.2267934118264776 -16.4904789665924270 15.7052952191398685
30.1442705675019553 -16.6953723015462003 15.7617912856629303
30.0652774179561817 -16.8940822129930162 15.8240964284409298
30.0053222653352165 -17.0829157215095435 15.9076742843434431
29.9737233239455563 -17.2586535298712320 16.0237521542522821
29.9711357042897006 -17.4191430595663910 16.1746200248261403
29.9913731303474016 -17.5645973199693195 16.3547676081704765
30.0252039019484016 -17.6972287982254066 16.5550747240401179
30.0626666113702150 -17.8192314863659504 16.7647982305144723
30.0941087841801718 -17.9317553482534606 16.9721846371388772
30.1118706587572511 -18.0363240033555030 17.1682372992727998
30.1118767709250506 -18.1366548985609697 17.3516467099287404
30.0933510850360904 -18.2379666262232405 17.5282729022761998
30.0571746487731772 -18.3444524936678519 17.7052759407472138
30.0047533667281918 -18.4579361024651760 17.8865684644168077
29.9381665145490743 -18.5780226184276351 18.0721235105109344
29.8607330925181174 -18.7025245621837293 18.2594981596208896
29.7765155596648796 -18.8278746975687632 18.4456858975143874
29.6882850514530112 -18.9508559217724155 18.6292082476957432
29.5962149877852490 -19.0705815247045720 18.8106786132443240
29.4989753437238278 -19.1883088482520066 18.9907712771275214
29.3956672524428022 -19.3057827259954458 19.1683588229020216
29.2861208393211250 -19.4243609743186276 19.3417939621215460
29.1703565285160487 -19.5444907567619914 19.5106040690103271
29.0490397800222908 -19.6649628752257541 19.6743857181487201
28.9235602851673903 -19.7837084344484033 19.8316958489075930
28.7950417010033739 -19.8999003564125232 19.9812454879591712
28.6642304971184387 -20.0143130326726535 20.1230589119538195
28.5319301311139206 -20.1282725657093877 20.2584426160097841
28.3983722176645479 -20.2435467678275174 20.3894024183709348
28.2628252022962414 -20.3622137085093442 20.5169395644595340
28.1237088216881830 -20.4857714679163507 20.6393492222373993
27.9779818425957174 -20.6147051469091380 20.7524780658309993
27.8213691412215631 -20.7484961828772398 20.8509866601092320
27.6508104812641413 -20.8856803283710875 20.9295362992558438
27.4668505437489472 -21.0244625688729130 20.9841374691190552
27.2730056127925522 -21.1638686617704650 21.0131255415766276
27.0730811033714502 -21.3039367959686388 21.0169181459879972
26.8696201312650942 -21.4445620161373114 20.9971364887167660
26.6644466485494291 -21.5845012684630646 20.9560628890146319
26.4594905190032037 -21.7217190737941976 20.8964702757971708
26.2566624635730896 -21.8543782288495763 20.8217138489196678
26.0578629923054983 -21.9813536256529503 20.7356051387331277
25.8648974557881530 -22.1023216332776968 20.6411532748983078
25.6791690567393616 -22.2175949357036231 20.5390988482018102
25.5018965874178072 -22.3280771303368866 20.4286774646911375
25.3330557938535961 -22.4359774188171670 20.3106533854074343
25.1687772146984194 -22.5452748609895437 20.1894328240819796
25.0017717666998145 -22.6600299147334994 20.0731441728568889
24.8258298135418300 -22.7817587387866993 19.9722245148428215
24.6392936525787398 -22.9093247998455212 19.8959737003427648
24.4442134632083636 -23.0415999189251153 19.8482018490838712
24.2435903731462403 -23.1792951231473552 19.8253291076959286
24.0406596753836119 -23.3230378408954522 19.8189742524621124
23.8398044790091745 -23.4699638061726930 19.8212573552419009
23.6452827836378496 -23.6142831843384542 19.8286429308962120
23.4581662031932012 -23.7521818242664864 19.8416767053260692
23.2760015309752895 -23.8848395376484746 19.8617286442128673
23.0960934099245563 -24.0159096138012700 19.8874679600901239
22.9178004069875705 -24.1474777232461904 19.9128735598008006
22.7415481528645742 -24.2788972785962969 19.9276600454647905
22.5672791267604573 -24.4084081680844278 19.9201585306048301
22.3957899611504843 -24.5340704954571507 19.8809601140805370
22.2302866067995843 -24.6533812772502472 19.8051855985676042
22.0744925294969470 -24.7638723982979627 19.6925736629438681
21.9304759920786339 -24.8639933223727638 19.5462720813968431
21.7993789817814445 -24.9525375554190703 19.3714832943252588
21.6828562167204097 -25.0278613676600301 19.1742496265642401
21.5826033376799202 -25.0885861635544103 18.9605102122389084
21.4988475893360302 -25.1347482732312173 18.7357030038626071
21.4296572409102488 -25.1677468719531774 18.5042097683011342
21.3718563350590749 -25.1891439521659919 18.2685735758364771
21.3227994151011728 -25.1997378119173732 18.0293289270423145
21.2815830533110031 -25.1996031750803553 17.7860809618072402
21.2485766077118363 -25.1887534947917118 17.5387923129355983
21.2239426628965830 -25.1675479899353789 17.2891067346909004
21.2069696599140975 -25.1363418542854760 17.0409585778010140
21.1966699163074850 -25.0951122876278987 16.7982863067912973
21.1920211469528859 -25.0442536459840923 16.5626872008618271
21.1910548784904833 -24.9861274694606124 16.3356553570148755
21.1904818836131135 -24.9249073547402418 16.1201749937982228
21.1869046952793951 -24.8640460980163027 15.9169309451429868
21.1782124781383274 -24.8041808114212756 15.7214916290531335
21.1637796652850554 -24.7430969037810797 15.5260700948056112
21.1438607844878774 -24.6774011855586650 15.3237376461275883
21.1187906132660004 -24.6047279362058262 15.1123416199097242
21.0879898859251540 -24.5249792712933825 14.8946753467474977
21.0491845455058417 -24.4398802096130865 14.6745412846680683
20.9989370988080708 -24.3514697330795897 14.4536948336147653
20.9349721702269846 -24.2606624931334665 14.2328883010418075
20.8584437561108516 -24.1668202863975310 14.0143719302181928
20.7739449601809376 -24.0688852135729050 13.8028047993385101
20.6873239007862750 -23.9666457875672023 13.6039486210624734
20.6026646074400972 -23.8601284579424160 13.4213511322596659
20.5205407514537583 -23.7480538506592396 13.2539744579038796
20.4391412150767344 -23.6278802757632107 13.0978629800551936
20.3567328167378037 -23.4970686135013409 12.9496071860324609
20.2728717670066132 -23.3535526252102059 12.8083277976317262
20.1882406463716144 -23.1954463571778646 12.6767684022355809
20.1042433116252397 -23.0209730731819135 12.5616972247005485
20.0226399401803832 -22.8287407730770155 12.4715017620041966
19.9446895339363017 -22.6178737706279307 12.4103599751948614
19.8708496474397052 -22.3892750957209898 12.3747662205064852
19.8016517944466202 -22.1469596644142612 12.3565160385289836
19.7383392988317787 -21.8969105668664881 12.3479645174280179
19.6824942735517752 -21.6445634818331669 12.3446198279741068
19.6353917713873400 -21.3934322728960353 12.3448217658079198
19.5977684888815489 -21.1453742400761158 12.3483157222222175
19.5697987023421156 -20.9015024366869113 12.3548586433026291
19.5508793437230075 -20.6623780231936678 12.3633847127532484
19.5396072666642624 -20.4266463438659684 12.3721758283111498
19.5345615864579827 -20.1889903085293980 12.3799503341973018
19.5353247773558110 -19.9401597375429347 12.3866799005239017
19.5424638698219759 -19.6718739167830492 12.3930020445525830
19.5562527397866752 -19.3850615648019371 12.3988820104494550
19.5754391587511378 -19.0930003351744304 12.4031262168596310
19.5973193986261940 -18.8128636421598792 12.4040562442601683
19.6188185306790785 -18.5534901713273861 12.4002971961321382
19.6374498853421215 -18.3121556946240958 12.3910533436835628
19.6516086693098089 -18.0800804868920082 12.3759369775302837
19.6602032837087073 -17.8490426622730105 12.3547009981386289
19.6619861483770961 -17.6150416482273755 12.3272228826027863
19.6552760294702757 -17.3785399008921395 12.2936556680777986
19.6383425426292462 -17.1423351919084013 12.2544913002861193
19.6099058371756705 -16.9094047740671840 12.2103914089407155
19.5692597110322986 -16.6821947318257067 12.1618203071259749
19.5161065537753124 -16.4626768345921661 12.1086916559739066
19.4503741140226794 -16.2519873637337220 12.0502598222909310
19.3721733989146720 -16.0498356200876415 11.9853709518612561
19.2819327143308179 -15.8546642169960634 11.9128707713307325
19.1806025475264867 -15.6646249678286544 11.8318481997788520
19.0698728125117825 -15.4786467699926185 11.7418017210813872
18.9524136071336571 -15.2970072894876914 11.6429966252602970
18.8319311692246387 -15.1211101877869361 11.5368341619372714
18.7125799532314119 -14.9522807545157441 11.4256262500453776
18.5976583334680150 -14.7902111804817942 11.3114908954361368
18.4885535329032749 -14.6326080939067147 11.1952966192894579
18.3850206706469805 -14.4764595625992172 11.0768499677508068
18.2861936965196463 -14.3193322291122662 10.9559080294448528
18.1912223636062080 -14.1595083778928057 10.8327439039066782
18.0994907582796003 -13.9954618869198804 10.7079868706709771
18.0107516343371969 -13.8256552629393994 10.5823324709492859
17.9251822693167284 -13.6488323926207187 10.4565220351290264
17.8432550496347417 -13.4642440692113254 10.3315054157464097
17.7654888195395912 -13.2714561233977264 10.2085001087327409
17.6922289393167915 -13.0700112674327293 10.0887929693306582
17.6236146602917039 -12.8593564071411528 9.9734082418317627
17.5597407118750226 -12.6390898111384971 9.8630399810922640
17.5007483503188475 -12.4092469498235651 9.7584052166083790
17.4466655443855920 -12.1704295437361658 9.6605819909827559
17.3973226333804831 -11.9240682796450415 9.5708841221066745
17.3526923798690405 -11.6732221689439228 9.4904958855846395
17.3132458106758023 -11.4232058599892348 9.4202429251247608
17.2796579572298086 -11.1801446631031887 9.3603590530114786
17.2519922812602040 -10.9471140409947481 9.3101102101489399
17.2292513511784975 -10.7214472777462753 9.2677272755064237
17.2097282328177883 -10.4969081386488234 9.2310434301888655
17.1915679764222702 -10.2687048545888970 9.1983778116856811
17.1728520376741685 -10.0356158150931059 9.1689206960881471
17.1512579074602165 -9.7959770955545906 9.1423190479020668
17.1240061744739194 -9.5421244830586751 9.1179721456570668
17.0887390461984836 -9.2622270882625557 9.0949578838164591
17.0449711840226783 -8.9494553827424355 9.0726172118443511
16.9947185489756798 -8.6080883238632282 9.0509470010472484
16.9414632752467966 -8.2498665722351916 9.0303430494326626
16.8884658799417515 -7.8863081970555236 9.0111516617436074
16.8378234564489517 -7.5246254883599875 8.9934990297316038
16.7905049480690707 -7.1680485262526119 8.9773605668973442
16.7467927108451349 -6.8176208469414306 8.9626614115375585
16.7066612534769554 -6.4735284647059146 8.9493232325016923
16.6699768109163813 -6.1357004352270259 8.9372730911323757
16.6365747370602577 -5.8040049506077658 8.9264413845985722
16.6062830989090884 -5.4782985843438183 8.9167596889037171
16.5789285228355503 -5.1584361020257994 8.9081598823772765
16.5543373947298740 -4.8442720385437745 8.9005739038310701
16.5323360664457368 -4.5356609045940459 8.8939337018248246
16.5127508857472094 -4.2324572087897074 8.8881712262049462
16.4954081999817248 -3.9345154595970548 8.8832184269580559
16.4801343564609013 -3.6416901654739462 8.8790072540834402
16.4667557024937636 -3.3538358348778559 8.8754696575813163
16.4550985853891660 -3.0708069762662387 8.8725375874519674
16.4449893524559698 -2.7924580980965548 8.8701429936956764
16.4362543510030434 -2.5186437088262537 8.8682178263127227
16.4287199283392269 -2.2492183169127866 8.8666940353033930
16.4222124317733957 -1.9840364308136085 8.8655035706679683
16.4165582086143971 -1.7229525589861741 8.8645783824067301
16.4115836061710922 -1.4658212098879435 8.8638504205199666
16.4071149717523355 -1.2124968919763734 8.8632516350079591
16.4029786526669881 -0.9628341137089116 8.8627139758709887
16.3990009962239078 -0.7166873835430074 8.8621693931093457
16.3950083497319454 -0.4739112099361193 8.8615498367233094
16.3908270604999338 -0.2343601013457253 8.8607872567131842
16.3862834758360734 0.0021114337703594 8.8598136030796528
16.3812039430393952 0.2356488869492583 8.8585608258290236
16.3754148092941350 0.4663977496665481 8.8569608750376325
16.3687424205774157 0.6945035127777359 8.8549457015134365
16.3610131121270257 0.9201116619796625 8.8524472625132287
16.3520531380963305 1.1433676477960546 8.8493975633663489
16.3416882326356259 1.3644167273184848 8.8457289124780516
16.3297413020837681 1.5834033259024398 8.8413752302499997
16.3160222760472813 1.8004692539964218 8.8362776296707644
16.3002912911238269 2.0157514039786371 8.8304038743852296
16.2821512038122691 2.2293873385549343 8.8238022980508486
16.2608065477503914 2.4415500460040089 8.8167136178018968
16.2346904214558094 2.6525025122988382 8.8097166961512521
16.2012036612154873 2.8624845277135691 8.8037397144029139
16.1570785097763761 3.0710374495041819 8.7996072944057993
16.0995534979896675 3.2758892925321703 8.7969559418422989
16.0274310704787410 3.4730233789367162 8.7931024130553013
15.9408814747131586 3.6592907032931876 8.7831430811692783
15.8408306463083139 3.8349083261215338 8.7618535649079323
15.7293957359161141 4.0024141762396503 8.7261250360819798
15.6102151931436737 4.1645379990070115 8.6761045733006306
15.4874686218327060 4.3237504489620813 8.6145629702469080
15.3643628339416587 4.4827319432742101 8.5453747075058519
15.2424583138915608 4.6443824887781791 8.4722845732622112
15.1223410606819222 4.8110408914693856 8.3985904012668584
15.0047157478254185 4.9836337696445776 8.3272618564205452
14.8906516438661267 5.1617803585590467 8.2607274446631500
14.7809299170160138 5.3449697576009960 8.2004358936862189
14.6755469507580916 5.5333927967806451 8.1468466066658003
14.5741066091325369 5.7272208458627905 8.1000326389609079
14.4765460836585689 5.9253648511452486 8.0602945116373732
14.3832977216665814 6.1255155044989040 8.0282533760765986
14.2947516668973833 6.3256493611056310 8.0046105646383960
14.2108131336320085 6.5253523168905696 7.9900530207648757
14.1311593873841801 6.7256619136592510 7.9853937535275605
14.0557253110111251 6.9281106604828917 7.9916295508655697
13.9849129118023594 7.1337235608636780 8.0097247822217135
13.9196164363545236 7.3419752168474730 8.0402270047515394
13.8610496362266939 7.5505120769931633 8.0830020061113395
13.8102699707194247 7.7565129356504388 8.1373265529680339
13.7677626215599620 7.9585590390237435 8.2022613374235540
13.7333932201138307 8.1572659781216839 8.2769275297888392
13.7065599715114139 8.3542343993850139 8.3603030733563592
13.6862466734790313 8.5503379010666105 8.4506403656176907
13.6709469368276046 8.7450829895973428 8.5451750110284745
13.6586122524204274 8.9377026799018928 8.6405394855345925
13.6466589333087853 9.1284989088899202 8.7333449547022912
13.6319237820613921 9.3188509209911459 8.8201880603868936
13.6107206038474811 9.5100877047541186 8.8971163433808620
13.5792625655880954 9.7024882839253301 8.9593174876387227
13.5343592610321242 9.8950602994825338 9.0017029337898080
13.4741495695813516 10.0858207614086748 9.0201903823034044
13.3986638710297274 10.2725158495881637 9.0129503679550016
13.3099199031631468 10.4536413150937033 8.9810216962258771
13.2113918698134096 10.6290680995159192 8.9280453072602839
13.1070539532466572 10.8000745750806111 8.8593067762592064
13.0004751772758844 10.9689608835112029 8.7805607605742786
12.8943096035915268 11.1383602417343823 8.6970536236412919
12.7903109190296327 11.3104956048135108 8.6130507184987799
12.6897081565969696 11.4866699412174160 8.5318737591831315
12.5934435986542290 11.6673405443174776 8.4560307074897132
12.5022242106865598 11.8525617505082650 8.3873244213161513
12.4165046970170785 12.0424280200021965 8.3270604928453977
12.3361721486600810 12.2377606188803494 8.2760696995699803
12.2602157281632049 12.4405129116611182 8.2345230421437847
12.1870246082059221 12.6526588628546861 8.2020786820499190
12.1151203376462462 12.8740994376630926 8.1783747020691795
12.0438396603274480 13.1017443583230691 8.1632720516719335
11.9738282671255742 13.3308847755502065 8.1565859847354645
11.9070695477910515 13.5575137275165645 8.1577165138752985
11.8461492678527485 13.7796417908714606 8.1656603677127571
11.7931578168085576 13.9973107179520735 8.1793784611583327
11.7490387210367793 14.2121889791160978 8.1981570423706707
11.7136699063705088 14.4270673399107530 8.2217093935553613
11.6863451938277567 14.6447006073239745 8.2499723935040201
11.6661996299368660 14.8660294422146499 8.2827219496534994
11.6523063729940173 15.0893461521111334 8.3193092724140634
11.6434833797658044 15.3115593203711029 8.3587466228134275
11.6380843952364987 15.5302871359002062 8.4000044541356083
11.6339161217078146 15.7450450257116987 8.4422642900136182
11.6281713443500436 15.9570542794789887 8.4850356591610101
11.6172350754850395 16.1678333425017620 8.5281732065052900
11.5963934077322381 16.3771053048932167 8.5718571408032140
11.5597461199616500 16.5814019107316781 8.6164405006038649
11.5008612666481671 16.7746141664110127 8.6616943837245195
11.4144825504053191 16.9502380200893690 8.7053329989154662
11.2986543278839573 17.1041672962275157 8.7423092177446051
11.1558712165408842 17.2364640777482450 8.7665954353358053
10.9923231180912566 17.3511091003132911 8.7744126941259655
10.8156825257359639 17.4545383015473377 8.7661271683397288
10.6330094327278335 17.5540060462998788 8.7457212266724849
10.4496325488753108 17.6561094993362744 8.7187700815097742
10.2689103175600422 17.7656266563860328 8.6904304652731348
10.0927507871697806 17.8849808659044598 8.6647542488498246
9.9224231857871867 18.0144598975551631 8.6450745444038013
9.7589474465429547 18.1530381109831964 8.6341581812281021
9.6030493930496608 18.2992279143107730 8.6338687781098251
9.4550689022633314 18.4515842399142720 8.6450731661147220
9.3149478606852849 18.6089931893203122 8.6680554743605711
9.1824614042144557 18.7706806697956665 8.7029076072457130
9.0576870897877875 18.9358708101099609 8.7494286265190020
8.9412137990439877 19.1035724426762741 8.8068537568537835
8.8336028207186104 19.2729685661423460 8.8739609517988765
8.7345296309810436 19.4438800130291511 8.9492871622228911
8.6423994346445365 19.6165037847681454 9.0308751521202648
8.5544041142221658 19.7905745881496387 9.1158862605008544
8.4665923736655113 19.9648382983968666 9.2008758774867836
8.3741882969885175 20.1370276244590194 9.2824445781872953
8.2723130928554482 20.3036454179365542 9.3572936832383391
8.1564559325313475 20.4591039720032057 9.4215401580801377
8.0226721787594499 20.5951473813417856 9.4704389206056234
7.8685221968088204 20.7024664942782088 9.4996194724882965
7.6947263477250525 20.7747613220951521 9.5073732225976908
7.5055560865795625 20.8125912809423070 9.4962124881933008
7.3069376140553546 20.8239677063357362 9.4723002304960069
7.1039343051873658 20.8215284252616684 9.4429897248226613
6.8996138694921028 20.8187906792042341 9.4143969323144994
6.6957278332900989 20.8274132829169787 9.3908978251166584
6.4942007439748481 20.8556413959835609 9.3763570950093502
6.2979770637321248 20.9077095314165859 9.3749314890918711
6.1105422513208119 20.9842126624245182 9.3899250787986404
5.9345468574941540 21.0830694200391449 9.4216455014670117
5.7704873162800325 21.2003998104144031 9.4665728791160220
5.6164065174440392 21.3311463868577285 9.5188536058855249
