BEGIN_0
-23.6161140417791380 8.3301968427218984 7.3334254120108326
-23.6397228095060719 8.4957372532362285 7.2008456226463711
-23.6545132509983631 8.6707767095250379 7.0737608790380166
-23.6618139191564545 8.8606844827527027 6.9532396743204270
-23.6619619581362493 9.0699596468253265 6.8405425192022227
-23.6539300101300398 9.2981585151827932 6.7382015007367730
-23.6362290234497223 9.5371849319824555 6.6505210772801764
-23.6083693826905510 9.7755592804632307 6.5818869591683491
-23.5715929555194812 10.0066654627380522 6.5341311608676929
-23.5285071727363544 10.2307354101699790 6.5062577927829981
-23.4819722549634449 10.4501660169571213 6.4962892308153855
-23.4338626369460066 10.6657625284052866 6.5027666488853466
-23.3843745393831526 10.8770687466681686 6.5250979863256866
-23.3320724334217680 11.0839968376966862 6.5632785985901219
-23.2744758007133719 11.2869890136805608 6.6173499067070995
-23.2089393125497594 11.4859727489055814 6.6868154300111193
-23.1335592774531449 11.6798172633064095 6.7704068451339126
-23.0478968453096655 11.8666909614038065 6.8662337956564174
-22.9531539193079404 12.0445741510948530 6.9719279110880938
-22.8513045969151527 12.2119985907154405 7.0847744058053888
-22.7437592021709918 12.3687925184711123 7.2017823473570317
-22.6308035405596435 12.5163570936783621 7.3196077175379095
-22.5120755764149116 12.6575796492375261 7.4345446328426599
-22.3876208153652279 12.7965088939636633 7.5424728675800301
-22.2590875817248275 12.9377061268929019 7.6385687789348875
-22.1302854467646384 13.0852979844653809 7.7172171914932344
-22.0066856322634194 13.2418669941178084 7.7724160423926723
-21.8943923491770711 13.4073868716153264 7.7987043905334241
-21.7990222082940264 13.5787596676946585 7.7926721102527710
-21.7245364252918840 13.7507274846403611 7.7541111982853268
-21.6721352326483192 13.9185918563643209 7.6853920137817768
-21.6398133283569578 14.0809997901479900 7.5896241471551056
-21.6232105337479581 14.2395741584188755 7.4699440837964124
-21.6172381755370395 14.3963541190784028 7.3298174294655007
-21.6171506123017387 14.5534484906740040 7.1719991470247244
-21.6187065002384848 14.7138289179946042 6.9977297564892709
-21.6180308173262823 14.8797581087001500 6.8090745861298636
-21.6116703426480292 15.0504831981914897 6.6121370888166133
-21.5969212321258972 15.2230383005137888 6.4163921371465733
-21.5722404807474035 15.3947837465809947 6.2311195186399964
-21.5373931494184454 15.5641640273058162 6.0632829783671642
-21.4930333721750344 15.7312566009389698 5.9162328708215774
-21.4399751032343211 15.8984807241274897 5.7895013286261303
-21.3786441803244394 16.0697264238423116 5.6806558666113460
-21.3089060751075436 16.2484000297547730 5.5875823879605591
-21.2304220039403049 16.4361236492576559 5.5094487634379110
-21.1434454247154981 16.6326121939215632 5.4463810685336131
-21.0493154862111282 16.8363123429172745 5.3986769560023724
-20.9499124033705613 17.0453755938675720 5.3661672420429412
-20.8465451833069757 17.2582866965031982 5.3480022557850688
-20.7396363929333738 17.4733047697461252 5.3429040253239268
-20.6295003925907316 17.6874751379423998 5.3496049011233335
-20.5168872201518582 17.8970803654353645 5.3670343182258282
-20.4027273982128357 18.0991157295530343 5.3942250247526928
-20.2876626749403002 18.2921763639207811 5.4302216445507447
-20.1717598892247061 18.4764556481950670 5.4741523496849513
-20.0543581816693326 18.6534708467069414 5.5254016046299999
-19.9341302370662632 18.8256748851958413 5.5836649935394487
-19.8096886074188419 18.9955424252779395 5.6486255538594676
-19.6806351333018803 19.1642362789750464 5.7193017406540090
-19.5480676577339132 19.3310908028890012 5.7936505394838154
-19.4138164798062611 19.4947459417864550 5.8688855353085732
-19.2791848659666982 19.6548243422393050 5.9421017328740433
-19.1444049238095921 19.8126259672433420 6.0105218566963181
-19.0092290156204058 19.9704416379200609 6.0711604316795462
-18.8741395077205389 20.1301927812689527 6.1202667806432345
-18.7410581219293064 20.2926604472451615 6.1531748718635395
-18.6129343357878234 20.4578270227215704 6.1648471598509964
-18.4928735723256459 20.6252675347725223 6.1507835984368917
-18.3835147160813008 20.7936825143418318 6.1079461779253190
-18.2865181149830285 20.9604051716483966 6.0354596129892357
-18.2019607289352301 21.1222425511125032 5.9346762214218032
-18.1281598347444088 21.2770428641390410 5.8086164953478914
-18.0623994667615406 21.4240129316155681 5.6615561192931985
-18.0019158436038289 21.5628299493586262 5.4989411699956552
-17.9443111628632188 21.6932898978886186 5.3268104571629635
-17.8874136872691984 21.8160773785310909 5.1502587930275592
-17.8291264626994632 21.9333583242677470 4.9721211680775994
-17.7675850228183485 22.0481884189588762 4.7933590601625244
-17.7014186464125700 22.1635391990505539 4.6145070321247559
-17.6297803294347943 22.2818649411037057 4.4365750705300311
-17.5520951141068160 22.4050925148849913 4.2610403249442790
-17.4677976343879209 22.5346827673085954 4.0895834716892931
-17.3763289124484785 22.6717314658617042 3.9239737493293774
-17.2773381976601605 22.8171580920524661 3.7660491121714816
-17.1707781155975816 22.9717674712623783 3.6177001441172987
-17.0568264858667540 23.1357926509779972 3.4809141518275908
-16.9360092244207756 23.3079919532710242 3.3578740114367562
-16.8095497129120623 23.4851799488771391 3.2508385709747767
-16.6792284571076124 23.6632232029326524 3.1615337466682778
-16.5464734126911885 23.8392581875354708 3.0903448253612869
-16.4117982121612052 24.0130805239836675 3.0361772939399234
-16.2753519946952494 24.1861546515656514 2.9973379172205608
-16.1373168286617101 24.3595737663699481 2.9725686499622554
-15.9971442950852385 24.5331812206691353 2.9614182745421935
-15.8527185022806627 24.7061125661595895 2.9641102499649037
-15.7011079467409616 24.8771988540972160 2.9813005294156625
-15.5406630742550611 25.0443009683819113 3.0136768180944209
-15.3723167646016670 25.2038584868534272 3.0614494938426962
-15.1987486337452573 25.3519887908318111 3.1240979562615188
-15.0226710448037082 25.4860591354579853 3.2004903458127174
-14.8459040748491269 25.6052337650761288 3.2891515421595638
-14.6694276463983506 25.7100350565135010 3.3884690773420445
-14.4937778743824559 25.8017193069418873 3.4967960619387366
-14.3193664930325255 25.8819216564198769 3.6124951744341729
-14.1466589533565568 25.9525753454188397 3.7339641686829488
-13.9762399047571257 26.0159316723363929 3.8596566478406089
-13.8087194447534856 26.0744551189123399 3.9880947801354409
-13.6443926656269987 26.1304231235404210 4.1178817885813874
-13.4827201563116379 26.1853873924859641 4.2477584631782346
-13.3219871383853334 26.2400554539646862 4.3767065907732761
-13.1595970372354731 26.2949310055073369 4.5038726817680708
-12.9931251590675014 26.3511943960867399 4.6279580024950278
-12.8215189509730347 26.4109381182035960 4.7462656556177816
-12.6452960518348831 26.4766710389846054 4.8544179480562804
-12.4655234928880549 26.5507946991643209 4.9473315029612035
-12.2830203336223640 26.6351338604822487 5.0205661726243651
-12.0987585101374968 26.7301225157191880 5.0710902399141755
-11.9145927540736007 26.8342642383798946 5.0976446324033695
-11.7329967030759388 26.9449586735428142 5.1011042743789154
-11.5558670599601658 27.0600868907305987 5.0844162351866728
-11.3835966774794599 27.1785902280468363 5.0517589492320880
-11.2151927136292446 27.2998533560659098 5.0074025237012219
-11.0489616683805565 27.4233710017771166 4.9550650250904589
-10.8832023682402177 27.5489441250087879 4.8979587481470457
-10.7168396687370215 27.6764719825713215 4.8389676200391083
-10.5494369405582411 27.8055457828341730 4.7804617115341905
-10.3802997909444628 27.9356188217211994 4.7240739145709441
-10.2078708937057954 28.0662954325383254 4.6709431858913533
-10.0306362079244771 28.1969122820464264 4.6223091105665954
-9.8485939870859589 28.3259579481489467 4.5798228008014892
-9.6633483113807070 28.4513652905413537 4.5452372104076826
-9.4766205644080781 28.5716146764115138 4.5198407686014814
-9.2891860953763192 28.6865732192710468 4.5043325705350998
-9.1014064174409448 28.7972516272393619 4.4993444638542215
-8.9137334214875814 28.9045796215275033 4.5062310491057698
-8.7261292817332414 29.0080674696377478 4.5274719502945100
-8.5378926135098059 29.1054847393441243 4.5660982108006269
-8.3488760787763709 29.1935583900957312 4.6243886142647010
-8.1605545325506395 29.2690112216239697 4.7028429036690191
-7.9753969207001987 29.3295499810681513 4.8001206768026172
-7.7954572286690542 29.3743857404194237 4.9136644467209685
-7.6216714425633629 29.4041030582734244 5.0403610397191354
-7.4539981762674117 29.4202112547857801 5.1769424826264618
-7.2917563277912194 29.4247883943222703 5.3201983987901702
-7.1337238727572867 29.4202931506555494 5.4671568015755518
-6.9779991706870899 29.4093024483706849 5.6152497835680126
-6.8219562375156144 29.3939408649696077 5.7622077533065283
-6.6626917366431488 29.3752293299389464 5.9053003619878606
-6.4978496136909190 29.3530531336707838 6.0400625261581027
-6.3260837153851774 29.3270596480584835 6.1595358680218411
-6.1469949934071195 29.2977663081853450 6.2548979314619615
-5.9613915152161159 29.2668770341479174 6.3171665742849186
-5.7718463911544653 29.2365044390237614 6.3393657873645264
-5.5825270155777424 29.2078861103286087 6.3185815517427137
-5.3980410985497542 29.1807035074627592 6.2569105454565186
-5.2218901087098395 29.1535909699637301 6.1606460058364920
-5.0553780222190721 29.1252552567544747 6.0382607976241598
-4.8976357446398859 29.0951942360907374 5.8984428617394880
-4.7464613611092563 29.0636641268591944 5.7488322352331949
-4.5988726494026437 29.0312087436720354 5.5951753038353580
-4.4512432493056773 28.9982550172327933 5.4410367096245267
-4.2997527511168734 28.9650581296599263 5.2885349430327633
-4.1410728053399497 28.9318600703119237 5.1395170841062665
-3.9727945684165764 28.8990185785994456 4.9962662763236381
-3.7936475977667428 28.8670451195619577 4.8616110022845813
-3.6037928498092233 28.8365950941635951 4.7387564299182383
-3.4049600251688199 28.8083957763748018 4.6309509031977001
-3.1997283267622905 28.7830463457484207 4.5408965882830579
-2.9899827197063971 28.7607427641890467 4.4701147886867592
-2.7761320212218710 28.7411766034925122 4.4189190093932655
-2.5582691511123503 28.7237638092115191 4.3872313252213733
-2.3377813408927768 28.7079563429518316 4.3754679854672709
-2.1173633954831441 28.6932999766678769 4.3847700127274578
-1.8996581684594238 28.6793117902790620 4.4166912998267218
-1.6865301608877266 28.6654958896839531 4.4726671001518756
-1.4798975198011934 28.6515240501310124 4.5532790493466830
-1.2825586236452153 28.6373448704329334 4.6576326627173561
-1.0974546451631744 28.6231000246904514 4.7833879387306535
-0.9263216051480310 28.6089684110010971 4.9273251947241885
-0.7692083254003825 28.5950781794540241 5.0859054218630089
-0.6248826901543110 28.5814987152301860 5.2555746855658665
-0.4913814996744730 28.5682584684856238 5.4329199464469351
-0.3662512597411482 28.5553515700364109 5.6148462626988831
-0.2464750517673382 28.5427328987696782 5.7987741608942471
-0.1283464313921447 28.5303361603717391 5.9825507635554072
-0.0076213132226246 28.5181779903912727 6.1636480912787945
0.1200198367586207 28.5066011345429224 6.3378340393534494
0.2585567454976632 28.4966368340027714 6.4984309857150464
0.4112106720418058 28.4903297444749519 6.6368936817246595
0.5793684321068655 28.4906512130341980 6.7441856779914229
0.7612234430029563 28.5005691888472334 6.8127083454544151
0.9517421903355396 28.5214917031368174 6.8387472761925716
1.1446828916792406 28.5521977530860376 6.8241002961917889
1.3353435585779956 28.5891664017138218 6.7754165654541856
1.5219535374339721 28.6280786703233083 6.7016423495396786
1.7053345421428094 28.6654338506785962 6.6113162246296859
1.8878276499516764 28.6991043268834432 6.5111009161353017
2.0721097128091990 28.7275054674875641 6.4058391197707305
2.2602627163079232 28.7483940009792178 6.2993986505061592
2.4532510206542804 28.7585911952485560 6.1954396902589437
2.6506729870209349 28.7547427913589111 6.0977471055991561
2.8508371234672945 28.7342957825588563 6.0101225962246438
3.0515506622495230 28.6961011321486907 5.9359062901814905
3.2515063466709750 28.6407476591185954 5.8773863638092525
3.4510281631352946 28.5710687306414393 5.8356348277147401
3.6512827062988271 28.4925956729571510 5.8110806740901122
3.8530009921002617 28.4126026351563645 5.8044542804212433
4.0559739664938990 28.3371982328770216 5.8174552202661953
4.2590146800851727 28.2687048210419789 5.8525505263184243
4.4596143991584229 28.2059117995028714 5.9116930576099360
4.6539165994004694 28.1463315520986690 5.9947198115840941
4.8379981269398904 28.0879049955985174 6.0988002546699747
5.0095759902357706 28.0291929525275911 6.2193239378145293
5.1687034475712181 27.9687979992020637 6.3511034340569807
5.3175039032304889 27.9050510622491501 6.4889853806291242
5.4597243748694737 27.8363182587041287 6.6279929961672170
5.6003114034730004 27.7617510957583598 6.7628640811070282
5.7446315490311157 27.6822320267050728 6.8869469645333554
5.8971613003719217 27.6010414306734262 6.9913121771135742
6.0601219874794214 27.5236936734176361 7.0652741294158918
6.2326656446277013 27.4566773824850685 7.0987511435602864
6.4109281243206340 27.4054107560351170 7.0853392224086242
6.5890350709060401 27.3722585286851796 7.0245351195363837
6.7610093444144495 27.3558827754137965 6.9220393783140892
6.9228991024979312 27.3526682313429177 6.7878133584579512
7.0739615789015176 27.3589555507647617 6.6327326414698682
7.2163174687570040 27.3719826708603549 6.4655714993724356
7.3535514666904707 27.3891937244071144 6.2917573686354764
7.4891740372863715 27.4074389756295886 6.1142376998064645
7.6257731075839139 27.4230507717894483 5.9351860660492903
7.7650011273979942 27.4323517005446718 5.7570992108784669
7.9079418704372708 27.4319446550875981 5.5830105669442602
8.0554266632700617 27.4187085820800007 5.4162998294450500
8.2081625144197545 27.3897356377317180 5.2604910265848233
8.3666781753819421 27.3424348556988868 5.1191293222329275
8.5310978861631899 27.2750052786420412 4.9956645489161868
8.7008365961026719 27.1874439218813819 4.8932130382057650
8.8745857005414557 27.0828916085228428 4.8140757401355394
9.0510433767120695 26.9683409990536802 4.7590577547649868
9.2300339264602815 26.8533376557201358 4.7269931398270515
9.4126017934422492 26.7464746177102413 4.7150376358716937
9.5996670082212674 26.6517177734693433 4.7197606859085397
9.7911031333125749 26.5674451298614862 4.7383376035083309
9.9862854112373931 26.4889557011009593 4.7692004123430856
10.1846250365594244 26.4119648080946980 4.8119699219955070
10.3849347337828988 26.3345022953700720 4.8667048191552809
10.5848144572552290 26.2567282987072375 4.9328225970014845
10.7814940126537238 26.1796373775581444 5.0084281061350513
10.9733583709999998 26.1039321065030521 5.0905114616669298
11.1607058002660597 26.0296568421855241 5.1759634194878874
11.3454095533621224 25.9563689790521721 5.2626766540913117
11.5298569721530928 25.8834643663870594 5.3495754441491403
11.7157104492795359 25.8104531369927628 5.4354633478986862
11.9034297326739775 25.7369956790232450 5.5178495817401458
12.0929583350687295 25.6627066413497786 5.5927695461705174
12.2843538209644638 25.5871349353899333 5.6553238538142736
12.4773290799640044 25.5101266644662203 5.7001094238214769
12.6705987832293552 25.4322036344518807 5.7216689689987668
12.8622243024026872 25.3544619127240836 5.7155579908446814
13.0503682006992090 25.2780724114472157 5.6796969776905826
13.2334556137215476 25.2038815999619779 5.6151234731119057
13.4102025273977770 25.1323386960143651 5.5255140410314336
13.5804134663720379 25.0635286710215652 5.4156500503051959
13.7457693317986873 24.9972855040763378 5.2899958170402233
13.9092106502062798 24.9334401426124401 5.1523785649083802
14.0732255015747576 24.8717739562930298 5.0064829495028746
14.2383535141554809 24.8115245790480898 4.8563937207941095
14.4028976689393051 24.7511488978044625 4.7067102931518026
14.5641568467127556 24.6886917535455837 4.5619040587421651
14.7204289520396383 24.6221288532558162 4.4251000483788641
14.8721279206575634 24.5493706436329830 4.2974195771701247
15.0211127492829917 24.4683122815460194 4.1787061390033919
15.1693031565119139 24.3770289656493020 4.0687931924320679
15.3179257255460133 24.2738860736160831 3.9681743295323102
15.4675429072283350 24.1575092031921628 3.8779619494151714
15.6183593811040211 24.0267715156882673 3.7995955185591583
15.7704635256034464 23.8809990259365250 3.7345967203584873
15.9239304188165232 23.7205593884545891 3.6843946004455983
16.0787626164768866 23.5477699899623651 3.6501515039546035
16.2346093711463411 23.3674505309713609 3.6325547271851786
16.3903427602467460 23.1859944589443430 3.6316223823303062
16.5439053013667596 23.0088482092601083 3.6466817605830553
16.6928615887890430 22.8383551505806253 3.6767149249954141
16.8354032887348453 22.6737480398535070 3.7210361615124707
16.9710345691948561 22.5124140393573455 3.7799107856381227
17.1005290902621034 22.3510824236445913 3.8546463179495163
17.2250999151862629 22.1870576008372069 3.9467931893036905
17.3451539316907812 22.0197361600642125 4.0567008312849815
17.4597772888006020 21.8512363191418899 4.1827379639677318
17.5675041989129497 21.6850638123011024 4.3221384626345394
17.6672008826155675 21.5240292242669113 4.4723840063464433
17.7581739767650824 21.3692381985775306 4.6315888126094098
17.8399997713935434 21.2203970056041840 4.7978865555517576
17.9126903114014091 21.0765707099820503 4.9688644360846208
17.9769776370837455 20.9367180421091206 5.1417353819740423
18.0342663523680784 20.7998245033684270 5.3139841756230073
18.0864186119424062 20.6646903415941381 5.4837992042778065
18.1357861881420845 20.5295832086024888 5.6501081368876260
18.1852796238633942 20.3921724351095364 5.8123913132233263
18.2380279345027745 20.2501632533659652 5.9700184862502716
18.2968556575854500 20.1024170044221187 6.1209961982696619
18.3641865650141547 19.9494475226868744 6.2612919871042667
18.4423683726975867 19.7925771367086369 6.3857021393521087
18.5337821893532748 19.6328781556808103 6.4892243742814486
18.6403884009620100 19.4713473998799174 6.5677107782616702
18.7628893648963100 19.3098223397739694 6.6179894337651746
18.9000702418628954 19.1508936770936948 6.6381868497860985
19.0487719148360313 18.9965919824089191 6.6283558657373369
19.2044048962538589 18.8474718336102356 6.5908116615297150
19.3619867885042360 18.7027294938740880 6.5297190418109050
19.5174613483674158 18.5605935283767280 6.4501909804307100
19.6682564704077549 18.4188138633173466 6.3576488296858411
19.8126324038910795 18.2755834565711233 6.2575748311922545
19.9490904182085842 18.1301500452407076 6.1549813801589952
20.0769258177240104 17.9822402912718786 6.0535309395481747
20.1970576622396720 17.8310119025605864 5.9551566383578702
20.3117246764866408 17.6748233479909871 5.8606413049480217
20.4232668962711550 17.5117557551287355 5.7705795052521953
20.5332221269870807 17.3401596739496142 5.6859865911649354
20.6422890367237422 17.1590160580719768 5.6083052332035965
20.7508004759393785 16.9682065904268136 5.5390493295319185
20.8589264484370496 16.7686742764254042 5.4794917677686250
20.9661957892779860 16.5625792276269053 5.4305736550002521
21.0710601727117002 16.3534325951039179 5.3929222290149319
21.1715094428261530 16.1454263117236074 5.3668055303201019
21.2664036468585138 15.9415623245460090 5.3520855891443162
21.3560442144798266 15.7421710698639910 5.3484163622048246
21.4414367134106634 15.5454353731859953 5.3556517437507321
21.5232065454244648 15.3488909955559620 5.3740554766764284
21.6010176797644213 15.1506603960302648 5.4040821118284796
21.6735882250429590 14.9504658874987530 5.4459403198218936
21.7392011819250222 14.7498093594238355 5.4993405215986755
21.7965297218239229 14.5505872101160083 5.5636719417137463
21.8452107922822414 14.3534682883570355 5.6383335009011937
21.8858045443872449 14.1578247508395041 5.7226899334759302
21.9194237232140487 13.9630374096659189 5.8155850308306043
21.9475476610117717 13.7693177716219513 5.9150156828772094
21.9721507040856032 13.5770683007472019 6.0183431688020850
21.9958623159770887 13.3860813551146549 6.1224638848642794
22.0220400993158414 13.1957862063990472 6.2234638338200501
22.0548267051532001 13.0058596637275024 6.3162331440981134
22.0988511198941033 12.8162820482465420 6.3945601776720888
22.1580105274534134 12.6273587579711464 6.4515788554735067
22.2336894228674993 12.4402241542986438 6.4807108008736893
22.3238413739110904 12.2571937855942377 6.4773823501541710
22.4239651711458379 12.0810981021937263 6.4406844543022626
22.5293266102225509 11.9137579927255235 6.3736022925598039
22.6365877034372289 11.7551134102122692 6.2817444608843118
22.7438339771895137 11.6037711493201297 6.1717993842612326
22.8498747478386477 11.4577803029727878 6.0503124796203025
22.9540249271151247 11.3145970253105439 5.9226593115955755
23.0562869215764046 11.1709019743386477 5.7925956210695606
23.1572362221103560 11.0231667956010018 5.6627473645407438
23.2575308889851513 10.8685286805062447 5.5353920238853842
23.3573478976588085 10.7053467414776957 5.4129478501090311
23.4560609245095861 10.5335268372541506 5.2982059931027710
23.5524158897137745 10.3545742912577285 5.1942646866930851
23.6451657232874162 10.1707293408097001 5.1039240774111203
23.7337280735680274 9.9832083866581822 5.0288194307423044
23.8183254297878690 9.7912065641509773 4.9691546424152886
23.8994664813308511 9.5929909898885626 4.9243502619136716
23.9773172957110319 9.3879644199598662 4.8938233812766647
24.0515070120434977 9.1776215311591329 4.8772105740551073
24.1213533873848078 8.9643705037096524 4.8741852867644972
24.1860453091252161 8.7491978288906402 4.8843134824886061
24.2444083754386739 8.5310164019871060 4.9070636959312175
24.2945926987689838 8.3090445337180476 4.9417906116690187
24.3345227698074211 8.0852196548020459 4.9876330933178092
24.3631142612146583 7.8637280295670671 5.0434611862607195
24.3811097230026519 7.6490795629216013 5.1078408933698931
24.3906796788841476 7.4450278316990834 5.1789671498086420
24.3941478478054314 7.2540103407360066 5.2549051796717130
24.3929460108133398 7.0757837610021657 5.3345385564255796
24.3874867563148676 6.9061892108297487 5.4185715799756302
24.3775666991821574 6.7387074857403899 5.5090676266387515
24.3626068185264053 6.5681111639326701 5.6077185974209023
24.3417181945707242 6.3920639802230079 5.7149612211678757
24.3140447656269743 6.2103592812071415 5.8301444478422297
24.2793538436332739 6.0243040958762073 5.9514793177639778
24.2383143413532558 5.8364051125324750 6.0758642765616102
24.1922676901045826 5.6490307220112568 6.1994564824544121
24.1429688659122057 5.4623316691075852 6.3186329144618067
24.0929329382454576 5.2726555078551378 6.4303882461395094
24.0465492801084579 5.0726811505812730 6.5320728336407807
24.0110007321484709 4.8548160809532970 6.6214911835033252
23.9951352347162796 4.6179394704488121 6.6978865035096131
24.0058845478911138 4.3721245379650036 6.7626573654748672
24.0448235718479530 4.1334295071737088 6.8188486407589073
24.1079734046902487 3.9119577695789163 6.8699485676643413
24.1887577145736294 3.7072541160787384 6.9187628555590388
24.2812371710260102 3.5133480090568838 6.9669234679520153
24.3815355094676036 3.3246862322786050 7.0150915919444685
24.4876209649075065 3.1381054902666037 7.0634212979562028
24.5985416056323984 2.9522070442762782 7.1118978548907066
24.7138213227256465 2.7663847290504879 7.1604791683799878
24.8331507516278123 2.5802886030763901 7.2091283883762083
24.9562683537892696 2.3936321004436216 7.2578140090506675
25.0829240097165211 2.2061409984464468 7.3065066105223693
25.2128698930053865 2.0175429924588411 7.3551773313462725
25.3458585668773644 1.8275660162181513 7.4037974246744680
25.4816426507322618 1.6359380269314343 7.4523381624689771
25.6199747708461345 1.4423869835849938 7.5007708192118097
25.7606075542081925 1.2466408452610782 7.5490666696632491
25.9032936278700454 1.0484275710445878 7.5971969886089949
26.0477856188878896 0.8474751200202881 7.6451330508366642
26.1938361543181877 0.6435114512729410 7.6928461311339937
26.3411978612174202 0.4362645238873100 7.7403075042887268
26.4896233666420677 0.2254622969481623 7.7874884450886048
26.6388652976486284 0.0108327295402582 7.8343602283213727
26.7886762812935721 -0.2078962192516371 7.8808941287747682
26.9388089446333971 -0.4309965903427688 7.9270614212365391
27.0890159147245662 -0.6587404246483732 7.9728333804944249
27.2390498186235845 -0.8913997630836974 8.0181812813361724
27.3886632833869150 -1.1292466465639777 8.0630763985495193
27.5376089360710488 -1.3725531160044433 8.1074900069222124
27.6856394037324662 -1.6215912123203395 8.1513933812419914
27.8325073134276728 -1.8766329764268956 8.1947577962966047
27.9779652922133266 -2.1379504492392645 8.2375545268738293
28.1217659671489493 -2.4058156716711014 8.2797548477620602
28.2636619653318846 -2.6805006846127082 8.3213300337576541
28.4034059142737796 -2.9622775286402465 8.3622513597425492
28.5407504452374603 -3.2514182406745622 8.4024901013515620
28.6754482174539973 -3.5481948210514958 8.4420175395853612
28.8072520601648172 -3.8528789574988913 8.4808049857122683
28.9359156283264696 -4.1657400770851432 8.5188238789020918
29.0611956512708787 -4.4870339061501134 8.5560459996454021
29.1828567724249659 -4.8169473964558200 8.5924431559988932
29.3006724054675729 -5.1553858850981094 8.6279819856505249
29.4143859735339781 -5.5013343025268995 8.6625991827040814
29.5235555183209222 -5.8514577944668957 8.6961318718940248
29.6272629409652808 -6.1981923377326851 8.7282070732852635
29.7239940011152690 -6.5292392427742847 8.7582133143230543
29.8123208555944075 -6.8314124686675797 8.7855866990815077
29.8923936963616050 -7.0983648333282936 8.8104290941311802
29.9667614212832731 -7.3353742862048641 8.8339661015359496
30.0392225748076633 -7.5556148721913132 8.8583372469354256
30.1127412133414865 -7.7719947272214362 8.8858814145152998
30.1881587185025637 -7.9915090333423109 8.9184151720304783
30.2643160554898678 -8.2146415764554774 8.9569400454640302
30.3391306872849249 -8.4383343143037166 9.0018902072623490
30.4106584902073003 -8.6592839159589268 9.0535088351047612
30.4775842440159046 -8.8754715028058655 9.1119852801757730
30.5392703381375732 -9.0860975790290119 9.1773991900480247
30.5955864890514455 -9.2909838720011315 9.2496543602818768
30.6466116042694452 -9.4900855456794773 9.3284806611091948
30.6924750809715334 -9.6832702274149227 9.4135308363576478
30.7334388802618648 -9.8704437297064800 9.5045919393694493
30.7699595145641993 -10.0520281110307153 9.6019140409400485
30.8025444383584244 -10.2295932573261013 9.7066336762962298
30.8315407365035519 -10.4063006547189261 9.8212065588571313
30.8570310103130581 -10.5865862333118592 9.9494666808553873
30.8787539188774396 -10.7743781794278171 10.0955382592650658
30.8960038488899222 -10.9703470972941837 10.2615691686859698
30.9077843598062572 -11.1707798291950695 10.4462034924495715
30.9132420507067280 -11.3696801767970079 10.6454793909818921
30.9119211984542837 -11.5616210647351956 10.8546804323458659
30.9036398285681031 -11.7425040143622184 11.0689409207733522
30.8882585704554096 -11.9087439180940109 11.2828376028928918
30.8655782182196283 -12.0573116704626173 11.4909187776752297
30.8352980079924102 -12.1874385712055258 11.6899244958132869
30.7969378672866263 -12.3019482203998010 11.8804432031112768
30.7498188168858988 -12.4062657437032051 12.0655603947503209
30.6932268351534177 -12.5062124171108699 12.2478231056987710
30.6268429283162718 -12.6066670525025764 12.4274528982091219
30.5509811621068934 -12.7115301321699050 12.6029517429962290
30.4660135019924745 -12.8240647312548184 12.7729981067676377
30.3717572516876757 -12.9467961767192890 12.9376788506129916
30.2683568500965201 -13.0809515445256572 13.0978104511154729
30.1583569000067442 -13.2259709239928327 13.2530413445564452
30.0474929360459058 -13.3797859752514618 13.4011836887863609
29.9428697441383065 -13.5398879887741117 13.5400220409133549
29.8504848672866210 -13.7043010562303138 13.6696725949923064
29.7741260031764767 -13.8722037936306037 13.7933585372311498
29.7156500715756096 -14.0441962103429212 13.9164110736482503
29.6760105447084612 -14.2214183275697224 14.0441236303366317
29.6564610672227893 -14.4030438362118538 14.1789953142621599
29.6590803445363740 -14.5842234283348873 14.3189484884053062
29.6857910197404316 -14.7579933136148362 14.4589180538788664
29.7362947582315655 -14.9202879304168974 14.5948576076137613
29.8067586526769617 -15.0724810394698352 14.7254736573240326
29.8904335355556157 -15.2199125224914837 14.8504345542392979
29.9794587838919995 -15.3692082980580160 14.9682538636519755
30.0665634499997694 -15.5260269753734654 15.0766030065442429
30.1461220458572861 -15.6933025693338308 15.1746183159267840
30.2144369478141499 -15.8705020245062407 15.2645153876875348
30.2691575991333472 -16.0546415918993866 15.3503818252657798
30.3079561315360060 -16.2426000419163934 15.4347894454267394
30.3272978844906511 -16.4330071572852638 15.5165172831144922
30.3227079310935217 -16.6262916255826170 15.5916959166086979
30.2911591641170865 -16.8232732210232605 15.6571082050926282
30.2343046223174028 -17.0238055514615922 15.7133456042452977
30.1606331477978387 -17.2262768586227466 15.7666713630464823
30.0849696596224732 -17.4270548803207781 15.8287663541492734
30.0241722800190658 -17.6204402939511944 15.9134578996511902
29.9902860863447316 -17.8001488120632381 16.0305106186623298
29.9856905164636487 -17.9617908568022244 16.1805434815913038
30.0041926371383028 -18.1044685388752420 16.3561569889429208
30.0359208317722874 -18.2307468109218860 16.5480185740931098
30.0707524814813212 -18.3458127072036099 16.7498030492067613
30.0990608208940458 -18.4558435475653120 16.9582948286164061
30.1124067447834847 -18.5662859793575166 17.1712616611945990
30.1052830384236785 -18.6807633169947884 17.3862783858687671
30.0762127123990233 -18.8003273275383052 17.6002999365276835
30.0271644314256072 -18.9236465257591320 17.8099500278891760
29.9620027661462380 -19.0485913166119190 18.0127960659712016
29.8849844372941682 -19.1740145593598363 18.2089457027192658
29.7998636874595597 -19.2998505754148866 18.4007733540826663
29.7093405352196704 -19.4259849033608951 18.5905994228902713
29.6147437361078332 -19.5515162671888412 18.7787278295649749
29.5161541344032941 -19.6750598808088490 18.9636213479863116
29.4130210424457346 -19.7959413307575502 19.1433315172104415
29.3046441058938356 -19.9151380839847860 19.3169730819530550
29.1904936806129065 -20.0344580874290479 19.4849579079725572
29.0709293854404791 -20.1542947049907823 19.6474392616376505
28.9474255868550756 -20.2728989940188526 19.8030554068354903
28.8213948739978534 -20.3885775107821487 19.9502576308609463
28.6933366736853479 -20.5017824292729856 20.0893022083338728
28.5631949517633394 -20.6148701308491056 20.2224422899135092
28.4308810765360853 -20.7304115299861564 20.3521161445036185
28.2961818160802210 -20.8499824434420518 20.4787278563916750
28.1574488690333418 -20.9746403654109699 20.6004106886623504
28.0106535219695409 -21.1053838795159265 20.7137216079117543
27.8506857146676943 -21.2424109030864585 20.8138421648596399
27.6744835325801830 -21.3842993445041074 20.8953159671436524
27.4836877874556613 -21.5280941844203326 20.9536104073422855
27.2834579655265443 -21.6708576550862873 20.9865727593643712
27.0784415120354076 -21.8112599950485588 20.9946055479875326
26.8708669640433513 -21.9494648424080268 20.9795015787976347
26.6619994832696854 -22.0856579395813242 20.9433569864997509
26.4534285469222219 -22.2189425397159539 20.8884456788490489
26.2466541992466595 -22.3476290543244218 20.8176157478069612
26.0434076102002905 -22.4699538677302257 20.7343456063153724
25.8464521617312215 -22.5846152232142288 20.6415490028467694
25.6590190513853074 -22.6914320825638356 20.5399567709991864
25.4832236182494718 -22.7922180044700724 20.4286605144531421
25.3177364332122607 -22.8911191431966969 20.3082346084893430
25.1561848591940915 -22.9932460599645623 20.1832460414902783
24.9892011371648195 -23.1022154521986280 20.0625321379197530
24.8091906735563938 -23.2188221163173623 19.9574228017523652
24.6137550066361470 -23.3421718606984143 19.8778576186713885
24.4058881360801152 -23.4715907476451022 19.8280839245821596
24.1915185539143529 -23.6071537855108033 19.8047467544359641
23.9767064464588628 -23.7485416719638778 19.7993449008403459
23.7663239814757716 -23.8935770948927342 19.8039054232461318
23.5634011703749664 -24.0382631963563256 19.8150833812400826
23.3688218575559254 -24.1784421354310837 19.8332627796255636
23.1816377122994197 -24.3118531745954556 19.8584737086984155
22.9995374050018455 -24.4390561494759240 19.8871540495440939
22.8195119218914328 -24.5622266935307891 19.9116901511761171
22.6394852041355321 -24.6829846031250213 19.9218367045307048
22.4598370961055522 -24.8016814650078743 19.9069343309931952
22.2831443515752383 -24.9182227588534957 19.8588915075074723
22.1133384546507514 -25.0317180862072064 19.7748558966160743
21.9547114816742557 -25.1393857243318379 19.6575675834440489
21.8105740962912336 -25.2370903197664589 19.5131130324230924
21.6827160798556413 -25.3210869434586385 19.3478995353956016
21.5715509490282962 -25.3893535938959687 19.1662405986094875
21.4758776516657903 -25.4421026341765923 18.9693848099714160
21.3930732573844296 -25.4811427541924118 18.7575050774536010
21.3204310633233369 -25.5084168537560743 18.5331313340692674
21.2563678919320438 -25.5250402035503257 18.3006701299505785
21.2004557789562398 -25.5311698025881810 18.0623684494054686
21.1530321407970021 -25.5265398254620024 17.8177626632551238
21.1147672899521588 -25.5114091572940396 17.5680594845941940
21.0856705508786391 -25.4865494492110827 17.3177304100903982
21.0644881078278416 -25.4521692908310939 17.0685938024419741
21.0494791994177106 -25.4075721301670825 16.8159156446333036
21.0392002797199247 -25.3524252434372386 16.5546901442202632
21.0320124316635990 -25.2884908137718014 16.2875698094004342
21.0255092216364829 -25.2200636812895240 16.0249355665314788
21.0170442365353232 -25.1518078708020099 15.7771539768858968
21.0047589209676140 -25.0856740042789355 15.5471275595089224
20.9881949420339247 -25.0201621022239493 15.3306640704483979
20.9680540167272049 -24.9521267637261559 15.1217505515129513
20.9451251269422656 -24.8790526629588911 14.9160552722058934
20.9190717399269488 -24.8005659417682836 14.7116736431897923
20.8879629199496861 -24.7187003374219358 14.5088570931718159
20.8490733606039917 -24.6365956355124709 14.3095683335571930
20.8004707957050137 -24.5557812083138813 14.1156771162354424
20.7420581721516228 -24.4742065180693800 13.9270612656356576
20.6752902277553439 -24.3870293710901933 13.7419243268421774
20.6021134909007557 -24.2892882483953727 13.5590355584797724
20.5242239901110750 -24.1782363631196731 13.3795361238375872
20.4432105979761971 -24.0540139827682395 13.2070065521442217
20.3608693449764324 -23.9183773491654676 13.0456190917255590
20.2789086861211061 -23.7727313657113086 12.8979595622922840
20.1983620285930812 -23.6170871829236688 12.7648185525321338
20.1194149372199611 -23.4498962248836946 12.6468586450722569
20.0418029831392204 -23.2681619218230438 12.5462020844841593
19.9654495648173480 -23.0684646720409532 12.4661214227569008
19.8910235157848625 -22.8494359214829998 12.4086302204456516
19.8201251671314722 -22.6138172183045398 12.3720709789720225
19.7548637119917174 -22.3676056123676616 12.3513640038584889
19.6971221517151882 -22.1171596263913557 12.3406960217065240
19.6480933670219322 -21.8670750428777581 12.3358965741737574
19.6083035004649346 -21.6199426834289667 12.3348465556374087
19.5777535039242743 -21.3771890793416404 12.3365015614413664
19.5558020148939633 -21.1398133383362463 12.3398509078846956
19.5411058318057833 -20.9083841569447912 12.3436585529116361
19.5321112643155530 -20.6823519798004583 12.3470112896388855
19.5278005277413378 -20.4590992352119656 12.3498453159652115
19.5280062955683427 -20.2335684031522156 12.3526005487116137
19.5329992922567399 -19.9998677531433984 12.3553348774630329
19.5426753094539443 -19.7552370722254373 12.3573257028167820
19.5560120341923209 -19.5030235947282620 12.3574292878024679
19.5712328675687210 -19.2504757433650369 12.3546445804829812
19.5863427751589576 -19.0042017786481523 12.3484347005657895
19.5995268662248563 -18.7683589192481008 12.3386190890721590
19.6094820527561424 -18.5434827274108152 12.3250638504941321
19.6154464269959341 -18.3268308147914780 12.3076065847392861
19.6167853407431458 -18.1142441974216624 12.2860567406314161
19.6125210269914341 -17.9014627609451829 12.2600351800594183
19.6011221028313756 -17.6850125538319034 12.2289641921097747
19.5806448959078736 -17.4634961298751215 12.1924008551071488
19.5491638545925603 -17.2383427286413067 12.1502644327139393
19.5051926666482984 -17.0129407476110224 12.1025412692485208
19.4478782034859137 -16.7909651760521506 12.0488302699446610
19.3769844613890818 -16.5750128116163147 11.9882694781615200
19.2927916335381724 -16.3659569636289497 11.9197906540282386
19.1960984512533486 -16.1633309027397800 11.8423517951542880
19.0884297632223614 -15.9664723233839254 11.7551676920776806
18.9723800228211701 -15.7755647102545637 11.6581905095643741
18.8517829891693758 -15.5918174282536484 11.5526287339303106
18.7311379035738739 -15.4164436216901528 11.4407616608988949
18.6141498150473090 -15.2491001428536670 11.3247148585910047
18.5024932747839941 -15.0874416686982968 11.2053021356757156
18.3960463940429442 -14.9283167806729793 11.0822412584783176
18.2939828328698226 -14.7690545158281132 10.9552451673123485
18.1955194102524729 -14.6076489249587027 10.8246342470815957
18.1001967723982595 -14.4423506296480220 10.6911625290824617
18.0079769407680033 -14.2715790509227638 10.5556451421342032
17.9191869100349273 -14.0941973471413036 10.4188461296720565
17.8343216147946464 -13.9096079895174078 10.2816444959326247
17.7538455749119493 -13.7174635904954094 10.1451878990667801
17.6780867388510075 -13.5173006396038353 10.0107788304449166
17.6072720322307106 -13.3084582193736338 9.8796720735893313
17.5415744259447521 -13.0903479638621896 9.7531601706018201
17.4809401427457871 -12.8628043558694536 9.6327943442754353
17.4248673682625537 -12.6262576472065824 9.5202486943283855
17.3726445296298557 -12.3820153741587937 9.4168918437415243
17.3240242969022376 -12.1331113907617336 9.3236541518464673
17.2796353454350751 -11.8849900567369886 9.2413075678198648
17.2405489607552376 -11.6441079897334454 9.1704893959441751
17.2073078428359167 -11.4142183503536927 9.1109859493015648
17.1793717987156995 -11.1937135677635879 9.0611012819264882
17.1553136082110207 -10.9769378051984035 9.0182122850391497
17.1331026034505172 -10.7575682526380909 8.9800780587385969
17.1102206341300977 -10.5314049193416857 8.9457106143105598
17.0842087776999669 -10.2984193482031401 8.9153040244213422
17.0537862978517509 -10.0634212261511848 8.8894711979799119
17.0194587540385562 -9.8332067429742374 8.8683441865309049
16.9828098811835630 -9.6117320459920137 8.8511968897088149
16.9453654840396624 -9.3985438355365787 8.8368270449461992
16.9080495876507193 -9.1908391029999734 8.8241541635864085
16.8711777858663226 -8.9853049174374426 8.8124730071076716
16.8344922916099655 -8.7776127189147459 8.8013432201347594
16.7970615202480715 -8.5604533866138190 8.7903734280279053
16.7573347417957095 -8.3228267441598476 8.7791216496640558
16.7138072539936573 -8.0535692265199330 8.7672288637095193
16.6661588695312020 -7.7483580748147212 8.7547013649975334
16.6157804981102650 -7.4134673097775057 8.7420192098430896
16.5649798513726161 -7.0615049260310485 8.7298842691484069
16.5157617819759608 -6.7041631724912882 8.7188718296758676
16.4692700725984729 -6.3486091892213246 8.7092849897935736
16.4259270041301022 -5.9980153711091830 8.7012081385955256
16.3857723950134044 -5.6533935256761794 8.6946117229724198
16.3486987761566525 -5.3149144484214652 8.6894227272654909
16.3145550612766499 -4.9824982148747168 8.6855553426214183
16.2831799278926752 -4.6560057928002010 8.6829207703598605
16.2544101162302042 -4.3352869263271501 8.6814296476740829
16.2280820678699627 -4.0201896250683600 8.6809925249964230
16.2040321867196155 -3.7105616794039147 8.6815199418346332
16.1820968727970893 -3.4062508570425436 8.6829224365701911
16.1621125257929315 -3.1071049237823392 8.6851105474898880
16.1439155453754211 -2.8129716452913041 8.6879948128740843
16.1273423312116329 -2.5236987872303871 8.6914857710027906
16.1122292829685918 -2.2391341152602351 8.6954939601560071
16.0984128003133193 -1.9591253950414966 8.6999299186137318
16.0857292829128333 -1.6835203922348132 8.7047041846559559
16.0740151304341552 -1.4121668725008263 8.7097272965626811
16.0631067425443099 -1.1449126015001774 8.7149097926139056
16.0528405189103189 -0.8816053448935115 8.7201622110896224
16.0430528591992037 -0.6220928683414684 8.7253950902698278
16.0335801630779820 -0.3662229375046930 8.7305189684345237
16.0242588302136753 -0.1138433180438341 8.7354443838637046
16.0149252602732766 0.1351982243804599 8.7400818748373865
16.0054158529232282 0.3810539241072028 8.7443419796359283
15.9955670078217338 0.6238760154706160 8.7481352365447940
15.9852151245239149 0.8638167327448603 8.7513721839134568
15.9741966015025074 1.1010283095721736 8.7539633607639438
15.9623478276526782 1.3356629739850447 8.7558193120743919
15.9495051203029785 1.5678729118585064 8.7568506273634483
15.9355043453078551 1.7978100405372910 8.7569681772320358
15.9201789703705074 2.0256248280399465 8.7560843240110771
15.9033517935594659 2.2514611263764959 8.7541180402359373
15.8848061872339255 2.4754373345475447 8.7510124455070599
15.8642060422217241 2.6975898208240725 8.7467817295740389
15.8409236916879266 2.9177358118374990 8.7416010587035053
15.8137741140751356 3.1352169709886066 8.7358947528878126
15.7807737325558222 3.3485721093601182 8.7302238106582060
15.7391548966544601 3.5553968188679228 8.7246245712932478
15.6857832926107221 3.7528226995937430 8.7172776371237166
15.6179144047294880 3.9387329773268833 8.7032888181390131
15.5342437622917959 4.1128735407739443 8.6752410454723847
15.4361077200688968 4.2767026734881188 8.6263357373796588
15.3278069287060372 4.4324615160943992 8.5542392684486011
15.2150032026690152 4.5830032017961235 8.4623968049671063
15.1023378401537425 4.7319214144602340 8.3579609692352879
14.9923114931629993 4.8828521157728568 8.2486593321546966
14.8857669040381353 5.0385074862186876 8.1410113981362198
14.7827431896003674 5.2004893455052468 8.0400078975588638
14.6829607237311368 5.3696876453280824 7.9493675836601057
14.5860862165759020 5.5466675431469996 7.8718461244279956
14.4918824970176203 5.7319671930320713 7.8093624746262735
14.4003688534558716 5.9259437968270872 7.7630558239977958
14.3121412840283622 6.1278342047327934 7.7335006537868063
14.2284893575145688 6.3350502592488294 7.7209611970756296
14.1509893270138409 6.5439725326070484 7.7255571847386202
14.0809119684593522 6.7518864519073309 7.7474368963889688
14.0189681625588083 6.9582957398579568 7.7869474051732288
13.9655234168253841 7.1643207495948671 7.8445622572603773
13.9210190997474079 7.3708691388217886 7.9205188755959703
13.8861930505377060 7.5778392639168919 8.0146384573831781
13.8618789742906809 7.7852450727354938 8.1265828221637477
13.8485390127355608 7.9938355066058140 8.2555694369461357
13.8457849724502857 8.2029949313450903 8.3985457970848820
13.8521484030188144 8.4082844848295188 8.5484860002495981
13.8653256643374121 8.6034180911362874 8.6962173858586418
13.8825827905999795 8.7855792676740414 8.8348700254268770
13.9007430404048957 8.9573460412089307 8.9615647547649502
13.9159275991389197 9.1244805556642117 9.0755763568902559
13.9236117969131517 9.2935212261189815 9.1762007877554446
13.9190189846119257 9.4698299023509254 9.2614420995940030
13.8976475444755252 9.6552044386505305 9.3273364738693587
13.8561815872658531 9.8471247354800884 9.3690687414545000
13.7936212767918924 10.0406784628587129 9.3835017686486282
13.7117079966058899 10.2310854066952182 9.3707021580824801
13.6142445866169570 10.4150155321511519 9.3333535144503887
13.5059398783935194 10.5909174387019771 9.2751490849928384
13.3914763402445054 10.7592285605464646 9.1997202483001885
13.2749282183792250 10.9224248829566406 9.1106548462315473
13.1594061536618003 11.0842519144007206 9.0118962253269412
13.0469748334250735 11.2483374471440580 8.9075657687018364
12.9389294691356405 11.4172723948932546 8.8013834651296321
12.8360566404347427 11.5925675323271733 8.6964058220638663
12.7388367422302675 11.7745229204392494 8.5951077971104546
12.6477691616732368 11.9619187579540149 8.4995083777684748
12.5634985008738873 12.1526464832614458 8.4112664324281496
12.4864084134339866 12.3454468362452214 8.3316040237218552
12.4161070932564304 12.5409343410005949 8.2611961003025129
12.3513588274289212 12.7406105653491863 8.2003931349172632
12.2905048062653872 12.9452017087476481 8.1498113037554791
12.2323031736032775 13.1542652150487847 8.1110834003762768
12.1771345368870776 13.3676531054537637 8.0872921346986146
12.1281077716564827 13.5874380213398673 8.0825430567880652
12.0908245407734185 13.8170940630895451 8.1005677655347270
12.0708148270881370 14.0565280749699237 8.1427361253817381
12.0700691544199064 14.2979245306506151 8.2065191220951270
12.0859302608887660 14.5294268021309279 8.2859435800423711
12.1132014080178028 14.7442189139725066 8.3736839453288141
12.1463365872833471 14.9439060798471921 8.4621021427012817
12.1788977253735897 15.1338849294146609 8.5425893665373955
12.2014195692648055 15.3172353570933240 8.6051757966930182
12.2009824810856955 15.4915518433129762 8.6401827664010913
12.1645655653772717 15.6493986966610343 8.6415657303676170
12.0849534379941161 15.7822025061382227 8.6094303110556503
11.9646398483014718 15.8855362597372221 8.5495105969274441
11.8139332914695920 15.9620665952755409 8.4703435823306314
11.6450504248403544 16.0204232622450000 8.3804152103633989
11.4673088819945104 16.0718133683666800 8.2866057905067940
11.2861852270568299 16.1270165870396625 8.1940944640712292
11.1050678457490033 16.1946838833375999 8.1071811952900816
10.9269651306642679 16.2804445122548316 8.0301224242936353
10.7545932672395903 16.3862943409123147 7.9673791822036923
10.5893045946112174 16.5104119469358395 7.9232295506472097
10.4305616687392426 16.6480459539331704 7.9009455900190471
10.2769708831715381 16.7938530751710182 7.9018551982330028
10.1279280603847930 16.9446175177109311 7.9249566476821727
9.9845213074212307 17.0999799651917712 7.9676781427915619
9.8495030369371612 17.2605582521429355 8.0271577410025685
9.7264730840849527 17.4258193444256442 8.1008522692613099
9.6182966232860707 17.5939498068935691 8.1863412350870703
9.5256336921293681 17.7632524052017899 8.2810130392247316
9.4465050155563084 17.9333182065177752 8.3820347820366088
9.3770261055491204 18.1050145852918085 8.4864677508569493
9.3126305383098273 18.2793510056700121 8.5911774458112937
9.2486084929448769 18.4560220032614488 8.6922941667244267
9.1795526260727769 18.6325217624995325 8.7846427930196676
9.0989130540268359 18.8039234965545212 8.8617926251891461
8.9999779860842235 18.9631138774316490 8.9170056041120240
8.8779957150987059 19.1018522754988140 8.9449009745394772
8.7319032471225437 19.2130637385367145 8.9433420681474054
8.5645951202435171 19.2935532082290351 8.9147656087097431
8.3814867076660313 19.3454970337992656 8.8657388054281228
8.1881930599161343 19.3759081152438242 8.8044777194707251
7.9889045727067369 19.3946968003462601 8.7380222690060716
7.7864204887524346 19.4123993592636381 8.6711288125317871
7.5831549303906822 19.4382492313511257 8.6071237075169051
7.3815355536354419 19.4788604923685398 8.5492554601685704
7.1833237699858730 19.5374422673249768 8.5014162282343957
6.9891486384191754 19.6134606328311420 8.4681511414231583
6.7993546510217175 19.7032529274332262 8.4539410713396066
6.6151422867818148 19.8021497569348313 8.4616276283383129
6.4383556377375593 19.9070151013058450 8.4908269904043170
6.2700993303242853 20.0170313162776168 8.5377791234845866
6.1097463301267565 20.1324512106481102 8.5968220317797854
