BEGIN_0
-29.5906539435888014 -21.8334780996391515 19.1038828185138279
-29.6961742497155079 -21.7058777813990602 18.8817745325692989
-29.7938657863412431 -21.5788056052074140 18.6569098345537654
-29.8825034655811024 -21.4536601911574394 18.4336026956368784
-29.9622572570738015 -21.3307103484574370 18.2141265797422278
-30.0343476351336847 -21.2099306095858111 17.9991384354605408
-30.0999983212178250 -21.0917037436456880 17.7893131858703413
-30.1597274349133713 -20.9767723709473444 17.5861488198629097
-30.2137787562720987 -20.8649121736683014 17.3901631115053412
-30.2630205176108689 -20.7538184350740025 17.1987867862567185
-30.3092710256503040 -20.6395810274526426 17.0065301991693900
-30.3545238067744805 -20.5184488320618144 16.8075885687102442
-30.3992299041449883 -20.3884638387357668 16.5992230137644867
-30.4410576994238795 -20.2495854610412920 16.3831726570959439
-30.4762520284199994 -20.1028238620046693 16.1645315321078122
-30.5041163431818561 -19.9505398834853338 15.9510346850363849
-30.5313720503853432 -19.7971358174370735 15.7527998349368978
-30.5705391435132512 -19.6463458203451680 15.5784351570943436
-30.6311364455982371 -19.4964502491301417 15.4290412148787972
-30.7121256745003848 -19.3407358446800437 15.2986938093646518
-30.8038426241495102 -19.1729841370565737 15.1816854097711929
-30.8955206820288240 -18.9907598631399672 15.0780172654680857
-30.9798260632846691 -18.7946097512062096 14.9929569655181112
-31.0527239603084624 -18.5861125107216765 14.9329464943282009
-31.1122264682270284 -18.3669170488185323 14.9012962273571148
-31.1579186663785777 -18.1388566864708949 14.8961226268406541
-31.1904125415743323 -17.9037396578772672 14.9116004984371653
-31.2103490806778936 -17.6621280527859206 14.9409573819674950
-31.2177401156489438 -17.4132838859736765 14.9785185637176372
-31.2119397806888799 -17.1583467987090792 15.0198611909052353
-31.1920456236037822 -16.9038134652520711 15.0610738511507218
-31.1576257102419163 -16.6592325010016076 15.0984798343972884
-31.1099016304356581 -16.4300736014347066 15.1288499614592631
-31.0529328121324966 -16.2144688841848037 15.1492952790556483
-30.9932962470481996 -16.0064490916629083 15.1572473237683774
-30.9375926172144631 -15.8010732744726852 15.1511724339129774
-30.8894451951020415 -15.5970977870904690 15.1312922684755655
-30.8485856548404769 -15.3957030233703982 15.0990163668444346
-30.8123984764543053 -15.1970385057057094 15.0555684815280717
-30.7779660056789979 -14.9991147536015355 15.0017484921796793
-30.7434223721255719 -14.8005483853197113 14.9391962184466180
-30.7086332366568158 -14.6025190244624561 14.8708456745940456
-30.6749504262120709 -14.4063161431917557 14.7993392146403799
-30.6442135509724167 -14.2104778344650811 14.7256052769285155
-30.6178955380478968 -14.0111589231295852 14.6491531580783008
-30.5969324331586208 -13.8046193813202258 14.5692657005354640
-30.5820244174874745 -13.5893935380340061 14.4858683739494527
-30.5739607850050561 -13.3667704053113994 14.3996109085843447
-30.5738346638053002 -13.1398729675808816 14.3113489201939128
-30.5833144636943146 -12.9127463453444342 14.2214712059883190
-30.6048824813179223 -12.6900916861903816 14.1292646776798563
-30.6415003460477848 -12.4769159476684273 14.0323796533835239
-30.6951423645674382 -12.2774101781797391 13.9269051693776369
-30.7644335668586066 -12.0936640159158095 13.8085906953827422
-30.8431049714400558 -11.9250111457142047 13.6744877408878374
-30.9212136902388934 -11.7673600439438495 13.5234078452221809
-30.9888643526306282 -11.6126470956967331 13.3550861123581406
-31.0394828484161565 -11.4502537332887080 13.1697697512358562
-31.0704014853641581 -11.2708410681416140 12.9694728448519818
-31.0816171373371404 -11.0709656690271423 12.7600747151502567
-31.0748162167354423 -10.8553871684966659 12.5515277082064642
-31.0530836206436263 -10.6338450431013989 12.3539219530746074
-31.0202495140614829 -10.4139635929305534 12.1719598659369552
-30.9796641618240471 -10.1973849026716969 12.0042651602064669
-30.9332923572231522 -9.9812736469156214 11.8473039029080205
-30.8818038603413711 -9.7617509485292686 11.6985174682839883
-30.8253214071303034 -9.5363621554563061 11.5567817559403423
-30.7640628929853648 -9.3050366628555530 11.4221528418321725
-30.6986714783101888 -9.0703551929392319 11.2960943562709009
-30.6304329161229703 -8.8374600570895083 11.1813595703620692
-30.5611020236588260 -8.6124371770057770 11.0806452408471650
-30.4920286519239312 -8.3988880842605909 10.9947292565770738
-30.4233526444596762 -8.1955928547840315 10.9218579884944997
-30.3542104110100652 -7.9978843802117829 10.8590024720105287
-30.2835473444322574 -7.8008175218744675 10.8035338025334653
-30.2106836727830341 -7.6010359815231219 10.7539371763102132
-30.1354759008848205 -7.3968304835209402 10.7096238614827222
-30.0583624287804199 -7.1875908390025245 10.6705145107027484
-29.9804038178587291 -6.9736116998552369 10.6367339525341293
-29.9030151872689629 -6.7563251588079396 10.6083716117481686
-29.8270534416206416 -6.5383713333145757 10.5852476813121292
-29.7517211530297629 -6.3230179149714836 10.5667995517658522
-29.6743862976321005 -6.1131351356785117 10.5521918544036151
-29.5914529555241756 -5.9101979823598931 10.5405612368979256
-29.4992313791052858 -5.7136700472297406 10.5312080981785208
-29.3942842900508161 -5.5211677622909505 10.5236617111579740
-29.2739827645827368 -5.3298037855759155 10.5176968958370551
-29.1378172312510593 -5.1381656301282916 10.5133919659725379
-28.9884335059021012 -4.9470237244691226 10.5112125065754309
-28.8309690723743657 -4.7578545015694544 10.5120065735032604
-28.6708623364584945 -4.5711808746552443 10.5167740113554409
-28.5113708781006956 -4.3866716806727304 10.5261804229075420
-28.3521354880111360 -4.2044357755582276 10.5400341842451155
-28.1897519323168630 -4.0259637106092825 10.5570055241479572
-28.0202088866234291 -3.8541355019100294 10.5746477567775354
-27.8418062278429481 -3.6923572821705193 10.5897836795347136
-27.6565345658014614 -3.5430183789458685 10.5993694534711906
-27.4687806879113339 -3.4060824682214150 10.6014392303472444
-27.2826784196369978 -3.2787405022350793 10.5952913606464598
-27.1007718717779511 -3.1560719163194335 10.5806032637016649
-26.9250151232587669 -3.0321588917680984 10.5563780191278713
-26.7586604712901064 -2.9014156882160531 10.5208977143759785
-26.6065212819676624 -2.7598004005235648 10.4728436015311068
-26.4731135122912917 -2.6054994703583603 10.4125178992736327
-26.3609523784969824 -2.4392021124965222 10.3420238101330533
-26.2703389122533366 -2.2639617476062170 10.2644920189664344
-26.1999502435072920 -2.0840462027722104 10.1830284896956194
-26.1475024875025994 -1.9034283024593766 10.0999862930698860
-26.1104050453606398 -1.7255432930348888 10.0169751711262300
-26.0862076635002147 -1.5532336906101669 9.9349357272833849
-26.0727225111225387 -1.3865401312682781 9.8531572376596923
-26.0679075354830125 -1.2201287317973488 9.7680328942137713
-26.0695621565440341 -1.0454399961385867 9.6741842853842268
-26.0750446924064256 -0.8568360699444622 9.5678174439871562
-26.0814041295438344 -0.6542272995589933 9.4485320082118527
-26.0859381685617038 -0.4405969147948809 9.3185000891912644
-26.0866512190885516 -0.2194918125080747 9.1813474777032074
-26.0823839096601517 0.0047246520004727 9.0420662599193875
-26.0727876303673263 0.2263118411714782 8.9065945622197660
-26.0580226021813779 0.4405238656782764 8.7796780299491211
-26.0381936542723658 0.6469982424710707 8.6626152092440769
-26.0130636839942788 0.8494153230527584 8.5538090998512111
-25.9822868656067669 1.0522976333952627 8.4512300924702810
-25.9457525603077137 1.2588468504432253 8.3539054794235543
-25.9036555133282498 1.4708197875003730 8.2617898384676884
-25.8563740971933100 1.6891862138982905 8.1751668416039074
-25.8043595725222481 1.9146266631428013 8.0943121222065741
-25.7480351320229239 2.1476862996189006 8.0194383138403360
-25.6876609545621939 2.3886027205512157 7.9507985339109393
-25.6233213904677228 2.6367264322088459 7.8888220683858137
-25.5552428709263353 2.8895919001164021 7.8341728834133368
-25.4842377395655539 3.1423785910770476 7.7877103753579560
-25.4116296402930750 3.3890966547035042 7.7503363201887607
-25.3383173892285249 3.6258075591812897 7.7226799323976421
-25.2636259635573595 3.8533330695335390 7.7047983702141503
-25.1852170377856019 4.0760277074015629 7.6962327353008018
-25.1004536756677581 4.2973180199542149 7.6963528347946291
-25.0080302359910220 4.5167353453117212 7.7046006784477905
-24.9084875080116852 4.7311165180391139 7.7205083941653303
-24.8035804313038923 4.9375246392222696 7.7436417798133839
-24.6952498085757561 5.1347581664268818 7.7735442208947907
-24.5847630733519154 5.3231060319474510 7.8097114167738209
-24.4722470853425769 5.5036572423982459 7.8516523415259316
-24.3566631066189814 5.6780471699489219 7.8989569174336642
-24.2363060785134223 5.8485054447677038 7.9512331214674505
-24.1097767945498695 6.0174638963937772 8.0078461384863200
-23.9768952240192803 6.1864543434902819 8.0675261235196629
-23.8387918376320371 6.3553875622546343 8.1281321913570288
-23.6972639684979924 6.5234054178636578 8.1868660712347889
-23.5544994925179871 6.6905964594590461 8.2407798615124186
-23.4136001746466533 6.8587566193412757 8.2871225405130602
-23.2791615568128840 7.0302241206002529 8.3232600090766802
-23.1571355659113642 7.2058020464893522 8.3463913519264441
-23.0540330672511260 7.3840686777848070 8.3535100533328102
-22.9757017950622426 7.5629786442987239 8.3416412422976798
-22.9256153098538604 7.7418126739033415 8.3083640852510037
-22.9035543070896033 7.9209605950535957 8.2527457925347498
-22.9060160022188555 8.1002460965422465 8.1760966720114112
-22.9277070714769415 8.2786227119445037 8.0816763426735267
-22.9625620082474242 8.4551531238613258 7.9736537866707371
-23.0041863027705062 8.6298283876787316 7.8561601264307246
-23.0463245544188986 8.8038021565683913 7.7328190441589415
-23.0834599944740368 8.9792013395679717 7.6067565102144208
-23.1115578667320065 9.1591346318800397 7.4807133225514422
-23.1286090298987901 9.3479503019508794 7.3570948737697259
-23.1344206826196483 9.5504735500698974 7.2381376670294575
-23.1298297698025586 9.7688917259459309 7.1266325452298345
-23.1159131634126851 9.9990786521643802 7.0268242860477406
-23.0935687746901017 10.2319108039541131 6.9434833149264916
-23.0634412292604338 10.4599707662941981 6.8792447109039330
-23.0260146371557184 10.6818546904246396 6.8335682212283997
-22.9817613103609659 10.9003983577101646 6.8042266835722822
-22.9312937008664619 11.1182308380097830 6.7891591957265529
-22.8753253268949237 11.3352407997375213 6.7870636427929893
-22.8142948088356583 11.5493134233268488 6.7970540907771184
-22.7478750331465172 11.7584530591973699 6.8183526864917745
-22.6747972340454531 11.9620972940756669 6.8502539642224489
-22.5933446827519724 12.1610256638206451 6.8920134373568525
-22.5024236058683584 12.3563009246218805 6.9427210679198019
-22.4024458140229221 12.5479102340283184 7.0014968067533614
-22.2951692410209894 12.7342827423630194 7.0676596175203885
-22.1825736782409777 12.9134882633392749 7.1402540978914031
-22.0658613948694082 13.0849520922301803 7.2174231706934187
-21.9452990703648076 13.2500842133987469 7.2965870975665084
-21.8208629134861987 13.4115885278129312 7.3749506217746692
-21.6933157958847431 13.5724190334100250 7.4492604581674442
-21.5648380792186884 13.7353683606834309 7.5152727522724723
-21.4386935456695653 13.9030578328991172 7.5679599873516503
-21.3186688615335100 14.0773698230760154 7.6022048078944069
-21.2088662716049079 14.2585812543359083 7.6133252965553631
-21.1133287016337974 14.4451266188956211 7.5977420150948332
-21.0351615848035358 14.6340395545445183 7.5540297122297702
-20.9755836455123266 14.8217581180242863 7.4837245666035761
-20.9335874750501922 15.0049635061424667 7.3911168836933188
-20.9063618898977417 15.1813996947536367 7.2816747786167886
-20.8899255473081240 15.3515471082055868 7.1591988128713897
-20.8796062111996577 15.5205237081240739 7.0233986668776733
-20.8705929161254389 15.6965124121840685 6.8712671327726209
-20.8588117110766618 15.8844220968652561 6.7027224986640110
-20.8417409187396601 16.0807913434369816 6.5248805269001053
-20.8184434124778228 16.2762880422986100 6.3495346708315257
-20.7886924656509535 16.4635983197277369 6.1862411496049798
-20.7518985872118300 16.6421758010936713 6.0387984133383323
-20.7066327128109222 16.8167878167987688 5.9068230902458474
-20.6510089376872159 16.9931661286833524 5.7885640321515464
-20.5835863983038685 17.1748608790736057 5.6824602608267689
-20.5041457497735706 17.3629288901546346 5.5876282533009753
-20.4137458223581270 17.5571831033486525 5.5040156422590556
-20.3141500333612903 17.7568522670799638 5.4324030150553533
-20.2072364386086853 17.9603312484237989 5.3739836575654021
-20.0945186230486783 18.1653527710763569 5.3296123596746661
-19.9768063169400385 18.3699023501457432 5.2993153941195565
-19.8545744545799394 18.5724675285988603 5.2823793457980894
-19.7288370867268874 18.7713038524673692 5.2777655859826602
-19.6011768011736365 18.9644168741183350 5.2844263163201930
-19.4728037312214042 19.1505358200795115 5.3014466702568210
-19.3437640478526909 19.3299368150915782 5.3281885660962196
-19.2130645625976442 19.5044514893066250 5.3643898161806867
-19.0797653497983610 19.6765702904737090 5.4099579870519072
-18.9443024136207505 19.8479593896378219 5.4644479927061891
-18.8086782000524160 20.0185365363196652 5.5266631130576975
-18.6751340017287468 20.1871324578387785 5.5947887796632223
-18.5447797217031827 20.3530804012348376 5.6668707462409547
-18.4173519940853865 20.5171896716365580 5.7410862375371146
-18.2918891244121404 20.6813025862230155 5.8154249853111466
-18.1675991897984730 20.8470214101608207 5.8869620843017376
-18.0442424169778199 21.0150922758224077 5.9514268699725790
-17.9218883812312235 21.1859983022245260 6.0034406913772109
-17.8008871555777262 21.3603564070648595 6.0369310132831959
-17.6827006614360727 21.5380587609009417 6.0454792730684854
-17.5707048296210111 21.7171840869354398 6.0232559057690125
-17.4694803095360491 21.8941632089438727 5.9667972471934068
-17.3826853897602085 22.0651203356236998 5.8764453731381110
-17.3112152144003986 22.2273023362909328 5.7561863359538208
-17.2529819316509148 22.3796375253119066 5.6121885907995335
-17.2039874293017547 22.5224810678686111 5.4511842822899936
-17.1595366300712158 22.6574677728011693 5.2791462799962261
-17.1151176829743044 22.7874644855172548 5.1004738107913070
-17.0669934526011389 22.9158771123400058 4.9181170724279468
-17.0124476794896538 23.0455627270522001 4.7344406794163731
-16.9498179160907370 23.1781500504867637 4.5521685615004444
-16.8785121340852058 23.3140771771146547 4.3750578750033959
-16.7989437277174183 23.4530601328772974 4.2078914008335762
-16.7120604617036896 23.5946287854401007 4.0552851918440211
-16.6184330459592680 23.7387825901730949 3.9199324663103212
-16.5176205779941121 23.8865269647573299 3.8019870228887065
-16.4084527937817271 24.0395688279317241 3.7002148347395245
-16.2898262404641230 24.1993084228881798 3.6135552031936395
-16.1613137705263448 24.3659125358216713 3.5417702932148494
-16.0232713855258027 24.5380216551167223 3.4851539663506923
-15.8762989114564022 24.7134916761718806 3.4439235467927887
-15.7201864008536205 24.8908752174921695 3.4178555066316356
-15.5536176357761953 25.0698669653753861 3.4064065369918559
-15.3758586174875447 25.2495634097261359 3.4091157826552720
-15.1887080532420988 25.4267374046059338 3.4258064677050779
-14.9960192618055963 25.5967295563609269 3.4563888578199347
-14.8016346354030972 25.7556761252236655 3.5005769860223861
-14.6080992964050047 25.9016142448367077 3.5578128789896581
-14.4167329931878037 26.0342205128224116 3.6273534719335245
-14.2282029922875211 26.1541841307958407 3.7083598889441554
-14.0428407958506902 26.2626169688672526 3.7999346075499751
-13.8606913020795410 26.3605553068925538 3.9011223325045634
-13.6816586751375375 26.4489428247241065 4.0108980130987586
-13.5057184663356402 26.5289784545615923 4.1281914765741625
-13.3329170680676814 26.6020937384953058 4.2519776452542288
-13.1632183014177730 26.6694542566183763 4.3813591787904560
-12.9964826510343023 26.7316977300504846 4.5155483571365505
-12.8325916241899165 26.7891865378765814 4.6537787205840750
-12.6715338228305949 26.8423444673498075 4.7952412102040629
-12.5133710372089695 26.8917686957868334 4.9390567186180654
-12.3581186998160426 26.9382041079869090 5.0842532109808580
-12.2056151908978059 26.9824629768033049 5.2298088752259648
-12.0554637980415258 27.0252405819795456 5.3748674937632916
-11.9069952126755734 27.0668563417810120 5.5190473103496291
-11.7590346562432817 27.1071203119808573 5.6625447432250358
-11.6094503890256924 27.1455758262196767 5.8058302593874966
-11.4550211946150586 27.1821374461305645 5.9490397925468415
-11.2923784575624246 27.2176077444102305 6.0912854296285364
-11.1197996420312446 27.2533415514622774 6.2300701634919537
-10.9382281987724408 27.2903157046754217 6.3611723183596052
-10.7504367193496861 27.3289718643111748 6.4792913374769476
-10.5593566775485446 27.3701971036938581 6.5790397891872416
-10.3669870629135463 27.4159956086675933 6.6559583716382580
-10.1743167894074222 27.4686790061279460 6.7075064191587810
-9.9818308949036272 27.5294814185367187 6.7337638764827830
-9.7898647199876940 27.5980988593866527 6.7375600145179071
-9.5985401694935710 27.6733279250232336 6.7237950854371817
-9.4076207596260275 27.7539690711886919 6.6981173640574134
-9.2167136670754548 27.8392438178314805 6.6657349424972399
-9.0256144720285416 27.9286836469858244 6.6308971805205790
-8.8343054421430516 28.0218521509844507 6.5968986713041229
-8.6426589936485900 28.1182452679329700 6.5662934708148804
-8.4501815554053490 28.2173152677025065 6.5410889950168212
-8.2562576365465823 28.3182538296008026 6.5229708796139576
-8.0609003933903818 28.4196697111813563 6.5136115331854008
-7.8651657782311322 28.5196652262236618 6.5147765985769848
-7.6703372546521358 28.6164961983877539 6.5280674211888119
-7.4767405055660063 28.7091365924030413 6.5546315934417301
-7.2837913654073603 28.7971582454848445 6.5949866770707555
-7.0911906523077484 28.8802412400729516 6.6486544255812738
-6.8995604362077341 28.9580748667887065 6.7137952243015846
-6.7097300714002550 29.0308673478022250 6.7874716401044477
-6.5219073215881220 29.0997364249213746 6.8662609005715760
-6.3356680757900108 29.1663898259590582 6.9462787602487106
-6.1501326808120229 29.2324458703156260 7.0224832544396021
-5.9639761659551116 29.2989132736587017 7.0879688721322989
-5.7762132557510082 29.3657724555785400 7.1338803656926499
-5.5877529961626866 29.4316171793228882 7.1504327044053149
-5.4021496427354894 29.4937376207184521 7.1291746382481520
-5.2246994544437690 29.5487686230413615 7.0657554970034351
-5.0605830399759855 29.5934999398951568 6.9617512523409513
-4.9130412282751763 29.6257192459657439 6.8241782043740953
-4.7822579412494797 29.6450473632516136 6.6625903404378306
-4.6654753030684244 29.6532244857028502 6.4855009332740003
-4.5581722577351114 29.6536073204516768 6.2983557194095745
-4.4555563166494885 29.6502047790277885 6.1039728569627503
-4.3534864474491561 29.6465036117373835 5.9042129435579316
-4.2485411880835873 29.6443463349245313 5.7012715308117006
-4.1376865585929714 29.6435402222125823 5.4980833441976582
-4.0180557818623690 29.6425773063941058 5.2981401356767606
-3.8869571007883401 29.6398069142482186 5.1051755539975954
-3.7420499849243836 29.6342277036186523 4.9229841916976014
-3.5817317445842711 29.6257877795399445 4.7553989568762489
-3.4057611484809538 29.6154655288027833 4.6062805745125548
-3.2157704047908675 29.6051211042202240 4.4792723792658933
-3.0149673277105080 29.5968522391344315 4.3771515335381164
-2.8069057830926027 29.5919982336584795 4.3010716820219965
-2.5943748187484070 29.5905801942407187 4.2504595695815439
-2.3790848176384056 29.5916669741700460 4.2238484553089286
-2.1615619603601663 29.5941341877960298 4.2198920731393841
-1.9417351518831429 29.5970920014920509 4.2378030462891410
-1.7209298460807387 29.5999064320960414 4.2771351900993402
-1.5031410064981543 29.6021681525818785 4.3372915014880338
-1.2935960854994004 29.6037654960273429 4.4172538634940910
-1.0963634201018451 29.6049170682846245 4.5156274683887236
-0.9133712486466159 29.6060979269450151 4.6307609562671157
-0.7448565749291367 29.6079261230862869 4.7608650201995477
-0.5900991889890737 29.6110097819470930 4.9041842070180284
-0.4478415376951714 29.6157394624091701 5.0590669641695083
-0.3164565506314747 29.6221440668911740 5.2237917870144681
-0.1940571383935890 29.6299211120236592 5.3963798745147944
-0.0786516470937535 29.6385551195335850 5.5746769374577578
0.0316754498634868 29.6473736645874943 5.7566300605958141
0.1386866883125344 29.6555011449897492 5.9405530090607126
0.2440163711554657 29.6617792271783323 6.1253263626160734
0.3492952197220671 29.6648270303428525 6.3104645678803735
0.4565265599725268 29.6633935893567084 6.4957488917502086
0.5685018898208021 29.6569105154722692 6.6801336114735754
0.6886663756186702 29.6459800219082865 6.8603389440950968
0.8204944543072301 29.6326064247087935 7.0302414722337119
0.9667436659032762 29.6200914485887381 7.1813728550610598
1.1283889942363929 29.6125486815117718 7.3038984024029503
1.3037428648013476 29.6136838475925863 7.3885644647694200
1.4888983065037162 29.6248550088618252 7.4300818606143419
1.6794729027955322 29.6437535558463701 7.4299484758491428
1.8724481002671642 29.6650264184948718 7.3961245057650595
2.0667538544528083 29.6823799078489685 7.3398838172931544
2.2624724854586287 29.6907074534581064 7.2724864707631163
2.4598352056063915 29.6872283186032710 7.2033843913898608
2.6589226744405554 29.6715132819977754 7.1398059534711829
2.8596384502394354 29.6449586598897454 7.0871000440998007
3.0613783219334989 29.6100241800430908 7.0494184326061360
3.2628312241446706 29.5691343542228395 7.0302567295903913
3.4622535119898386 29.5237496455163608 7.0324973292937214
3.6578804200775870 29.4743682658600505 7.0579572213047932
3.8482399774373670 29.4211429730861980 7.1066826118519408
4.0323940779204461 29.3643139604894472 7.1763274112622231
4.2103235195152546 29.3043547756032829 7.2619507805164645
4.3834731469607959 29.2421102086677713 7.3562937014703387
4.5550941829462861 29.1790630288527026 7.4501447487896444
4.7297192269653188 29.1177145415991774 7.5327185585821717
4.9114219461073914 29.0616579155152905 7.5925017395470586
5.1015792047168871 29.0146950516663722 7.6193810773454764
5.2977578512050414 28.9791332656387688 7.6076083746679481
5.4949347592922848 28.9545840472721245 7.5574850258939534
5.6883072739307083 28.9382548342249102 7.4742910917292651
5.8751328787926669 28.9261694828498506 7.3656991822653648
6.0542154580238430 28.9142982970393199 7.2398020111977184
6.2247939751854604 28.8993393748034109 7.1040103025385477
6.3868813929343542 28.8792518472016972 6.9640549840102457
6.5422958528950481 28.8535184591457003 6.8234046665468693
6.6944624877026921 28.8231701835333070 6.6837206856865397
6.8470821820697392 28.7903941315124356 6.5457957262702120
7.0029616841903151 28.7573439497928796 6.4101622336957824
7.1635766300578210 28.7245844516202880 6.2773686660486323
7.3292616619198734 28.6904162306208121 6.1481791771534997
7.4997479004041816 28.6516442954034289 6.0236767975685002
7.6746816620578437 28.6049041618344297 5.9052128289101820
7.8538722303482489 28.5474634490535344 5.7942849975860327
8.0372694382549401 28.4773573829665381 5.6924416029962401
8.2247714997661650 28.3933823721416019 5.6012292490865061
8.4159105194743375 28.2954601721801779 5.5221470810716173
8.6095171605491263 28.1854870215757600 5.4565603810980470
8.8037524491561356 28.0680678783971729 5.4055600779374728
8.9969474798025111 27.9498877638751395 5.3698585288034000
9.1887279411518001 27.8371875063513059 5.3499073997736506
9.3798099963061006 27.7330678537229751 5.3462439367567498
9.5703118000109164 27.6370374392400180 5.3596433531055077
9.7589883799310861 27.5467068752578399 5.3907460044739377
9.9442119378637095 27.4597905184392488 5.4395889177984369
10.1247336402978014 27.3751890609912643 5.5055060579260040
10.2995997208789678 27.2928031811892637 5.5871881479392673
10.4683445373899797 27.2125794681631739 5.6827455448049378
10.6315703163829838 27.1338221298400057 5.7898855813039276
10.7910873783517012 27.0552909540319675 5.9059164852576931
10.9493576739205238 26.9758663171860817 6.0271157792468326
11.1089124557103798 26.8951448861728935 6.1479586620670723
11.2722212299629501 26.8134674372775095 6.2609437907022070
11.4415962217286271 26.7315760395273045 6.3570012788645478
11.6186245343377852 26.6504139005964191 6.4266387790070052
11.8032004475151169 26.5711184721803519 6.4621412812885328
11.9931018349648841 26.4947681226103242 6.4600075424513062
12.1849931781452927 26.4218439804258374 6.4218046158200650
12.3760842053344220 26.3519155762787349 6.3527656860077837
12.5645003337978931 26.2839874283986177 6.2596122024736385
12.7484530351525951 26.2171660065615413 6.1492290658459918
12.9261358324592823 26.1508943870167982 6.0279799126648523
13.0969211685023357 26.0844881710354102 5.9007789073307197
13.2621056238317596 26.0165968742287603 5.7703244939659815
13.4239598329487908 25.9452784532221941 5.6375226562928695
13.5843427440348297 25.8685617414992635 5.5028277601972277
13.7443686006139654 25.7850516966089174 5.3672807619373071
13.9049292146654242 25.6942483953028571 5.2325679388829354
14.0670933550794999 25.5962715202296422 5.1005189121027961
14.2319525207446009 25.4911338367219926 4.9728045759371646
14.4002652235409219 25.3783334065988910 4.8509971338375557
14.5722718949588490 25.2571794839184136 4.7366983471943342
14.7475151991571423 25.1274319079923316 4.6316081937222080
14.9244033672283614 24.9897379013820498 4.5375782420866351
15.0999742569962692 24.8457305190307665 4.4565117984915030
15.2707897317215888 24.6974928750152500 4.3898902202062704
15.4348205800188047 24.5462573768671248 4.3381402250965539
15.5924673311846789 24.3915207734448423 4.3005440537306221
15.7453658786688280 24.2317860550250757 4.2759765366405347
15.8943837121987421 24.0659781713827492 4.2638042172162187
16.0389596864912463 23.8938646513781343 4.2642752193762412
16.1779894926043681 23.7153732251463900 4.2783087480292359
16.3107196854163874 23.5303668069445777 4.3068576521922211
16.4365246343037938 23.3398257495909647 4.3501822476763294
16.5543807266788185 23.1468720822379126 4.4075891270161200
16.6632382583045278 22.9558265650078006 4.4778514542286754
16.7627339620578510 22.7703150737253566 4.5597674791299081
16.8532686957786808 22.5922421672277665 4.6523784640112424
16.9355024246125723 22.4218229371650253 4.7549231635646674
17.0099178851388544 22.2579318736631038 4.8668168088754964
17.0768267637124005 22.0983731902095073 4.9877724636709999
17.1366944793965175 21.9403004698647628 5.1178468732419642
17.1903882274300024 21.7811755568872485 5.2569734388651792
17.2390777844269678 21.6199926236142375 5.4039815733437688
17.2840298882175603 21.4576096401979157 5.5560315300659919
17.3267681030494387 21.2955506899605922 5.7092286858143630
17.3695195227707693 21.1343991460059755 5.8598011439205546
17.4153999304135318 20.9732430681451376 6.0047427890214014
17.4680497395080678 20.8104588544203892 6.1413501127004970
17.5309753500434482 20.6450244048545883 6.2659724084662063
17.6069885118348282 20.4772012236528838 6.3733441036840297
17.6978186255016396 20.3081454632808160 6.4575007099219253
17.8037008249439381 20.1392854012495874 6.5135436511664242
17.9230091543044168 19.9721029272409396 6.5390412169273215
18.0523473048454619 19.8079312378889938 6.5345971608203026
18.1874406533872559 19.6473611089806290 6.5035915841683298
18.3244952023456271 19.4896874533176074 6.4512508526536259
18.4609782717284645 19.3331917818326886 6.3834247920282046
18.5952365491369385 19.1762351779948119 6.3056812622016949
18.7259914697131329 19.0179485601198870 6.2229069882048691
18.8527650888698091 18.8577274806796318 6.1390616464263434
18.9764860204795980 18.6944499903166381 6.0570327768584438
19.0989319628893739 18.5266998148704793 5.9788028952390651
19.2212436248894250 18.3537735891295597 5.9059414962417005
19.3429703710411047 18.1763762321774252 5.8401292877341131
19.4626220332728828 17.9961559588035520 5.7831924029835129
19.5792304665500794 17.8141524426303732 5.7365186959331638
19.6932801715834813 17.6296031101342052 5.7005652057627891
19.8060434837511288 17.4405228439765523 5.6751399505155735
19.9182547888620896 17.2453985957660407 5.6600864625391640
20.0293974985670182 17.0444694432320425 5.6555585204217422
20.1379098113606929 16.8398866222877288 5.6616462169806940
20.2419915841763114 16.6347952084970210 5.6779201886850483
20.3404338454736191 16.4317826308086659 5.7036049954059678
20.4328690339223691 16.2315249793141341 5.7382656099776312
20.5194174821977775 16.0325461205439446 5.7821272098423169
20.6001467844700805 15.8325266679689332 5.8355379897239015
20.6746826462590008 15.6304467778198770 5.8980769006537876
20.7423090112062987 15.4276638859956918 5.9683043935179896
20.8026588028294661 15.2267429955617821 6.0444491665473219
20.8563605745633858 15.0293298306392700 6.1251989410457632
20.9049663710605707 14.8350518527994701 6.2098231947959466
20.9503096090986283 14.6421812078896600 6.2975657409666930
20.9940627535220230 14.4492758497892737 6.3867902977569262
21.0379348837208333 14.2560583880850800 6.4746905507320740
21.0842217094835966 14.0627648637566995 6.5577560022178805
21.1360868240591451 13.8693386105765448 6.6321565656690158
21.1971522733420557 13.6756136151135532 6.6936187106833014
21.2704258740002352 13.4817756472294459 6.7374299805448921
21.3570788361749422 13.2883357421656392 6.7592190060251074
21.4557820619826352 13.0961174126658637 6.7561704184261382
21.5630468840291307 12.9064758413254026 6.7278867257274886
21.6744764643895564 12.7212976799359403 6.6764978790040583
21.7864342679545437 12.5423992135006870 6.6059875632990988
21.8973597996819045 12.3703375769718829 6.5209249626462320
22.0078448407365741 12.2036740593116289 6.4252684768057193
22.1192751726812631 12.0396604567271819 6.3220790174745627
22.2320695865851761 11.8757730566247730 6.2141750509477305
22.3448726514404505 11.7108542407664320 6.1048706318082484
22.4553167602382509 11.5449764615245343 5.9977943754486542
22.5616733501378697 11.3780502485726966 5.8957800833971561
22.6638236574653860 11.2085983529319435 5.8001848586874569
22.7628260268614113 11.0340811720700405 5.7114375809464732
22.8599704971853157 10.8520678986965233 5.6298892272115975
22.9561651134498703 10.6608517657785100 5.5560900318016220
23.0516184172364902 10.4594909392879938 5.4906958938106651
23.1456807587138620 10.2481195934004425 5.4344054513341895
23.2369105871527566 10.0286783561540389 5.3879706713290041
23.3233768506656389 9.8051676867478896 5.3521492909827106
23.4031665347661963 9.5823469292919867 5.3274998376121996
23.4750026609959406 9.3631743082435150 5.3141527597734051
23.5385815517412311 9.1473461809065331 5.3118611604022608
23.5942182162931005 8.9327613007051809 5.3203060087295011
23.6421210851504036 8.7182669394637120 5.3392931563738699
23.6820690172273309 8.5047193086990358 5.3687402313960160
23.7137268382301620 8.2936597507662810 5.4086398467163885
23.7371265322037139 8.0858933919256319 5.4589566361607940
23.7527994049943878 7.8819880925869708 5.5192380485440111
23.7614578706037989 7.6836461192824315 5.5882221345507137
23.7635716277983882 7.4929570554912086 5.6643332643748217
23.7591891050550856 7.3094008856101294 5.7470287281530830
23.7480903444314926 7.1291017105170438 5.8371404943353102
23.7301283628672373 6.9482954169808284 5.9353239917162988
23.7054592305987413 6.7664360228178175 6.0406100993230591
23.6744941096828434 6.5855207284499242 6.1506484699806538
23.6377212882987600 6.4075229724024290 6.2627417724342376
23.5957352253248622 6.2325864606599328 6.3743384875339579
23.5497151060619068 6.0582460673689251 6.4829106104828504
23.5024150584096070 5.8789911833177930 6.5857727023011137
23.4594166678568286 5.6865169291311579 6.6801985933776624
23.4296284622472832 5.4724525183523776 6.7640584400357326
23.4233872319012306 5.2348566088553516 6.8367619510055988
23.4478179288009834 4.9842444426276762 6.8995069250768246
23.5027277528945540 4.7397975338947465 6.9544743547251811
23.5813606097649853 4.5161503704680834 7.0039518690533455
23.6753175732941337 4.3154388771045564 7.0499739694331698
23.7785554153581238 4.1311183720623745 7.0941524716280888
23.8880350186977637 3.9555223668062904 7.1375480597949696
24.0025482983661043 3.7836560832483350 7.1807094853908175
24.1216060166633994 3.6131323745831789 7.2238517389703221
24.2449104149450214 3.4429577189247844 7.2670308255909610
24.3721961075666727 3.2726634596525237 7.3102452715028949
24.5031996015147087 3.1019316731067530 7.3534773928157735
24.6376566724928807 2.9304786813954582 7.3967058747995358
24.7753028161896260 2.7580270851818867 7.4399087500979126
24.9158734729045221 2.5843004240928771 7.4830639568854469
25.0591040754780359 2.4090223528516823 7.5261494223668217
25.2047300560445144 2.2319165377460770 7.5691430727393518
25.3524868466954878 2.0527066460120960 7.6120228341296459
25.5021098795217220 1.8711163449486463 7.6547666326608468
25.6533345866141431 1.6868693018579393 7.6973523944560167
25.8058964000636912 1.4996891840423405 7.7397580456382178
25.9595307519613385 1.3092996588042016 7.7819615123305175
26.1139730743980252 1.1154243934458812 7.8239407206559806
26.2689587994647020 0.9177870552697467 7.8656735967376736
26.4242233592523235 0.7161113115781497 7.9071380666986579
26.5795021858518439 0.5101208296734470 7.9483120566620027
26.7345307113542141 0.2995392768580025 7.9891734927507709
26.8890443678503814 0.0840903204341750 8.0297003010880292
27.0427785874313003 -0.1365023722956771 8.0698704077968415
27.1954688021879178 -0.3625151340291950 8.1096617390002752
27.3468504442111957 -0.5942242974640202 8.1490522208213960
27.4966589455920953 -0.8319061952977798 8.1880197793832696
27.6446297384218518 -1.0758371602279766 8.2265423408090292
27.7904982547961410 -1.3262935249497811 8.2645978312228081
27.9339999268708041 -1.5835516221269810 8.3021641767623500
28.0748701874829969 -1.8478877840663550 8.3392193037191156
28.2128444759542134 -2.1195783396521737 8.3757411398443189
28.3476582836219002 -2.3988995899756187 8.4117076245718785
28.4790474536490414 -2.6861276443417985 8.4470967761736002
28.6067498312777104 -2.9815374853865251 8.4818870605944277
28.7305127971948195 -3.2853984563053515 8.5160590724752012
28.8501213993090211 -3.5979558548222634 8.5496018122948545
28.9654822795675884 -3.9193678006395558 8.5825314880927621
29.0768150129510445 -4.2495249390031944 8.6149350376235851
29.1849526443195977 -4.5876309144955236 8.6470422657882953
29.2915526306084431 -4.9314457783312271 8.6792941444381313
29.3987589559164313 -5.2763658821799417 8.7123309652173297
29.5080098375570863 -5.6151091563409246 8.7468602348417903
29.6186278613024996 -5.9391567709588955 8.7835210875805441
29.7276663755995365 -6.2420653953662786 8.8229325089899575
29.8315537538458884 -6.5223797676259245 8.8658585441916280
29.9280413094369386 -6.7833451794708957 8.9131716884895642
30.0167918696933427 -7.0298843499002892 8.9655680275722247
30.0987231785066776 -7.2659311043756141 9.0233788623523665
30.1751020971178185 -7.4937844620755989 9.0866723785872239
30.2469481517125836 -7.7147295830194835 9.1554828727354618
30.3148294690525759 -7.9297124118232674 9.2299456334136956
30.3788753680109345 -8.1396332117675740 9.3102699180762372
30.4388076855356715 -8.3453056356416369 9.3966337889553202
30.4940379955379655 -8.5471938313699951 9.4891129272177075
30.5439305618757224 -8.7451573273379353 9.5876788635703925
30.5881197981892541 -8.9384895445332937 9.6922574107291588
30.6266548722739600 -9.1263050835152875 9.8028211247317856
30.6598509219563375 -9.3079984795946800 9.9194526238560226
30.6880418901242393 -9.4834536703999923 10.0422988520894165
30.7114659912214485 -9.6530123840876243 10.1713110074902637
30.7302997240381259 -9.8173371105833382 10.3058059478631385
30.7447695988907981 -9.9771283872867969 10.4443156117268732
30.7552105856160445 -10.1327317145337936 10.5852389254051911
30.7619270599194508 -10.2839587168893551 10.7279114573534677
30.7649734440222566 -10.4303848651869231 10.8729588812423650
30.7641522113656727 -10.5719285459454433 11.0215317130440660
30.7591991682985970 -10.7091930482258277 11.1743423699175644
30.7498043614454879 -10.8432258759537774 11.3315130415240795
30.7353421263369668 -10.9748763491316090 11.4930812956563884
30.7146447896496682 -11.1042959570997475 11.6592683762418474
30.6861793318392699 -11.2309971417071743 11.8300860691581970
30.6485904927435620 -11.3544680211142115 12.0046301655624603
30.6012828680950122 -11.4749509046916671 12.1807385881481309
30.5446193439594325 -11.5938108793053054 12.3554490726626263
30.4795645285322294 -11.7131415456192940 12.5258689483215129
30.4072326466982581 -11.8349185302737112 12.6897162025689845
30.3286855653301970 -11.9606060792437212 12.8455435752093869
30.2446913487884252 -12.0917053458399906 12.9930687492554124
30.1556548461165832 -12.2304239261986964 13.1333230996240005
30.0625950710888326 -12.3791842164378885 13.2679312944674788
29.9688192150459471 -12.5390806361247655 13.3978034824396453
29.8802111684862020 -12.7091477298679045 13.5228820998249688
29.8031459814910349 -12.8875969263615744 13.6439015211036505
29.7420824760124134 -13.0734959002361428 13.7641688673448073
29.6991458926022247 -13.2666110725670201 13.8886427282897493
29.6755505265302517 -13.4648094151336508 14.0204126183195736
29.6730000498022761 -13.6617177600907524 14.1577590437082836
29.6936060417395353 -13.8488040382842748 14.2953116783385337
29.7381914501460507 -14.0208724025359643 14.4283656285860751
29.8043671340385679 -14.1786692332738120 14.5552640527548203
29.8862880604141701 -14.3271828180988905 14.6762461687959931
29.9763401926370996 -14.4731940768403575 14.7914407329197175
30.0672252239100679 -14.6238099374251433 14.9004790909124534
30.1531527378311495 -14.7853979060788490 15.0041037192747559
30.2297138958077340 -14.9626980211688725 15.1058714973868042
30.2925474633572271 -15.1580281660283873 15.2111179744294045
30.3360278661828247 -15.3700528618107910 15.3225855828153126
30.3537811254741356 -15.5928462234458181 15.4361400990820012
30.3410587172578978 -15.8178233965263857 15.5416306751673865
30.2971952572160568 -16.0384530099646518 15.6297726460003954
30.2274506162785492 -16.2525805384527082 15.6991955457816221
30.1437282577687391 -16.4595147777125987 15.7579007102270996
30.0624692744438811 -16.6573731466773438 15.8202744949452274
29.9997809148254149 -16.8436219706994734 15.9023680459479824
29.9660340102222627 -17.0163460648630291 16.0160035633491802
29.9626071844736011 -17.1749999045734860 16.1645539425039324
29.9830071258214872 -17.3207167820262811 16.3438326252359794
30.0170574709385818 -17.4557223725832777 16.5458661876189375
30.0539426241939935 -17.5823686818395544 16.7613931214338905
30.0834727762827967 -17.7027445101683796 16.9808600712661288
30.0977323306344822 -17.8189376458853737 17.1962617247988767
30.0926912065798220 -17.9329864596397570 17.4030764433785379
30.0679065988333534 -18.0465540588268674 17.6007585467769125
30.0247722362423204 -18.1612339218199956 17.7921516693308384
29.9652840126022930 -18.2789082367244937 17.9816231021588067
29.8921632062174574 -18.4010547365307637 18.1723173196414400
29.8093039117298915 -18.5271742386244682 18.3641267706554032
29.7207564380355649 -18.6546211009421228 18.5545609913682767
29.6289204107232464 -18.7803915216325379 18.7411292557518081
29.5339965389334935 -18.9028916414360815 18.9225117147821713
29.4349022679043166 -19.0223026023027302 19.0984621196880333
29.3304677281309516 -19.1398456676004898 19.2695552873672007
29.2201863439653948 -19.2568636111675744 19.4366659389700480
29.1044986961541063 -19.3738900591203276 19.5998818889762418
28.9844571563670783 -19.4904204897388205 19.7578346529926208
28.8605910983707012 -19.6059961046164375 19.9089728909224775
28.7325394494188089 -19.7210423497914320 20.0531822073119059
28.6003159311630100 -19.8364918180946432 20.1917274180137767
28.4653747187221171 -19.9528888208955593 20.3258899502614874
28.3292342782010138 -20.0707843958792935 20.4562103350445170
28.1913039298731007 -20.1916614758767068 20.5822656801201944
28.0486546044597453 -20.3174029345635461 20.7017122402065965
27.8973826809403924 -20.4488404741434948 20.8095381029049449
27.7340276868314497 -20.5851011781026898 20.8993748138921092
27.5569564755740117 -20.7243607291317886 20.9660321004965837
27.3673267340207538 -20.8655474613821781 21.0068848522859852
27.1686199071189272 -21.0086814366286347 21.0215455938450546
26.9649815688771568 -21.1532747141864519 21.0111157243772126
26.7597900587118041 -21.2974171908981518 20.9779276256175322
26.5554612398074070 -21.4385899305049463 20.9253878268478601
26.3537895627802392 -21.5747512328631288 20.8575461278116592
26.1561614874297561 -21.7047791339664826 20.7784741014686603
25.9637884942724710 -21.8283746435567281 20.6911609674208776
25.7775264411782423 -21.9458104120153195 20.5960314616868949
25.5974435186278271 -22.0581567648309118 20.4908620861778417
25.4232294962397134 -22.1677280770561111 20.3741716809785096
25.2543230682017956 -22.2777090968248928 20.2498495582689166
25.0883339969343453 -22.3910436639255366 20.1274948297240357
24.9199078232234577 -22.5096138164816892 20.0184245948673691
24.7430185820245114 -22.6338083622795807 19.9317711144661516
24.5558861957649874 -22.7621701101284799 19.8722777506004427
24.3632324873173616 -22.8922872509044808 19.8389938989283934
24.1715687300084880 -23.0236149505772332 19.8256312383486559
23.9822135380992911 -23.1588240189473851 19.8240190408569283
23.7909738690942412 -23.3008100509990328 19.8286234720634376
23.5947826917338581 -23.4484399503002336 19.8383582147070676
23.3962952143075924 -23.5968318876513052 19.8546105834062381
23.2018489659642775 -23.7414034967670560 19.8775358729102649
23.0165761699095590 -23.8801221592102948 19.9034257416345071
22.8412304095099827 -24.0128206607958390 19.9245402441535653
22.6726414746547569 -24.1401569762482424 19.9308940608189822
22.5075969422474813 -24.2627646781010711 19.9128324731430482
22.3466800023650372 -24.3801261562862663 19.8636031299812146
22.1937565214982087 -24.4905473753683438 19.7809693971046627
22.0521221509441574 -24.5924962412475878 19.6668725628573782
21.9226123875098224 -24.6850881568166614 19.5259977399505580
21.8055884838524818 -24.7669932865663256 19.3647727648601773
21.7024558382469515 -24.8362293715515392 19.1896142412325048
21.6142429175720068 -24.8915453671854507 19.0042876276957458
21.5398368904103883 -24.9334607598662572 18.8091157330565935
21.4763948222097945 -24.9638665973855822 18.6027064831960800
21.4209045499752193 -24.9845844320888446 18.3830224553625428
21.3711993317032558 -24.9959703567193259 18.1462376950847357
21.3267053288436159 -24.9964594570860044 17.8868882443297856
21.2886798885485682 -24.9832810958143980 17.6006421849770440
21.2591327086167219 -24.9539112181337615 17.2890498882882753
21.2391314073948081 -24.9078572242136005 16.9640793068558189
21.2278562847843695 -24.8484312807441228 16.6474980465054401
21.2225453081314015 -24.7828042718243609 16.3621405249486500
21.2190658128801601 -24.7184298403339326 16.1187071184754807
21.2133610228874900 -24.6582467632007791 15.9090568491206490
21.2028592750018312 -24.5996887819682044 15.7132662960695306
21.1866418733988553 -24.5378543118733106 15.5134473143166218
21.1647656132237003 -24.4690569193620533 15.3019591428852362
21.1374891920522572 -24.3925069326319317 15.0810016205734172
21.1042958064619945 -24.3102056370956063 14.8575014730542474
21.0629623988876986 -24.2253426703193782 14.6372904793277687
21.0099893223755210 -24.1397571652595602 14.4216198545288226
20.9428779010571979 -24.0522664360505374 14.2079148823738546
20.8621824883936640 -23.9593639175083624 13.9935416807604689
20.7715165010635694 -23.8577499504218054 13.7792868172098544
20.6761709140305570 -23.7466156027779078 13.5703081399403978
20.5810196638048879 -23.6274964279978548 13.3733387850057426
20.4885824356283308 -23.5019882941337599 13.1923835336143220
20.3988996358968748 -23.3699374049185309 13.0273971550974732
20.3109785965167013 -23.2290959744490308 12.8767638415995656
20.2236400145185833 -23.0747631576061565 12.7400055015263867
20.1357868617148519 -22.9002546905077295 12.6191850154658702
20.0474293103247660 -22.7003503835268106 12.5190867376156767
19.9606278413362510 -22.4756597242295655 12.4447113703409951
19.8785259410500288 -22.2327893936174235 12.3967473416918210
19.8035817208090812 -21.9802619140299385 12.3701510384899720
19.7370525533724006 -21.7247462238899516 12.3573964757276293
19.6795184440351605 -21.4700900178660632 12.3524023143114690
19.6313336553691045 -21.2181260286638818 12.3519911588294651
19.5927783757715162 -20.9697647325592911 12.3551346592636744
19.5639812366597567 -20.7258095223077774 12.3614635517447695
19.5444746599928294 -20.4870257179661408 12.3701230115597447
19.5328531418380358 -20.2531683306813193 12.3795480458343210
19.5273331347162689 -20.0217836456742830 12.3882528392688940
19.5268397265446936 -19.7883970645689189 12.3958029118681932
19.5314110027916890 -19.5487574395927339 12.4026871864316242
19.5415396715815781 -19.3014148429964649 12.4091989162564680
19.5572186313757150 -19.0484901776441653 12.4147717476576478
19.5773618450739946 -18.7955282146803100 12.4183142078023145
19.5997407061869389 -18.5506416561635028 12.4186979196603691
19.6216130924623293 -18.3199986335915064 12.4150080456024003
19.6407258982932227 -18.1030821856654534 12.4066943217124788
19.6558561852628735 -17.8931062734216226 12.3934862999302755
19.6663321696302518 -17.6827807164938946 12.3751584379839290
19.6710810512811634 -17.4691686917564191 12.3514355974430714
19.6683583247488549 -17.2522714470338165 12.3220038714906810
19.6563439864823941 -17.0321928476910038 12.2867351694870628
19.6337418070705958 -16.8099863284178959 12.2460174285264518
19.5998442737253740 -16.5888259178419766 12.2005951991317758
19.5542475613655924 -16.3726358675659114 12.1509130814311952
19.4965769989649651 -16.1639080414072396 12.0965925751019938
19.4264934874227535 -15.9629064399295295 12.0365208089654541
19.3439757472220748 -15.7683995689900378 11.9694129201848334
19.2495872069703289 -15.5787255728910345 11.8942273365174849
19.1445398486219709 -15.3925350564011616 11.8102169603777316
19.0307109946402271 -15.2092852927936484 11.7170345042636903
18.9108281098873796 -15.0295278544097499 11.6151432179777050
18.7886222731099615 -14.8547101833728448 11.5061983175963700
18.6683174599934461 -14.6861529517015121 11.3927594891456412
18.5532570248075608 -14.5237038290337281 11.2770985590900086
18.4447337740850514 -14.3653832901659975 11.1601260581772905
18.3422676226546137 -14.2084211575504753 11.0416717204735626
18.2447197742145057 -14.0503644096621088 10.9215340558239760
18.1510618939990351 -13.8892624072515112 10.8000010981590400
18.0606604377327358 -13.7233780673551458 10.6776754388901178
17.9733486040931041 -13.5511780058105167 10.5551766631415660
17.8893397880345830 -13.3715825741100538 10.4330963000734016
17.8090347483478268 -13.1840026171125082 10.3121805573743934
17.7328656734626335 -12.9880502304502095 10.1935114208127260
17.6611937623465494 -12.7832535477037759 10.0783858519200678
17.5942596361984620 -12.5690742359310406 9.9678911964367032
17.5322148077251256 -12.3451740205783125 9.8627159863834439
17.4751378636389951 -12.1116253622480983 9.7635090038450958
17.4229640435238338 -11.8689632733367922 9.6712699418420733
17.3755655550632326 -11.6184943238450558 9.5872040100716447
17.3331013088951345 -11.3632107808691210 9.5123003760749469
17.2961576313902654 -11.1083581081694476 9.4471077829540899
17.2652051962977637 -10.8595944867225889 9.3915907321577716
17.2397418008832872 -10.6185746045876144 9.3448359152207061
17.2179421175878602 -10.3798942538808596 9.3049796749880755
17.1969427270519368 -10.1329906525314151 9.2697948344771604
17.1733079069496171 -9.8667567890813821 9.2375043398580932
17.1436615258598160 -9.5732032778366332 9.2071717834384010
