BEGIN_0
-29.2271966095955165 -23.2224590493740379 19.0428921928559305
-29.3686666862915438 -23.0892671462710908 18.8573084578455550
-29.5012060495698591 -22.9531869336313292 18.6632593747059374
-29.6241425662814670 -22.8137063278703565 18.4614849951953985
-29.7354176405135036 -22.6726367884521807 18.2556965381539520
-29.8342766825055037 -22.5322581934171353 18.0495800426996382
-29.9222204105330505 -22.3935747584728091 17.8447417804598061
-30.0021375920902500 -22.2557208163419560 17.6403871350564714
-30.0765565871166629 -22.1173615849879965 17.4354973762074437
-30.1464498304725197 -21.9788268461394765 17.2316216345521553
-30.2116710377209046 -21.8421755568725473 17.0324721956057417
-30.2722007584003308 -21.7091898770864802 16.8407668766096457
-30.3285490253766383 -21.5796229002204143 16.6559238974345334
-30.3807996592279252 -21.4507572071340462 16.4742449923038023
-30.4272444668951820 -21.3184230135411497 16.2912777316675239
-30.4647045049704275 -21.1795606821062989 16.1053332631388351
-30.4921498052599844 -21.0352843508088299 15.9203451086440388
-30.5154355029787325 -20.8914271682261514 15.7456514186545000
-30.5473998909191096 -20.7533392202031308 15.5900808555192683
-30.6006087137086453 -20.6183220728114094 15.4535226820990683
-30.6787613914825315 -20.4759650052887707 15.3266383407210220
-30.7755748706378256 -20.3167585922583847 15.1998962295385649
-30.8809224045655526 -20.1384301736281515 15.0712772371488857
-30.9864648279905168 -19.9455575423597899 14.9466415881541668
-31.0870373875247026 -19.7452712376536290 14.8353085049265783
-31.1799374892548187 -19.5424084492570280 14.7453880547508653
-31.2640758547451085 -19.3368382758739514 14.6813927000898641
-31.3388770184869543 -19.1250104797617837 14.6441309004299995
-31.4031522513831902 -18.9042294349235931 14.6316048376857690
-31.4546452080930905 -18.6745273053337932 14.6406297303372934
-31.4896908926533428 -18.4369433501544506 14.6693454780692925
-31.5030819144019603 -18.1925546889071263 14.7181396565457412
-31.4894453977222994 -17.9449268318888713 14.7865784209442008
-31.4461403201230212 -17.7022761913174271 14.8688604748116706
-31.3755533491614145 -17.4738889933837314 14.9532164481469056
-31.2846628267261195 -17.2632909503561258 15.0266042044565271
-31.1824879112111901 -17.0664352753987920 15.0796653917473353
-31.0774533194892513 -16.8756186885441508 15.1082303790636967
-30.9752111558464875 -16.6843291422128104 15.1126397037204256
-30.8774223082186907 -16.4898476342704789 15.0965211567632007
-30.7827805815976276 -16.2930293977969711 15.0649562577508469
-30.6896823870823496 -16.0963092210388758 15.0226701058499970
-30.5982383164987297 -15.9016587104460783 14.9732188181310661
-30.5103823450334843 -15.7092801973638423 14.9187897163248966
-30.4288253017663095 -15.5174062251674876 14.8601889495047068
-30.3562406517106780 -15.3233390361424426 14.7973496152360031
-30.2951015118755791 -15.1248998856860268 14.7302509742687739
-30.2474382024544397 -14.9210614987471821 14.6594541109196594
-30.2141697950950174 -14.7116462006612956 14.5859215943181386
-30.1948827758224994 -14.4970711155868379 14.5106028069996373
-30.1885241420765880 -14.2784474452320111 14.4342145568464915
-30.1942905159120727 -14.0574310212305100 14.3571764398401545
-30.2119551013791536 -13.8358066942221853 14.2795680999925629
-30.2415932528558784 -13.6154141846282783 14.2010177846583741
-30.2833311077882996 -13.3985703864115244 14.1203762726734983
-30.3378451963361542 -13.1883347220197820 14.0349951239116528
-30.4071782656811465 -12.9880575133072576 13.9398163139153226
-30.4939266749221503 -12.8009122006801626 13.8274402906863010
-30.5976694952901482 -12.6295884478952019 13.6904690956231683
-30.7111492373590593 -12.4744250489925861 13.5253787559584246
-30.8204464333096197 -12.3305324913738694 13.3350312832117108
-30.9101399506058243 -12.1874146081221824 13.1272572855295770
-30.9698427212198624 -12.0327277694186954 12.9106090093454888
-30.9975520977535197 -11.8587042533973310 12.6921284206042575
-30.9983829150140124 -11.6670573579568675 12.4787124184993132
-30.9804965906899525 -11.4667288404727152 12.2771742959634835
-30.9510529178186289 -11.2654731511858834 12.0909754545821766
-30.9142563215710737 -11.0647947538777984 11.9190912032805656
-30.8717435079664995 -10.8619059644897362 11.7584223059618509
-30.8239043650165883 -10.6536897073602823 11.6062232544646733
-30.7706935085708153 -10.4383242812425401 11.4610796049578454
-30.7118127048402556 -10.2150881808186966 11.3231473785278247
-30.6470270031113188 -9.9845569798379010 11.1939988057035116
-30.5768838898903468 -9.7496328022821039 11.0760265744894166
-30.5032022294989034 -9.5159444744918389 10.9715998753186543
-30.4285719192454849 -9.2899751790643315 10.8821549779908349
-30.3549330082336368 -9.0753127238000708 10.8073867518125688
-30.2824992327015394 -8.8703464608152238 10.7451955184627508
-30.2101299721000061 -8.6698487600694563 10.6927541983541055
-30.1365377806321888 -8.4682316646709062 10.6477774222057313
-30.0612003209084619 -8.2614999394067077 10.6090354705219507
-29.9846462187306599 -8.0478215361720444 10.5761140786936743
-29.9081054937998871 -7.8278232735542446 10.5488698599408437
-29.8324227334205787 -7.6045215746034280 10.5269698808536205
-29.7568296825966101 -7.3822757214614896 10.5097491529316613
-29.6788459343981827 -7.1652446953278179 10.4963547186898083
-29.5954479069838925 -6.9562986279613135 10.4859744463760762
-29.5042242514096991 -6.7566780508929227 10.4779789291561922
-29.4035201360162617 -6.5660306142856903 10.4719405239523802
-29.2917882710509687 -6.3824444273249838 10.4676011257208827
-29.1671639597579784 -6.2026495956212067 10.4648793627654779
-29.0282646747562509 -6.0229662426844079 10.4639587010926292
-28.8760116379594542 -5.8408840305231777 10.4653986977850728
-28.7144467057007517 -5.6559304191386737 10.4700877894655235
-28.5488381034351733 -5.4691561170711651 10.4788528715308225
-28.3824847313511022 -5.2825917140419776 10.4918229352061694
-28.2151924724468799 -5.0994862880345124 10.5079934613502743
-28.0445115113055365 -4.9242783445243390 10.5253366279196090
-27.8681160142968594 -4.7611652160421656 10.5413092240364268
-27.6853667146201268 -4.6118777141820377 10.5533787623779638
-27.4977691006264102 -4.4748354098298897 10.5594000782339776
-27.3086104603334121 -4.3464086931094776 10.5579194393667919
-27.1215306452565272 -4.2222948493052801 10.5482312747157714
-26.9392641926771681 -4.0977939004564430 10.5299491740516125
-26.7641579537789625 -3.9678739048541694 10.5023825345454984
-26.5997996144446276 -3.8279091084718022 10.4643881994960815
-26.4513670110988919 -3.6746994675918518 10.4149862083708307
-26.3238300721286222 -3.5071136190604726 10.3541414882541289
-26.2200540936509263 -3.3267265605899627 10.2831415459274140
-26.1405144264335441 -3.1384660491019023 10.2046407716032554
-26.0840928997588151 -2.9496647902630251 10.1220344599170442
-26.0487545695995557 -2.7663501227240346 10.0376604554065807
-26.0317232744323732 -2.5891012751523839 9.9508851464882309
-26.0295983116039409 -2.4131725508310193 9.8583190734849886
-26.0386987881503664 -2.2331536103323462 9.7561610453386258
-26.0552206875641268 -2.0464430926876993 9.6420376621490007
-26.0751713849890088 -1.8530280151637335 9.5154081398814760
-26.0946475998589058 -1.6536678274013035 9.3772997232125856
-26.1103971685298113 -1.4485144382487523 9.2297612576867873
-26.1201414953895394 -1.2370130826695434 9.0753814038769036
-26.1226085117964040 -1.0191422798212635 8.9173142692902285
-26.1174219697658678 -0.7967853546829939 8.7596272047077335
-26.1048707653221719 -0.5736069551230685 8.6071271711685018
-26.0855783663803180 -0.3537226961910296 8.4644524758993089
-26.0602496070076235 -0.1400067400635390 8.3347952337868989
-26.0294961834124479 0.0678477391045469 8.2186012612458299
-25.9937429534368505 0.2732472934296677 8.1139466757804755
-25.9532467681590120 0.4804900237320702 8.0183316170678385
-25.9081535859569208 0.6928791758709298 7.9299960673807481
-25.8585252845255269 0.9122915044288007 7.8482233541122772
-25.8043663142228468 1.1395223973982436 7.7731870970192798
-25.7457340578345679 1.3744614996917868 7.7056437233638624
-25.6829550771576898 1.6156725886901153 7.6465564501303804
-25.6168552218719832 1.8597060800324279 7.5968256395986176
-25.5487630793128808 2.1012617174015187 7.5571770441724651
-25.4799909053487532 2.3352420165422210 7.5280572999343445
-25.4108825579254258 2.5598705712926808 7.5095028643776010
-25.3401728876555588 2.7779509877595512 7.5011926175214354
-25.2654228983760163 2.9943893156700518 7.5027213989640664
-25.1843658613345305 3.2119507332723476 7.5137749405013468
-25.0960928252030904 3.4292317398145746 7.5340422889996841
-25.0012159272142362 3.6423866855452820 7.5630593861048467
-24.9012611512587156 3.8480525137969179 7.6001653618861100
-24.7979042167198322 4.0447425745040579 7.6445464298572867
-24.6923451786514860 4.2325783742035421 7.6953235516583911
-24.5849272584246243 4.4126420054711106 7.7517206425940506
-24.4749815969111637 4.5867028196721886 7.8132360871078372
-24.3610762605290461 4.7571206203272975 7.8795740005671995
-24.2419420223820339 4.9263539830156438 7.9501748147685598
-24.1176497982156341 5.0960070279117868 8.0235872195475633
-23.9898726996085401 5.2663735450644573 8.0972760712392713
-23.8609774656263660 5.4373011218274829 8.1681123164575560
-23.7334279822445104 5.6095681215095237 8.2330512937352918
-23.6104018035221053 5.7852441063932227 8.2893707664534979
-23.4966642780062465 5.9664091527053627 8.3343028292460488
-23.3984025349963431 6.1532138348323899 8.3644783333337038
-23.3220622660130914 6.3430555289095896 8.3758501791142059
-23.2728844978705034 6.5317705751169290 8.3643954889203460
-23.2532468060222541 6.7160825466648637 8.3273381504646125
-23.2614953249270968 6.8951475930769233 8.2642101959956875
-23.2925406242976543 7.0697533901623402 8.1770633617126833
-23.3396696242146469 7.2406759106712935 8.0698451777730469
-23.3959261199377764 7.4083067728634759 7.9475048826907324
-23.4546963234995687 7.5731758208268163 7.8152558017065674
-23.5100931887261915 7.7363228576896752 7.6779367862382664
-23.5574880176372403 7.8998167045786563 7.5393601867177162
-23.5940652953633787 8.0676044723004594 7.4019590513136029
-23.6189691521131557 8.2457162251300922 7.2669829075310615
-23.6327417181308199 8.4405571096181315 7.1353921264082150
-23.6364840907942906 8.6548341007354690 7.0096529420031670
-23.6313431395504949 8.8838961160320693 6.8950828788693403
-23.6183140156235893 9.1177555557109820 6.7981995582785482
-23.5980772598067183 9.3482655157188628 6.7229583352318958
-23.5709788100171345 9.5734415004667124 6.6692772156810474
-23.5373113838506924 9.7956061671938421 6.6347717075102413
-23.4977157649480617 10.0170108361924974 6.6170576571092905
-23.4532065709662731 10.2373640917574029 6.6147415863241310
-23.4046622216743359 10.4544084019272656 6.6272087638487811
-23.3522072744346900 10.6657612401457129 6.6539937298423180
-23.2949848192882101 10.8700398139297096 6.6942982416579078
-23.2314320476688785 11.0669146177307027 6.7469766020232695
-23.1598026061933062 11.2567674229982853 6.8109878728138753
-23.0787169221238493 11.4403727675487872 6.8858546790372461
-22.9876739287047229 11.6184633174614902 6.9715572993669905
-22.8872799244040941 11.7910603954384161 7.0677181168972814
-22.7788904768448504 11.9572197513105820 7.1726127689036607
-22.6638942345178656 12.1157989318646919 7.2828530532170541
-22.5432705174368699 12.2666809451456480 7.3940531251857600
-22.4177719834055189 12.4114992748290991 7.5017355480233752
-22.2886594213705358 12.5535183468924778 7.6015495539741513
-22.1583215893116865 12.6968966255390132 7.6890614940955544
-22.0301087338264168 12.8458119025344253 7.7596064366282373
-21.9078009120729931 13.0036977889726995 7.8081632031558250
-21.7956224154687774 13.1722395915837360 7.8295274978325340
-21.6983092468362138 13.3502731556845209 7.8194420206538471
-21.6201709327634397 13.5334519109672513 7.7764496761095181
-21.5634934534591345 13.7153258178659883 7.7030809835014376
-21.5275520854654019 13.8898268040115465 7.6050973628401159
-21.5089864483686668 14.0541146043290723 7.4888187806136184
-21.5030815792279633 14.2100571959539064 7.3580948615487598
-21.5048517789290230 14.3632789912893664 7.2131588718942155
-21.5094622224072083 14.5204175783753353 7.0523087058893035
-21.5124628059069707 14.6862216199182463 6.8751459714200358
-21.5102692440755128 14.8608560603359727 6.6859897637871128
-21.5005906193721579 15.0388201977330951 6.4951263780331914
-21.4823169292325318 15.2125827825582896 6.3147058290173348
-21.4549664534243831 15.3788797519775198 6.1519657897142448
-21.4183414042718496 15.5405618585609364 6.0074265059899101
-21.3724210150902856 15.7032952532600376 5.8782419035648967
-21.3170112535640932 15.8719661186255117 5.7616984928717834
-21.2513744578379331 16.0494277404250667 5.6567952947689211
-21.1744562445824087 16.2368618433120773 5.5644238179784580
-21.0856745950364584 16.4343977346441150 5.4865424722863700
-20.9855729864327145 16.6413141826549236 5.4248309387646998
-20.8758477927063026 16.8557770396740949 5.3798838058129324
-20.7588719710358767 17.0745495819293822 5.3513692836115077
-20.6370720383143080 17.2932511749907860 5.3384999167759446
-20.5124906980377411 17.5073557854244584 5.3402367806895459
-20.3867378239411572 17.7134218394403824 5.3552852581658765
-20.2611385587900443 17.9097798426527390 5.3821468947524487
-20.1366264335432881 18.0963915906348660 5.4193669393385964
-20.0134114155765950 18.2743390232477552 5.4658680259515027
-19.8909048279852207 18.4455968454102788 5.5211330915411292
-19.7680548257504967 18.6129557225670297 5.5851113458699864
-19.6438874530014758 18.7792180496747072 5.6577314827752243
-19.5181031976121950 18.9456692202843620 5.7381044665193564
-19.3914101293160002 19.1114670018309027 5.8240770315010852
-19.2651427641088802 19.2749850125586271 5.9126852843068356
-19.1405426903381723 19.4357964657459981 6.0010321513054716
-19.0184275405955212 19.5955418305512197 6.0867208552075915
-18.8993397403722874 19.7571636030129767 6.1674183832803191
-18.7837087110025607 19.9231980861412126 6.2397555020289239
-18.6718874187392565 20.0946411772783975 6.2984102134966786
-18.5647150742484577 20.2712945337569010 6.3363318605637389
-18.4645843745280587 20.4523405973407790 6.3462482416429769
-18.3752009415403492 20.6356849430256446 6.3227430931403088
-18.2993935641485805 20.8172987593021297 6.2639295954469496
-18.2372121636084437 20.9926388140527749 6.1719138300050602
-18.1863777312041961 21.1589737080242841 6.0516578996607429
-18.1441137349907997 21.3158451567658531 5.9090213050463127
-18.1080475510364103 21.4636269639561625 5.7496253273321365
-18.0758030551784259 21.6024826106754979 5.5786478432265767
-18.0445353727958882 21.7328685712593526 5.4004014667429523
-18.0112076418405067 21.8564137001925829 5.2178086159630190
-17.9732958355651604 21.9758054612868250 5.0327197226698246
-17.9292332742279221 22.0939463102786320 4.8466067143098481
-17.8782663392874781 22.2133099373558593 4.6608552665748864
-17.8199094637822988 22.3358696281886608 4.4768633813250158
-17.7534824985915414 22.4633671046829555 4.2964030231113579
-17.6781877534711995 22.5975118435795750 4.1218979745701301
-17.5936042700937030 22.7398338543687295 3.9560171742792107
-17.4999589703608898 22.8913436578995757 3.8010023246044717
-17.3979295955918083 23.0522056617095856 3.6586001766073970
-17.2884223706706521 23.2212316478017549 3.5305454302534436
-17.1726643827208321 23.3955049693620154 3.4188017074098109
-17.0520838114678313 23.5712481627358557 3.3250172737689390
-16.9274090918451137 23.7460524416824335 3.2495678660581078
-16.7977825992310059 23.9204007213077716 3.1912723323331278
-16.6611622432450979 24.0966265298077218 3.1482350420141145
-16.5158041048720143 24.2763590911839273 3.1189120792131515
-16.3616547564188011 24.4587304332698174 3.1025285443537545
-16.2005766851909065 24.6403721007258554 3.0988915344334380
-16.0352846830967586 24.8167716303865511 3.1079936152665244
-15.8681413760811445 24.9839448982256016 3.1296714761806488
-15.7007340587450557 25.1394606334232371 3.1634553359132926
-15.5340010815581415 25.2824755099045575 3.2086216994373764
-15.3683971703678104 25.4132186195604852 3.2643519995830861
-15.2039210885758216 25.5325489673311168 3.3299313507305222
-15.0399101087265592 25.6417765445857881 3.4050481398046255
-14.8746434183833500 25.7426129684307909 3.4901958941990827
-14.7052549624435152 25.8369935752789814 3.5868160221759382
-14.5287518846603341 25.9265700799656500 3.6966047072574266
-14.3439338649640256 26.0119819851265675 3.8200808423403672
-14.1524300970859507 26.0926632371511680 3.9556683071056238
-13.9575824018559622 26.1675940302222756 4.1002542780986921
-13.7625018550246345 26.2362055082526027 4.2504289452292134
-13.5691238397570491 26.2987622181326302 4.4032337114874700
-13.3784243002640473 26.3563278038081918 4.5562389023592385
-13.1910003034850742 26.4106487845589335 4.7073699853744753
-13.0074471938054614 26.4640723193963154 4.8547793630689924
-12.8283177035215061 26.5193474926664479 4.9967955373641129
-12.6536104617605503 26.5791425059409612 5.1318635124255430
-12.4820970046795399 26.6455007817715881 5.2583846436152566
-12.3113196600555543 26.7197578147895314 5.3743714724620624
-12.1388800968191788 26.8028758343860041 5.4769023318809751
-11.9642007738546621 26.8954570147262402 5.5617486858776370
-11.7888551246289168 26.9973558299435368 5.6239889002486105
-11.6150279882519794 27.1076732795965079 5.6597756814763507
-11.4440847411579565 27.2251543610367435 5.6680004070606316
-11.2765054012404189 27.3482831586831985 5.6506684384103938
-11.1122643495267752 27.4750782403536462 5.6120623553064330
-10.9507732241655908 27.6032333952152769 5.5574153073110946
-10.7906844501894543 27.7307472170467584 5.4917571158766165
-10.6301331226415883 27.8565122047976388 5.4193266528461486
-10.4674740243038862 27.9803929726508187 5.3436389444439669
-10.3020569509162208 28.1027587668369350 5.2679215129256090
-10.1341529693405565 28.2240329559130458 5.1951427779952812
-9.9639032888137589 28.3445639951904553 5.1274193203967222
-9.7906667218410188 28.4643139596771917 5.0658693747213626
-9.6137422500086718 28.5822315688108510 5.0114332805326569
-9.4331669782870335 28.6963384378302102 4.9655586581677209
-9.2491099791205116 28.8050026363410083 4.9299298252634109
-9.0608611502764127 28.9079736346969725 4.9060588101840192
-8.8673697752499709 29.0057708932698723 4.8955125729815645
-8.6687673433059516 29.0984356892686584 4.9001011350057961
-8.4667649134645568 29.1853649363846870 4.9214656273249400
-8.2636861493549674 29.2659313414661355 4.9605444687004834
-8.0617654983417335 29.3393827310948865 5.0172817077908913
-7.8631200525155034 29.4042828573409594 5.0905144591768305
-7.6694657325300835 29.4589418435294981 5.1780903303612487
-7.4815264069825869 29.5026584327907422 5.2772332167246994
-7.2986802795927392 29.5363864164600933 5.3849780126379923
-7.1190427672746566 29.5622005826198091 5.4983569142053010
-6.9400161204066357 29.5820930434434644 5.6140234097592270
-6.7591482919440526 29.5970823877394338 5.7273940512437189
-6.5746925030957968 29.6072432773593945 5.8319832138643175
-6.3856147725742023 29.6124248216784238 5.9195266798071398
-6.1917331932818271 29.6129256266088845 5.9809115116679532
-5.9942172326967125 29.6095429743935838 6.0079686096424325
-5.7958348878900132 29.6030016958218667 5.9959051394597687
-5.6004735452964933 29.5933981639255954 5.9450069187819494
-5.4117888980089068 29.5802007489010705 5.8601567085037463
-5.2316417378647042 29.5627293905731072 5.7485941532854579
-5.0596339932380525 29.5407334533544592 5.6178899896687806
-4.8940799248951645 29.5147068142849847 5.4752258631024660
-4.7329876846980907 29.4857140037795915 5.3271339966060633
-4.5739225983819392 29.4548664640929694 5.1787559705614452
-4.4136072780273432 29.4228456838264734 5.0332341317012048
-4.2484857330312344 29.3898608151909073 4.8922130303963787
-4.0758068177119000 29.3560747140742713 4.7569560905564661
-3.8942345691302407 29.3220828247766505 4.6291174393301926
-3.7039528330006082 29.2889818259456369 4.5109847863053254
-3.5065112303555637 29.2580290602631301 4.4053059065231270
-3.3040212718840083 29.2302044455068852 4.3146419045232207
-3.0976143582993823 29.2059001612276035 4.2405353808502095
-2.8865824847344195 29.1848859084895196 4.1832571111039378
-2.6695557488218951 29.1665734881479928 4.1424728010570337
-2.4466343290342163 29.1503784837373843 4.1181388469305169
-2.2203961301843371 29.1359583902225303 4.1108488500943281
-1.9949424709425951 29.1232201996891504 4.1216135112225256
-1.7738141796630531 29.1121432726687495 4.1515904478475871
-1.5585344368366290 29.1026680649931180 4.2020290255615134
-1.3490775678873090 29.0948179796972930 4.2740591647353252
-1.1457709183863525 29.0888758931424576 4.3680097191938891
-0.9504672612365548 29.0853631016499108 4.4827481515217578
-0.7656485788282774 29.0847930726676154 4.6157461869121974
-0.5927859354018388 29.0873471920536275 4.7637039987006133
-0.4316805852445240 29.0926481182215468 4.9231204985048613
-0.2809049959620000 29.0997980913823397 5.0905669816002455
-0.1384835770648909 29.1077275315330901 5.2628308935201904
-0.0021834759510737 29.1155590377526927 5.4371324979987232
0.1306365703586239 29.1226997376045276 5.6113328664759852
0.2633124417837176 29.1287768638248359 5.7837175516044361
0.3998096894024501 29.1337377280146299 5.9520236083421256
0.5440914522276825 29.1381863077777510 6.1121717131744724
0.6993874828233122 29.1436286283940689 6.2578563048984339
0.8676370147728689 29.1522875466307525 6.3814958472071588
1.0487283649730248 29.1665299426334066 6.4760065037673584
1.2400997062778860 29.1880468011994552 6.5369774598378427
1.4378007002790687 29.2170295581947492 6.5644645620017474
1.6383609994129464 29.2518621134422609 6.5629718620554698
1.8399193483038563 29.2896228990213316 6.5394982381982150
2.0423134565012968 29.3270155832982127 6.5011999092321791
2.2465677245824858 29.3609175507859881 6.4540239341572772
2.4538786442635203 29.3881651212005082 6.4025408086373865
2.6645158791207897 29.4051751689754788 6.3504095267979963
2.8773478670377903 29.4082923493585469 6.3008037841168658
3.0903765296626009 29.3950732876933856 6.2564792149078894
3.3019260804467843 29.3656506004460383 6.2196060845521473
3.5113220003337218 29.3230013747051750 6.1917814523161852
3.7183945573218855 29.2715755500360508 6.1744204957046271
3.9227081715671481 29.2150502400084839 6.1691589340080135
4.1233993689794906 29.1550312781990577 6.1778214392024466
4.3195023928718470 29.0915100987863475 6.2019867050161146
4.5102819758371577 29.0239724530507814 6.2424972877653744
4.6951876644436608 28.9520844458808106 6.2990926290473777
4.8738379081459655 28.8757366678719372 6.3700330540117811
5.0464828393111905 28.7948839795550526 6.4517068707551744
5.2145007025765491 28.7097272017971932 6.5385173557725143
5.3804531756626268 28.6212759885239691 6.6230596609923129
5.5477007928327415 28.5319147172546259 6.6965056393708178
5.7194863183777249 28.4454936755483168 6.7494261032573633
5.8976701232833442 28.3666452811514738 6.7730280150529198
6.0817571033348292 28.2995467709067832 6.7608796692472550
6.2689251812413946 28.2466739811781338 6.7107761795149088
6.4551940686401954 28.2080274235632622 6.6253688246562632
6.6370163310036823 28.1810981612419660 6.5106745222598601
6.8125171453066748 28.1616671992767102 6.3736046872915608
6.9818006840808557 28.1453871932497286 6.2205644201982420
7.1460782053484859 28.1296183934487019 6.0577374732511728
7.3064150942971402 28.1142351782079380 5.8915212453736139
7.4632318094513730 28.1004315404739273 5.7277102124430410
7.6169172560979064 28.0885092603443667 5.5699611307197330
7.7686184397106803 28.0767663738266400 5.4192259630463937
7.9201019740434768 28.0621647546012163 5.2748893012968701
8.0730226031243930 28.0415695077616931 5.1363889758718333
8.2284899480520117 28.0124021871940840 5.0040051898011377
8.3871208686155434 27.9726359627082601 4.8787836010651358
8.5492678134893829 27.9205759551458996 4.7621838609862426
8.7152019876251465 27.8547446360753170 4.6558158840478754
8.8852361218572362 27.7740193294974667 4.5612962417205427
9.0598332588501407 27.6781537296272191 4.4801419376975886
9.2396646195744569 27.5687348867412929 4.4136512745139154
9.4254355289765570 27.4501418498174594 4.3628243073951456
9.6173470589417658 27.3293354873007104 4.3284742085504817
9.8145427157191971 27.2135238797769432 4.3115957909623148
10.0152215790510137 27.1068491050124720 4.3137024216860862
10.2172409630196466 27.0090966816031681 4.3366082340893595
10.4181373427427211 26.9176465217241585 4.3815351252867227
10.6147884218077131 26.8302800581689453 4.4481691698568877
10.8039920305119814 26.7462032704040737 4.5345007035063958
10.9835163019305071 26.6654497029753514 4.6376109411572308
11.1524008627211870 26.5881225119393818 4.7546273891246162
11.3106601115333127 26.5140312177825024 4.8829440311340200
11.4591813787780321 26.4425389677323892 5.0199538846748641
11.5998195252525562 26.3724994843347922 5.1631568917428616
11.7352846472315857 26.3023106838090435 5.3103948186912326
11.8686868394843490 26.2302001522670309 5.4593176337155800
12.0029955476544021 26.1547140513720109 5.6062175670927115
12.1409855428285010 26.0750389995202454 5.7453710457336360
12.2856318961770015 25.9909409656439863 5.8695143462257047
12.4398491669444624 25.9027066993602837 5.9707912990136656
12.6051209367765207 25.8113686391603316 6.0416863889846244
12.7800252544630197 25.7189107794003711 6.0764154801503452
12.9602083485048780 25.6278938339440430 6.0725754599695208
13.1405121165574510 25.5404135691409806 6.0318089414765161
13.3174962507530079 25.4573781190907269 5.9589578729515917
13.4898797256882794 25.3788860789988391 5.8606620311929021
13.6572657289904615 25.3050038152841168 5.7442183995969867
13.8193946790348576 25.2359611980084821 5.6165568233345198
13.9767568885492857 25.1716859505453101 5.4830261167024990
14.1311397606867217 25.1112153971494436 5.3466164225706567
14.2848651037835843 25.0525167313469765 5.2084751263511997
14.4396182286390129 24.9928563577585301 5.0691650936694330
14.5960940899796956 24.9294337060958284 4.9295436049854260
14.7543673669697757 24.8598345818509401 4.7909516302584088
14.9143218293392241 24.7821178450401405 4.6550581143407896
15.0758458033185434 24.6946777238743778 4.5236841568629202
15.2388573039949300 24.5960956573654421 4.3987056306678713
15.4032608710233827 24.4851098047085998 4.2820158808958979
15.5688506198250689 24.3607952163802395 4.1755139977301940
15.7351270074569101 24.2230687816314827 4.0810866240575177
15.9010837309110720 24.0734817107583510 4.0005301139341007
16.0652653650140564 23.9157128570941566 3.9353348010338571
16.2264535589369672 23.7546932291253832 3.8863272919268468
16.3846199126905816 23.5942056486061276 3.8534066174998607
16.5408649847075822 23.4349895684564089 3.8357389561380746
16.6959336123913928 23.2754745501385969 3.8323801945803897
16.8489450122094411 23.1141295520423569 3.8428065581133897
16.9976931808969418 22.9508285708611091 3.8670726705718508
17.1400265598117905 22.7862482073502690 3.9057263423451243
17.2749855808968107 22.6203692945242807 3.9595834484402115
17.4029312082619825 22.4518076696718261 4.0293952972286071
17.5248517361818337 22.2789815277256764 4.1154881923352349
17.6413457744238436 22.1022095621485803 4.2174851530803821
17.7519563794525084 21.9244053271706782 4.3343576429945259
17.8553890093639041 21.7494045784768026 4.4649136658780861
17.9500843137861601 21.5797791560318473 4.6080630694434461
18.0345883841108545 21.4160982396239348 4.7623673077484909
18.1078703409213446 21.2576104668279555 4.9253620759893817
18.1697829003079008 21.1032630842806483 5.0934314262827094
18.2214286337411941 20.9522420729237453 5.2625382051927421
18.2650227823887548 20.8039001865460307 5.4293730601269097
18.3032137454729842 20.6574071079632375 5.5921446845062448
18.3384521554354833 20.5114081665017807 5.7506462979670712
18.3730067524830361 20.3638773884144513 5.9055281129592849
18.4094110503040014 20.2125666416145400 6.0568602958797708
18.4506731573457330 20.0560956447670442 6.2026610912294835
18.4999899481841759 19.8946255610919565 6.3387022068131742
18.5603453709270418 19.7292471746540059 6.4598695822644139
18.6343108810783527 19.5610615987366181 6.5615702619954703
18.7237422724474776 19.3912684040943688 6.6401303565131009
18.8291714057908308 19.2218997792836035 6.6926710232359543
18.9494268195162263 19.0556930121048644 6.7173173609589991
19.0818240551409630 18.8948210739410882 6.7137547897402783
19.2225059310637576 18.7399337316067935 6.6834830284176761
19.3669730866756495 18.5901395997703318 6.6295417912031027
19.5111880966031102 18.4433278625186361 6.5559685306417954
19.6525404527274574 18.2966843022637775 6.4673412644449808
19.7895624592555706 18.1477148615348085 6.3686758785134163
19.9209621481774484 17.9952863610054763 6.2652846929412647
20.0453530599167706 17.8397142580571995 6.1620066367600614
20.1620463391255313 17.6816493596865563 6.0622179322607685
20.2719021421112835 17.5208221974358551 5.9675270993851246
20.3771100528055520 17.3558090973854533 5.8783359662154115
20.4800502129368347 17.1846138010394824 5.7947273136280071
20.5822985016154583 17.0053651343498231 5.7172967344524555
20.6844131022676123 16.8169625221000985 5.6475304894224543
20.7862357765809627 16.6197115780119020 5.5874015826868675
20.8870599682086464 16.4157135325520294 5.5385612219261766
20.9855175999045152 16.2086485003370626 5.5018412738934899
21.0798524357098742 16.0026042860606097 5.4772342739894739
21.1689538969658528 15.8000781315249519 5.4641385088731305
21.2530669726971126 15.6007110740357327 5.4617783726090945
21.3331099755849642 15.4022424595376961 5.4696639015689996
21.4095766371075449 15.2024640894988110 5.4877800500981024
21.4823388321919069 15.0001310237413499 5.5164420352064365
21.5510507801275217 14.7949512014141291 5.5560191257858094
21.6151861458887744 14.5878847671458267 5.6065880801567545
21.6737401890442527 14.3812543377026962 5.6676245051672911
21.7253799733106767 14.1775711789370877 5.7380281507540651
21.7692019180329162 13.9779714634185162 5.8165420618186339
21.8055024303677136 13.7817673526426852 5.9021988160123620
21.8358698953012578 13.5873721183566420 5.9942451208320691
21.8625121509033811 13.3936808621744898 6.0914426602993430
21.8876008778929929 13.2005255876458900 6.1914950309054930
21.9133669104008106 13.0078081671993218 6.2912159675371182
21.9427473126185220 12.8147846522735236 6.3868921399924261
21.9796771029018743 12.6206768989676483 6.4741182553528773
22.0283767033742066 12.4258630905854410 6.5473898020449486
22.0918632953719865 12.2323259712122514 6.6003367856361912
22.1706128699492631 12.0429860768265939 6.6269973858790969
22.2623949175070095 11.8602702559179818 6.6235898494232792
22.3634482034216262 11.6849835674729903 6.5895498088945939
22.4700602713625450 11.5165372104620172 6.5272400456679360
22.5794831428109468 11.3541561207281951 6.4410259643236767
22.6899257145931905 11.1975376005825975 6.3364716673386834
22.8001914594043598 11.0461405302716837 6.2195473046142435
22.9095834919695562 10.8979232500522709 6.0956373826953456
23.0179375904670032 10.7491482524453890 5.9688045038174984
23.1253237237982745 10.5957606431616611 5.8419566072663756
23.2315881348496731 10.4350278526464155 5.7176942027063085
23.3360872045395134 10.2663391506588884 5.5989193846857290
23.4376870768749264 10.0910655155909748 5.4887192766610955
23.5351735841881471 9.9114186100119142 5.3897521380090438
23.6279764751595600 9.7285246736489235 5.3036402355129812
23.7164908990134577 9.5411877776173544 5.2309170915280365
23.8015639454663095 9.3466193797835100 5.1715987348861674
23.8837389845917301 9.1421509668638485 5.1257138219861496
23.9628986110313988 8.9263924701128943 5.0934179055643654
24.0382663113586368 8.6996300358211016 5.0749262879798227
24.1084919809109017 8.4639544512273570 5.0704238155673167
24.1718400810384644 8.2231854500418162 5.0798701872715899
24.2266076971549147 7.9821876913141026 5.1027872643761238
24.2716263319003929 7.7455659960951113 5.1382656866471841
24.3065740467801312 7.5165222403451484 5.1851884750353747
24.3319358731630899 7.2965812238257124 5.2424351398085296
24.3486614584453669 7.0860783677716555 5.3089026354150981
24.3577776925294849 6.8848619671806786 5.3833959949153254
24.3601540959156466 6.6927001886227435 5.4646045399675796
24.3563450760828246 6.5089537100186687 5.5514278192459301
24.3464056353861125 6.3314801573141626 5.6437096299598668
24.3298543747400267 6.1559547273335333 5.7427304149491789
24.3059939170408548 5.9774601460952157 5.8503242464092580
24.2744568945411423 5.7937354859141585 5.9668659635324222
24.2355188269967847 5.6064635477258431 6.0902172737731437
24.1900013660010735 5.4192367566972841 6.2165062733857308
24.1391390292096197 5.2345592916759252 6.3414212844851416
24.0847631528835251 5.0517685645091701 6.4609867260515248
24.0299069672566539 4.8658123882627509 6.5719922237730106
23.9798567136723051 4.6673884474555143 6.6722580505542535
23.9429388126704588 4.4466523443809987 6.7607160510984103
23.9291405943673894 4.2010703483180150 6.8375493404496703
23.9457144395024848 3.9415883347036118 6.9041516843801505
23.9928769947535159 3.6879571657983075 6.9625989111207023
24.0641690822428131 3.4550430620583823 7.0151003071342330
24.1511833785277830 3.2449843015081559 7.0637372927151443
24.2476757017929820 3.0511807318771318 7.1102330920857009
24.3504053684462711 2.8659165152394106 7.1557485599718982
24.4580497613592946 2.6841670711532810 7.2008929425195500
24.5700815618419348 2.5035342540363725 7.2459094281825180
24.6862046690929233 2.3230258454784725 7.2908654825981358
24.8061701648233779 2.1421802563470305 7.3357647155818970
24.9297352561024219 1.9606886380151742 7.3805926406684979
25.0566573774386754 1.7782769240726939 7.4253306952959166
25.1866938585136495 1.5946774391757543 7.4699595790244047
25.3196019996887536 1.4096234657382958 7.5144598835806224
25.4551390970358717 1.2228484037906480 7.5588121879975372
25.5930624462350380 1.0340856651993242 7.6029970701175325
25.7331293429486685 0.8430686628025423 7.6469951076962737
25.8750970828400284 0.6495308095029753 7.6907868784848201
26.0187229615726316 0.4532055182067118 7.7343529602340704
26.1637642748100419 0.2538262018199582 7.7776739306949327
26.3099783182157942 0.0511262732489435 7.8207303676183120
26.4571223874534205 -0.1551608546001138 7.8635028487551129
26.6049537781864558 -0.3653017688209896 7.9059719518562419
26.7532297860784674 -0.5795630565074621 7.9481182546726057
26.9017077067929833 -0.7982113047533090 7.9899223349551090
27.0501448359935388 -1.0215131006523102 8.0313647704546582
27.1982984693436869 -1.2497350312982398 8.0724261389221574
27.3459259025069805 -1.4831436837848777 8.1130870181085157
27.4927844311469478 -1.7220056452060053 8.1533279857646406
27.6386313509271275 -1.9665875026553969 8.1931296196414358
27.7832239575111188 -2.2171558432268146 8.2324724974898160
27.9263195465632350 -2.4739772540136844 8.2713371970608520
28.0676754137587068 -2.7373183221045441 8.3097042961079275
28.2070488549086633 -3.0074456345272527 8.3475543724131214
28.3441971672421076 -3.2846257776775971 8.3848680040572869
28.4788776604548701 -3.5691253323871397 8.4216257717421179
28.6108477367782150 -3.8612108379259649 8.4578082755813551
28.7398653779536311 -4.1611485693675583 8.4933962370509501
28.8656916178952798 -4.4692033688107546 8.5283710162958002
28.9881009222396031 -4.7856334276899624 8.5627167868136169
29.1069166040286902 -5.1106704298552685 8.5964280009661227
29.2221061222628897 -5.4444549632531682 8.6295298182811422
29.3339712029619086 -5.7868571078844653 8.6621207427341069
29.4433841722037286 -6.1370564789248796 8.6944341884864222
29.5518113486207525 -6.4927500960462332 8.7268814714801444
29.6607152735927393 -6.8490907760142079 8.7600141377431022
29.7703161451178921 -7.1981245967809322 8.7944014548139755
29.8786767815468508 -7.5301358858450982 8.8305518549008220
29.9824066676067353 -7.8373877508805307 8.8690148580202646
30.0787353599086416 -8.1178424896869288 8.9105575753662940
30.1669497316622426 -8.3752852980181345 8.9561497546940405
30.2480016507860050 -8.6159350195249083 9.0067351412916352
30.3232231730971868 -8.8451198967484892 9.0630288958822440
30.3934838405564207 -9.0661998149943805 9.1254763440192956
30.4590394799004756 -9.2810306543895464 9.1943178643523531
30.5196894239210650 -9.4905679422996876 9.2696791302464323
30.5750222582111206 -9.6951066195831750 9.3516230732759169
30.6247008387782671 -9.8944093122119519 9.4401259627291196
30.6687105161196634 -10.0879843815294130 9.5350326980371936
30.7074048141934526 -10.2754554943395178 9.6360642991374874
30.7413075593044489 -10.4567831392215922 9.7428790522398572
30.7708957366421139 -10.6322453156100103 9.8551885781494697
30.7965049329896736 -10.8023589454560600 9.9729499706630627
30.8182563993891101 -10.9679225425881874 10.0965905267919247
30.8359909561342178 -11.1301873736507915 10.2272105585579087
30.8493835414848441 -11.2910584096399980 10.3667167014304518
30.8582393552152645 -11.4528507736020515 10.5174576885952149
30.8626505807900919 -11.6167571441735156 10.6806017622822775
30.8627954006302900 -11.7805402088422966 10.8538761292734502
30.8586007413166570 -11.9384900122325561 11.0316051555228984
30.8496220091008446 -12.0852306794972755 11.2083155626421203
30.8352187111545106 -12.2194750043466485 11.3820245739628909
30.8147601984324915 -12.3436921078438608 11.5538109996477409
30.7875407849924017 -12.4612305684694746 11.7256619700694245
30.7524576536007324 -12.5744495921393415 11.8994049472798977
30.7079263698204201 -12.6848565301647582 12.0764007349577014
30.6524629149384502 -12.7939498628525214 12.2566404799671922
30.5857467020126066 -12.9034832699142221 12.4376759682647702
30.5092242156830089 -13.0152521216827672 12.6150131707902595
30.4252959883392791 -13.1311551533609645 12.7842891277853479
30.3355902884549913 -13.2534293525461742 12.9436272979623332
30.2401337952949305 -13.3844408958349312 13.0942545071978120
30.1386811505844214 -13.5259441615824798 13.2387992694370240
30.0333337835160492 -13.6781965223536268 13.3787142614371817
29.9297127706883686 -13.8397084005305118 13.5133928795678671
29.8351575428952067 -14.0081619373726802 13.6420249248822731
29.7557195717678376 -14.1818316984398152 13.7660750393628728
29.6945971325013964 -14.3604503067110514 13.8898218768758994
29.6528977346892795 -14.5444918695711394 14.0183979033647397
29.6315807777883222 -14.7325888353735692 14.1543743193491256
29.6327565383758262 -14.9194441562063318 14.2953975597150951
29.6590258176524628 -15.0979010178923332 14.4356605386331172
29.7110464258531728 -15.2640141327858849 14.5701178055946201
29.7854273410587744 -15.4193084753121425 14.6967264386054524
29.8750025327929798 -15.5690335145779102 14.8154754976402430
29.9710426918696662 -15.7196139456503197 14.9267287350821274
30.0654352761620096 -15.8770089143264990 15.0310165094402759
30.1516465011718289 -16.0456622477296058 15.1302675977922743
30.2243677907016135 -16.2279522417392705 15.2283725676974324
30.2783669365515422 -16.4241398883442820 15.3289466256464664
30.3078597590019214 -16.6323832998568477 15.4314589838473424
30.3076593246207402 -16.8490106280012562 15.5299685027029319
30.2758526233991958 -17.0696877530300704 15.6169398042345904
30.2165382869137495 -17.2905255846887620 15.6895325829560335
30.1409984053063766 -17.5083003698348953 15.7536007131716271
30.0657270001124779 -17.7202794657895559 15.8228827871648292
30.0073309282541487 -17.9232981628083117 15.9135723193158167
29.9765098535293717 -18.1127152346364220 16.0363122542622243
29.9746483430767441 -18.2838890501650475 16.1911834619176567
29.9954704058231840 -18.4353588423755816 16.3702223804410671
30.0294270145405271 -18.5695690464467162 16.5637671908584032
30.0666181900124201 -18.6909070345800110 16.7640860323410443
30.0977843180434448 -18.8037621610291765 16.9651738359080539
30.1153087347632393 -18.9121813996720007 17.1626621063622338
30.1145803377129369 -19.0201902847431263 17.3551956048577516
30.0944600926649990 -19.1309668445185608 17.5441410089901133
30.0562744112033045 -19.2456010600133887 17.7309561651251251
30.0023086319212346 -19.3637562681627280 17.9162567213152855
29.9351523923783915 -19.4849819365750641 18.1005159998305203
29.8578938506825615 -19.6086920062272974 18.2841689921852719
29.7738742283244093 -19.7334041695183302 18.4671907178684016
29.6855181842725173 -19.8569975349855028 18.6491060295063882
29.5933303976438360 -19.9781723858192990 18.8293902961776709
29.4960731977083803 -20.0973494184731436 19.0077675165687481
29.3921404873331156 -20.2160059174743694 19.1839221601942498
29.2808374655224277 -20.3353889848975875 19.3571393574544039
29.1624062135391817 -20.4557950923606917 19.5266324373035864
29.0373778900123227 -20.5766815944081785 19.6918427228904847
28.9061025113820342 -20.6976150432040029 19.8522852744568681
28.7688849251010197 -20.8189810106468940 20.0074757073215608
28.6266154516292666 -20.9416213524562309 20.1572592266742596
28.4810155720342983 -21.0661694617475916 20.3019152892064021
28.3334358839094804 -21.1933005573280582 20.4415501746491444
28.1830090326409355 -21.3242571128530543 20.5751125263144132
28.0263696730427760 -21.4601189167434399 20.6992578850613036
27.8591802680774840 -21.6006851594836533 20.8082502992181055
27.6785448142713904 -21.7444763355971702 20.8959065291048418
27.4854543925554502 -21.8892164722909754 20.9578354827242421
27.2842697716720721 -22.0327738282160013 20.9924764426728458
27.0791425631765108 -22.1741938303570976 21.0008026645226451
26.8720772332658129 -22.3135957279651933 20.9850612853360126
26.6642744808038579 -22.4510243002752148 20.9477258621094471
26.4574719121237010 -22.5856061505611478 20.8914586253418619
26.2536406201221588 -22.7158287235101000 20.8196299578495783
26.0549441298798250 -22.8401781995131543 20.7363374517300443
25.8635976597405062 -22.9576637599253814 20.6448528624498415
25.6807605858698551 -23.0683327929166424 20.5455145926819682
25.5060564530454528 -23.1738458181374014 20.4362939563967565
25.3375558383321788 -23.2777925148903222 20.3168870216593760
25.1709796215977057 -23.3848439938977890 20.1920761770939130
25.0000922236802054 -23.4985324139325442 20.0714990619962919
24.8198422044307137 -23.6193428850233147 19.9670041438076851
24.6288886977708472 -23.7455936719888783 19.8884399137188410
24.4290190828983960 -23.8761484889561473 19.8395186582054528
24.2231190046158105 -24.0116427456358394 19.8163643083162739
24.0148092957466943 -24.1524592409311012 19.8103197146925680
23.8089726508684016 -24.2961051528840528 19.8134485620515797
23.6096408584211659 -24.4383108773991466 19.8224654818756925
23.4168197394938602 -24.5767496990814465 19.8380590412841471
23.2270594155832413 -24.7123414680398170 19.8608350668555573
23.0371047581304786 -24.8471969193655156 19.8873987128912084
22.8451381702055194 -24.9828357267425716 19.9090639020331821
22.6503370511396547 -25.1197458381483116 19.9135419948724035
22.4547272902684760 -25.2566161998615968 19.8887043653798372
22.2650020815796132 -25.3896239441879814 19.8270100306652068
22.0896736240846536 -25.5135111553675245 19.7283437804581041
21.9341547978637941 -25.6237293418862464 19.5988991332549816
21.7991652678608929 -25.7179347257601165 19.4465698501876041
21.6829324826332588 -25.7960617497316633 19.2769723847431393
21.5836431226791703 -25.8591369452280659 19.0933676820553657
21.4998355724096903 -25.9084082488923357 18.8987965301897987
21.4296553779738836 -25.9455047432701349 18.6971985185014518
21.3705625605610940 -25.9723635119895562 18.4926742802794095
21.3196623841453388 -25.9905259418008825 18.2874119693800772
21.2745892820662590 -26.0006412341349318 18.0803445574360460
21.2345745194020274 -26.0025387544506472 17.8685646641432427
21.2004922258639965 -25.9957330212546793 17.6504859814120607
21.1735396776373577 -25.9800287673789967 17.4278265972999051
21.1538717869958326 -25.9555833572213288 17.2037022273989280
21.1405145941601020 -25.9222213308298493 16.9785283749035756
21.1320826437328080 -25.8788519420205887 16.7487158083140280
21.1270251741262847 -25.8242629326338005 16.5100036027387276
21.1231691540330502 -25.7592328681212095 16.2627337141863144
21.1175920592940614 -25.6875572705239961 16.0136034256525868
21.1075736565612999 -25.6139553996474092 15.7707847028135699
21.0919377026083374 -25.5409441968825917 15.5378068116452095
21.0713592971154569 -25.4680753213264239 15.3135124591410285
21.0471102809752644 -25.3932783111992464 15.0954286206901340
21.0191692087741586 -25.3144604922651837 14.8811202431834602
20.9852077018111380 -25.2307548087133000 14.6684525169104507
20.9413909123644260 -25.1428401240553896 14.4562796251826295
20.8846857312383527 -25.0517975766876262 14.2446543107852523
20.8151201479860113 -24.9576959592027521 14.0347352135115102
20.7362332463964840 -24.8595827830945524 13.8291898283694472
20.6533596614348376 -24.7566448125229144 13.6323406007172352
20.5709235418566827 -24.6487683626185614 13.4484673936249699
20.4906359047859574 -24.5357736921427261 13.2792016912617310
20.4117783542229496 -24.4163804897393106 13.1226395939135703
20.3329532639004178 -24.2883775199204450 12.9752688061505275
20.2538050026552980 -24.1501510006682238 12.8355315086509130
20.1752428310603307 -24.0011071482185443 12.7060582433301956
20.0980201462770971 -23.8392588983902058 12.5923995438034630
20.0218768239015716 -23.6596721258208120 12.5000929405109744
19.9464417273498853 -23.4573883476838319 12.4321837714403749
19.8725483622029344 -23.2323058245306342 12.3877299202223981
19.8022852664513778 -22.9901978071310182 12.3619422102039564
19.7380514948415531 -22.7391161751434652 12.3485028887294970
19.6817384915633156 -22.4856002954018024 12.3423338476957056
19.6344871919105053 -22.2334863440686945 12.3407359182956782
19.5968221329928198 -21.9846614891477330 12.3427372012814054
19.5687148709037153 -21.7402512731110562 12.3477334827606597
19.5493837587567612 -21.5011065025009103 12.3545241455710997
19.5372950333406941 -21.2671461844131073 12.3614288037693996
19.5308457351877038 -21.0363634832660864 12.3673075271883484
19.5292183596010496 -20.8049687180291158 12.3722384070829747
19.5325019505577195 -20.5689720169059882 12.3768874695803071
19.5410224997946962 -20.3256356425524736 12.3813218276852126
19.5545649140336941 -20.0741800320767751 12.3846588718258452
19.5719166721333160 -19.8176658343150613 12.3856194724564848
19.5908879103198785 -19.5639381723740691 12.3830743265769438
19.6089550863549889 -19.3205772546175645 12.3763109670091751
19.6240471333842805 -19.0897920875832270 12.3650815187341312
19.6349258859468101 -18.8688672119273129 12.3493901310839806
19.6409090718533967 -18.6532050225373176 12.3292061604189058
19.6411791680246068 -18.4381859185985242 12.3042616604706350
19.6343745501984408 -18.2201902292237889 12.2740892817067433
19.6188221756580994 -17.9979612914629179 12.2384383545062825
19.5930536815769116 -17.7733012710295100 12.1976139090288065
19.5560454215029651 -17.5498859827692115 12.1521626179760389
19.5070857638032926 -17.3311810154966857 12.1021625149325480
19.4456024966674015 -17.1190266455396980 12.0468443801543525
19.3712313716644964 -16.9134807879304425 11.9848809738645237
19.2840775470916697 -16.7135933251686311 11.9149473874212113
19.1849411393060976 -16.5183586005338405 11.8360195304773992
19.0754765909630990 -16.3274160450122601 11.7475094915262321
18.9583880334368793 -16.1413938701675050 11.6496042299749902
18.8374843421563689 -15.9617166994515145 11.5436497600129044
18.7170988522957806 -15.7896100679893436 11.4319320553447081
18.6007476708246315 -15.6247631963583444 11.3165573582026973
18.4899838338945770 -15.4649965163015786 11.1983757683591740
18.3846023784631214 -15.3073632345067523 11.0771465569616900
18.2836882998094268 -15.1493099974730043 10.9525747177360024
18.1863873461024141 -14.9888465158096515 10.8249638944784401
18.0922172529541534 -14.8241957205278254 10.6950928112135397
18.0011433486601895 -14.6537541294274618 10.5638138284117709
17.9134704865010335 -14.4763730276848186 10.4318562102242254
17.8296234688954485 -14.2914453606764233 10.2999346756741410
17.7499748482236583 -14.0986385509289178 10.1689329103208674
