BEGIN_0
-19.1046770205274932 19.9756320113830483 5.5958463365581768
-18.9749310392059058 20.1474590771537443 5.6719093677926260
-18.8480703589891476 20.3163317328435120 5.7517346890727445
-18.7242331346883368 20.4833438361712581 5.8333009455741642
-18.6030820612718841 20.6507877457162863 5.9144519963191282
-18.4842007009717086 20.8205495882474665 5.9920908457873576
-18.3672010978408089 20.9932462628144840 6.0616770664510344
-18.2517318565417668 21.1687792023093593 6.1174760926157798
-18.1380353892561459 21.3468750409840062 6.1532007756522855
-18.0279767622757277 21.5265266298429410 6.1627784253994484
-17.9252587116073414 21.7054204475312389 6.1413445451996544
-17.8340288638679141 21.8806492470111209 6.0863130786509938
-17.7569179150572367 22.0498598613075103 5.9981076855450812
-17.6940065750418860 22.2114925216495500 5.8801751757248599
-17.6430053250176151 22.3645788182864962 5.7380169602642557
-17.6001388482522714 22.5089949956985400 5.5774900396688363
-17.5612526789348564 22.6456958961625929 5.4036051113150805
-17.5227170300893000 22.7761457858866869 5.2209678759022680
-17.4818814901840760 22.9015163541070805 5.0349444967766761
-17.4371195137750021 23.0226502796745933 4.8513629075083724
-17.3874444756453919 23.1407322917768319 4.6744606915893065
-17.3319413798444621 23.2576786840535306 4.5055381617651076
-17.2695732515746485 23.3757554979608955 4.3440436677512899
-17.1993734324329388 23.4971852416492482 4.1897019242691176
-17.1205992179295734 23.6241609378428024 4.0434827487677207
-17.0326429220702948 23.7587088512907485 3.9070556958406648
-16.9348573486895084 23.9022187243987858 3.7819796253646327
-16.8266100609222065 24.0551372105545909 3.6695082821613916
-16.7076414998402640 24.2169925918805191 3.5707838465231490
-16.5784580227310414 24.3864235610051736 3.4869319368054565
-16.4403882383134032 24.5611377462478231 3.4189068895623684
-16.2951030851154677 24.7382233692337508 3.3671522503077060
-16.1438815781334704 24.9149658477904659 3.3313075993539094
-15.9869624051156052 25.0896400485068582 3.3103613343888103
-15.8229689134677685 25.2619241606747451 3.3033071459498107
-15.6492088887741474 25.4325663725499140 3.3097369149789131
-15.4640383431200981 25.6014829217849851 3.3298547557878369
-15.2690747280522743 25.7660912338523431 3.3639992763350950
-15.0683814702951686 25.9222489995327017 3.4121826682409893
-14.8659618893743044 26.0664739969550254 3.4739642497741485
-14.6643594686822958 26.1971056085551943 3.5485833613182258
-14.4648582831268939 26.3141448900415043 3.6351451348495214
-14.2680759824895844 26.4184936004500983 3.7327261745249629
-14.0742254699747313 26.5112266708991484 3.8403718241324505
-13.8833153308746553 26.5935107048140509 3.9570669965176677
-13.6953888972749613 26.6669136563464271 4.0817723619283033
-13.5105191353577272 26.7331607793289905 4.2135100221857584
-13.3286430171986403 26.7933975323692124 4.3514022092014937
-13.1495722758765545 26.8479917950125895 4.4946129002550297
-12.9731591566497038 26.8971221233115969 4.6422315109210555
-12.7993718543791957 26.9413692532687108 4.7932001977004788
-12.6282405165112070 26.9817694364891807 4.9463732971931353
-12.4597760890687912 27.0194888249546281 5.1006863406789069
-12.2938949186868740 27.0554283268382534 5.2553307137433887
-12.1303443375505946 27.0899100290856722 5.4098511757469634
-11.9686051456676470 27.1225409028319007 5.5640650509025793
-11.8077154342350035 27.1524443159964548 5.7177567729455721
-11.6460711586885441 27.1789430339274389 5.8704255676748058
-11.4814768398613687 27.2022371073315554 6.0213837379671649
-11.3116398328561143 27.2233445628737449 6.1697093928327149
-11.1347769587639860 27.2434596786925454 6.3133509383876483
-10.9498866203717462 27.2638353013923727 6.4481454047042774
-10.7571429781738175 27.2863463565796707 6.5680979683783960
-10.5586267767612263 27.3136788583478669 6.6667510547104847
-10.3578655831286781 27.3488959953381894 6.7385721030755530
-10.1581923144113127 27.3948692923221060 6.7798206350454615
-9.9616346322014468 27.4533074921742397 6.7895676614087854
-9.7688342402382649 27.5236579808429838 6.7706487569622844
-9.5792876280398822 27.6031837189999152 6.7293163639328650
-9.3916329757448622 27.6884438728730871 6.6735200735055180
-9.2040987913108125 27.7768749817832088 6.6110879326187852
-9.0150469780286997 27.8673443483073733 6.5488254376112334
-8.8233592796056364 27.9597315531760913 6.4923021673545644
-8.6285583160142156 28.0541833649071393 6.4456321610621856
-8.4308692864155290 28.1503937398762076 6.4112831385643005
-8.2313217778390992 28.2472242814915333 6.3904936595722948
-8.0313956109223739 28.3430700930727291 6.3839841134635122
-7.8320853288181222 28.4366947835121806 6.3922358569711992
-7.6335993825919068 28.5275190122828413 6.4153344557752661
-7.4362866850333180 28.6150595713775466 6.4527572155902817
-7.2413571181935481 28.6984705093872563 6.5032586541266273
-7.0500615740518153 28.7769127900868078 6.5649060175315839
-6.8623546350340128 28.8502385421228063 6.6352286840809604
-6.6767379042593475 28.9193047121739824 6.7112208286603003
-6.4913806565090351 28.9857906601559456 6.7889923219867416
-6.3051979224541626 29.0516717159398645 6.8632014669291985
-6.1179963197030443 29.1184810958383729 6.9265938643283986
-5.9302002688939677 29.1865070124735766 6.9700679565482409
-5.7429405327079124 29.2542939908598640 6.9838031625937589
-5.5585556090533803 29.3187812842537028 6.9596340808055022
-5.3807498184373355 29.3760863316066789 6.8939416574153469
-5.2137620029439669 29.4226666931851426 6.7892833665564529
-5.0606664224554700 29.4564492491437377 6.6532912255007410
-4.9219265857624199 29.4774411794836482 6.4954336578584684
-4.7952569589958021 29.4876581167108860 6.3237240487315027
-4.6766412342322559 29.4905510703652709 6.1431301573355004
-4.5616958937016543 29.4900815882878824 5.9561544204193098
-4.4465448831075163 29.4895411917872003 5.7644726524297489
-4.3279305786264075 29.4905242968741668 5.5701849640150964
-4.2029515705081311 29.4927119735306071 5.3761697689124510
-4.0689180445934934 29.4946549236378033 5.1858628621202030
-3.9234840736416299 29.4948932407613356 5.0029558899955440
-3.7650256765408425 29.4927059669345297 4.8312731607646455
-3.5931721654616249 29.4883780565527829 4.6747659538210531
-3.4090864681100825 29.4831079409252439 4.5373268642085325
-3.2147850668991884 29.4785084103097219 4.4221569889415981
-3.0115116655573084 29.4757844929923394 4.3309543061091489
-2.7987680025091750 29.4751665522316522 4.2637891796666114
-2.5754945961534972 29.4760949133643528 4.2199975520310069
-2.3424531149684027 29.4778113039481156 4.1991325951944614
-2.1036515987149143 29.4797110363024366 4.2010792565813624
-1.8655959934914055 29.4813404058075008 4.2255462700928135
-1.6349612381678416 29.4823337629437319 4.2716633743157821
-1.4165451442830848 29.4824853989025399 4.3380178928505089
-1.2126980430419425 29.4818658251540775 4.4229435360423075
-1.0239142654516522 29.4808268966333031 4.5247225791905645
-0.8496819449317496 29.4799179083477938 4.6415948018900437
-0.6890195995951145 29.4797912963101254 4.7717455481284432
-0.5406257942850745 29.4810647384985742 4.9133770558565111
-0.4028768202293289 29.4841238264821293 5.0647187330172176
-0.2739660700946134 29.4889879734380926 5.2239488712821682
-0.1522820970767964 29.4953297467457247 5.3892951052166378
-0.0367279189816503 29.5025741236527246 5.5593815175721968
0.0735995397784732 29.5099794776894555 5.7334712885943127
0.1804088242667383 29.5166643699573754 5.9113670429110812
0.2867772414589371 29.5216059718758395 6.0930351420676416
0.3963322226431463 29.5237499296028645 6.2778355241961279
0.5118947624747985 29.5223471866265506 6.4633686394003860
0.6353979587655387 29.5174178101635682 6.6448360389340717
0.7690847149124835 29.5101182528227248 6.8156259469772182
0.9158941438075361 29.5028187732236162 6.9681081975595633
1.0779600854294749 29.4986990176970743 7.0938052197200960
1.2547423879343576 29.5007325224147365 7.1842595305841446
1.4428877950547250 29.5101135435217934 7.2339085396064027
1.6379369435604452 29.5250180255994472 7.2431612496268505
1.8363959970714792 29.5410016309502339 7.2187396045305636
2.0366350517199918 29.5528801639359457 7.1710365794609165
2.2383265095921634 29.5565569028066939 7.1108393827028973
2.4414905431987992 29.5496682416678880 7.0473029038601975
2.6461256613708239 29.5313986853626886 6.9873660973154186
2.8521326668535942 29.5024311728929618 6.9360527664566973
3.0589632901615751 29.4650232093524984 6.8971425134917013
3.2653342617002132 29.4223064550332545 6.8737715045555481
3.4694135977147429 29.3768743705817705 6.8686722210381692
3.6694082165661817 29.3299620375056413 6.8839359034521372
3.8642092936945200 29.2817181184683548 6.9204438282843750
4.0535345015106099 29.2318678420627975 6.9773817406034349
4.2377286315754041 29.1801518659913484 7.0519405862121820
4.4178202608438379 29.1265466445454599 7.1389986383334429
4.5957574623706581 29.0715100780143452 7.2309610859287048
4.7742933526994236 29.0163422228298984 7.3179310564786793
4.9563311851919121 28.9634795337250068 7.3883080558245311
5.1439461498712529 28.9160983133906413 7.4304777429444773
5.3372302580842961 28.8768088461896291 7.4358134788716050
5.5336301289434271 28.8462798298946694 7.4015334734918374
5.7289789705187513 28.8228454000035228 7.3309350776683893
5.9198854006199886 28.8031242511854515 7.2305618941497158
6.1051485868247592 28.7831116080317919 7.1071042090178294
6.2850741837758939 28.7595262593835379 6.9665574064590867
6.4601993392541548 28.7311607572203975 6.8150530014371498
6.6307996551791639 28.6994882618716538 6.6592352548187339
6.7971372993751489 28.6677033367855572 6.5051566383793364
6.9600571880821080 28.6383963712178407 6.3565469611451437
7.1212859143232121 28.6115605057249454 6.2142875819025409
7.2829068258482597 28.5845884329190838 6.0776899055099669
7.4465973657159523 28.5538220551252451 5.9461631506194728
7.6133642362357010 28.5159694429722919 5.8199644260177887
7.7837324399837895 28.4685585118852984 5.7000878944235325
7.9580083150248067 28.4097524370922230 5.5879140009922477
8.1364334972046599 28.3380936104160028 5.4849652247763672
8.3192390321592313 28.2524963741745303 5.3927918547953411
8.5066212737851625 28.1526581798176281 5.3129097679778035
8.6985833161191159 28.0399750481436527 5.2467275864795617
8.8945702765870323 27.9186286756683586 5.1954471639876321
9.0930626223030995 27.7956988737384663 5.1599896935232774
9.2916589426862046 27.6790531113810268 5.1410486199616372
9.4879090919723872 27.5737435324840767 5.1392897745469508
9.6801249881399301 27.4800108070890552 5.1555073636335500
9.8674344607052280 27.3946896526778652 5.1904624423713841
10.0496228139514834 27.3140648723223052 5.2443943125159809
10.2269755510285911 27.2356861531128480 5.3165860841152703
10.3997596813974109 27.1586390012597150 5.4053641887977051
10.5677654430345473 27.0828747083745149 5.5083652126296450
10.7307238724182117 27.0083098742521912 5.6227632041634799
10.8892458570701294 26.9343277572063045 5.7454941168974596
11.0452115320245525 26.8599417771147380 5.8732092120196455
11.2013329739425842 26.7843946840104437 6.0015447540140077
11.3605456685767869 26.7076234237419570 6.1242628707574536
11.5256280831616191 26.6302060778314313 6.2331367746121753
11.6987081418109593 26.5530755966846570 6.3187536133508164
11.8805242456843594 26.4773753184699032 6.3723044215466587
12.0698616473216074 26.4043097695201361 6.3881651753187469
12.2638133303407848 26.3347549801839378 6.3658276722403002
12.4589097642255329 26.2689027570357752 6.3095241268758269
12.6521282363871368 26.2062726932641610 6.2260187115409771
12.8409276519729758 26.1460617116690699 6.1226120149074479
13.0232256035435885 26.0874654067839806 6.0060216932875310
13.1983030009746365 26.0296277162221728 5.8814659583511322
13.3675433861163420 25.9713600929019890 5.7520666450947875
13.5336052786062968 25.9111029304590730 5.6192640769375597
13.6989020546370366 25.8472497551140137 5.4838823095809612
13.8649626321197221 25.7786574600575022 5.3469416212168301
14.0327807128921620 25.7049643561890413 5.2098686696662266
14.2032090775261608 25.6262557548695149 5.0743267508472485
14.3768494133996665 25.5421612547576444 4.9420159791206615
14.5537580118913823 25.4512041163767648 4.8146112882745733
14.7334569728900959 25.3510829129716875 4.6937983140719375
14.9151562584479827 25.2395965836993099 4.5813197295413914
15.0977739845697254 25.1156000604947991 4.4789976965160658
15.2796741259431226 24.9797590254751327 4.3887016020557450
15.4585964096845725 24.8348254335614769 4.3121601113276071
15.6324125824674720 24.6847452265841198 4.2505368157669530
15.8004538055116761 24.5325720044100137 4.2039844540185047
15.9638456969426201 24.3789293281673096 4.1716899108350969
16.1239964416090089 24.2226917965509188 4.1525561833681515
16.2808816577899549 24.0628093078157335 4.1459424719244318
16.4329760611299847 23.8990553606365133 4.1519555151634329
16.5786425820051839 23.7311895051232149 4.1713024276766628
16.7173904327361811 23.5580565358120495 4.2048699198246862
16.8497608557018665 23.3782789754571532 4.2531380807504799
16.9761114404069673 23.1922508893892640 4.3157075935048912
17.0958520287902189 23.0031608784426602 4.3913745688289776
17.2079512841706439 22.8155806268490799 4.4787201063318189
17.3117497284693300 22.6331947348416023 4.5765955265815759
17.4070807194287234 22.4576955606692295 4.6841048884916745
17.4939272834438242 22.2890387521797635 4.8002525404802689
17.5722549949012787 22.1261876101694099 4.9236847637422994
17.6422294227522976 21.9676739409594504 5.0528619820293041
17.7046282025637787 21.8117451238676168 5.1866608799830924
17.7610460760585696 21.6562746412321268 5.3248260363015625
17.8135861968073854 21.4990931445483682 5.4673982157666572
17.8643338448169793 21.3390503287264295 5.6131837227686301
17.9152180750606824 21.1767009948075327 5.7589344570638286
17.9682891854982962 21.0134716033011273 5.9003532368871365
18.0259666866520121 20.8500850153849520 6.0336164831338692
18.0911034353885682 20.6858013834441010 6.1557204899972415
18.1667767358856054 20.5190827628090133 6.2636232542758066
18.2555740400515454 20.3490369505013220 6.3533856149127015
18.3586248085941648 20.1762863736591349 6.4204465546627958
18.4750741475731104 20.0026287224018056 6.4610437997658110
18.6021865742412693 19.8302485683554863 6.4736648054688217
18.7359372988491906 19.6610193070194299 6.4596262625256191
18.8720691816155863 19.4958103516215822 6.4227512303505243
19.0071448421802955 19.3342349187247535 6.3684111221631738
19.1390505403929048 19.1749796590857748 6.3021828725511480
19.2670646099519871 19.0159741423085258 6.2286469848115598
19.3916259209442465 18.8545028484229071 6.1510014375236342
19.5137315600707275 18.6879864261892408 6.0716121231644831
19.6343260852359762 18.5150304644324670 5.9927618897787092
19.7538760207372768 18.3358842434606046 5.9168269855885125
19.8719918583896629 18.1521572695150013 5.8460310235597905
19.9875340821021616 17.9658634505756680 5.7822587216127808
20.0996013744412814 17.7779846711989471 5.7269333967511447
20.2085323424346228 17.5875822247286777 5.6808851756459422
20.3156921884727453 17.3924148491436341 5.6444087119189525
20.4223152482259138 17.1904487720385610 5.6175865880393658
20.5285917808295579 16.9811288665597111 5.6006391226616739
20.6335113964918335 16.7659071050813893 5.5939590805590367
20.7352275792753389 16.5479180313473968 5.5977466569753034
20.8317602941332041 16.3308515656485227 5.6116599565693193
20.9218517402192923 16.1174218292560560 5.6350023398116509
21.0053603437261351 15.9081849902803807 5.6673353695927169
21.0828345531230070 15.7014533056825840 5.7088322577432535
21.1546601716081817 15.4946619348749692 5.7598960060881410
21.2204895678486167 15.2865332653737980 5.8203527379999880
21.2795205454078840 15.0781910957240513 5.8890807256294551
21.3314568875209289 14.8720184062526712 5.9645033356543049
21.3771465571931323 14.6695368216715707 6.0453403150028002
21.4183316514982423 14.4703317220891314 6.1308168855060075
21.4569481096877368 14.2727336221982402 6.2201591929972437
21.4947329356417143 14.0754257672380110 6.3118218756222326
21.5335202563200490 13.8783065530081000 6.4031944773712279
21.5758172973475872 13.6818510277314367 6.4909837342691841
21.6248157964269296 13.4862786278585052 6.5714895575496630
21.6835665803027275 13.2917402641583138 6.6403217162650261
21.7538742730083570 13.0988819976042699 6.6922744021689713
21.8356538659786459 12.9087836384866232 6.7221198272277096
21.9270884143628528 12.7225467947427742 6.7259571971442256
22.0255382777084066 12.5410389331785250 6.7022747624971917
22.1287056329421716 12.3648084891802306 6.6523361197237953
22.2351600946559493 12.1941658094064405 6.5799061385080915
22.3440055402746118 12.0292799462720854 6.4903649700361701
22.4544218581487236 11.8698315880205953 6.3893063510670771
22.5655841105417636 11.7142950622237869 6.2812041617513170
22.6766358558965031 11.5599170612138806 6.1691584549444975
22.7863916498919785 11.4040351919902339 6.0558798129108826
22.8931999446620686 11.2455303266999778 5.9445497503663738
22.9954065519290083 11.0847753049119646 5.8385177667230757
23.0922272211416022 10.9220877899909361 5.7403537499477650
23.1842835988079266 10.7563937577257960 5.6512821411729526
23.2731358304773792 10.5853699464181279 5.5714531022538658
23.3601950350744296 10.4064628790949794 5.5006703025089418
23.4460098932634580 10.2177069261834106 5.4389580496096137
23.5303244573180201 10.0180025161029818 5.3867564252995379
23.6124819314050214 9.8070778076263458 5.3449057920440826
23.6916016124062914 9.5855144374592047 5.3145105954049168
23.7664025969389741 9.3550815771421263 5.2966347939170948
23.8350647001259723 9.1191434044387147 5.2919414113879721
23.8955539898942924 8.8823986186446771 5.3004843401899713
23.9462861962509166 8.6496009330273189 5.3217587203146319
23.9865919958861298 8.4240594515923508 5.3549712368837525
24.0166912503001768 8.2069229578478495 5.3993785171380200
24.0373752915049828 7.9974304646924743 5.4544997039475849
24.0496819988264399 7.7939588307421150 5.5199859087376861
24.0546082957126615 7.5956722911438170 5.5950601294879228
24.0528543585182710 7.4035201390057344 5.6781217014159964
24.0446350913066702 7.2185635944126840 5.7676003004081604
24.0296566251300447 7.0388297730128846 5.8635527720684486
24.0074008159372987 6.8597368689982137 5.9674149680860715
23.9775714477987236 6.6783756411594073 6.0796578337700495
23.9402355055490368 6.4953639774956846 6.1986114320469987
23.8956648525097997 6.3125815570117814 6.3213489615202647
23.8444451934843364 6.1304891621368736 6.4446502228464357
23.7882030371108648 5.9472595657976859 6.5649535004781132
23.7307331924133251 5.7588574418293783 6.6780439735712829
23.6788899178414738 5.5590160276491671 6.7796779313223192
23.6423117589665246 5.3407492151851397 6.8672286981902095
23.6310680994099975 5.1020536139258335 6.9408975020190224
23.6514598201665329 4.8521591282037120 7.0031523314849391
23.7026412157825845 4.6085901869912229 7.0571269249048587
23.7776034515881385 4.3849173886637320 7.1055534004360990
23.8679059863436613 4.1831077971777670 7.1505615988177098
23.9674941376184769 3.9969388446292786 7.1937099924948145
24.0733063730257015 3.8190913107429942 7.2359859767469032
24.1841162816119457 3.6447714202841084 7.2778935825018900
24.2994282792689908 3.4716756088703846 7.3196321474551107
24.4189467872004968 3.2988398098033471 7.3612581286741836
24.5424122917348875 3.1258071154900797 7.4027768488516648
24.6695683150221576 2.9522669400167310 7.4441793390629281
24.8001579173032525 2.7779420777604162 7.4854534610461743
24.9339239285206737 2.6025614655321139 7.5265865140282253
25.0706091304999248 2.4258549617827558 7.5675657172265423
25.2099562984492707 2.2475525382683728 7.6083782808092915
25.3517082069466930 2.0673841781588695 7.6490114141491716
25.4956076305324260 1.8850798655621208 7.6894523265676176
25.6413973437461493 1.7003695846482749 7.7296882273840710
25.7888201211276993 1.5129833195907842 7.7697063259179888
25.9376187372169653 1.3226510545632308 7.8094938314888358
26.0875359665537978 1.1291027737391897 7.8490379534160759
26.2383145836780720 0.9320684612922552 7.8883259010191766
26.3896973631296561 0.7312781013960148 7.9273448836176010
26.5414270794484146 0.5264616782240488 7.9660821105308139
26.6932465071742193 0.3173491759499409 8.0045247910782784
26.8448984208469490 0.1036705787472858 8.0426601345794602
26.9961255950064505 -0.1148441292103382 8.0804753503538187
27.1466708041926097 -0.3384649637493524 8.1179576477208233
27.2962768229452983 -0.5674619406961501 8.1550942359999397
27.4446864258043739 -0.8021050758771686 8.1918723245106300
27.5916423873097294 -1.0426643851188029 8.2282791225723670
27.7368874820015847 -1.2894098842472932 8.2643018395046930
27.8801644844254071 -1.5426115890862064 8.2999276846283117
28.0212161691963999 -1.8025395154237014 8.3351438672793616
28.1597853117047308 -2.0694636786538485 8.3699375969642897
28.2956146945893146 -2.3436540904660461 8.4042960847732360
28.4284471577161497 -2.6253807330073240 8.4382065542245481
28.5580259222911685 -2.9149133880137832 8.4716563111831142
28.6840963490340322 -3.2125206786310834 8.5046331212471848
28.8064138498756357 -3.5184655154003792 8.5371269027384713
28.9247730022392986 -3.8329867864267051 8.5691359630966932
29.0390930226181787 -4.1562373435256674 8.6006854925133638
29.1496087696088573 -4.4881086825901590 8.6318702318638607
29.2571610414477625 -4.8278256482804771 8.6629260504806354
29.3633757983667110 -5.1732166599033107 8.6943024327958423
29.4702765011028340 -5.5198202705724597 8.7266660951273494
29.5790706574732098 -5.8605569308888015 8.7607889363105400
29.6888218167158442 -6.1870770629090899 8.7974014548129240
29.7964785746038459 -6.4929337031950212 8.8371707344241592
29.8986428269651157 -6.7764394642520962 8.8807940319098098
29.9934215504211643 -7.0404973881167514 8.9289967790964830
30.0807849854558107 -7.2897780223151081 8.9823759126485445
30.1617616613969126 -7.5281713878425514 9.0412925209248201
30.2375257128887789 -7.7581310027286001 9.1059314985354263
30.3088910359244323 -7.9812132451647528 9.1764284519196799
30.3761905259082425 -8.1986459459069572 9.2529297675630282
30.4393137933375115 -8.4114553117416690 9.3355738170303209
30.4977820942130506 -8.6202394615602422 9.4244671460562568
30.5509451747916430 -8.8249210213368698 9.5196790739853796
30.5983081365297096 -9.0248129407224411 9.6212205970094935
30.6397918421427171 -9.2190319362324153 9.7290258922157626
30.6757015691116379 -9.4069648507983565 9.8429961071394612
30.7064671228353205 -9.5884806349906988 9.9631034970626935
30.7324205566525848 -9.7638823899172174 10.0894000113434821
30.7537276661254992 -9.9337441261211552 10.2217133751899993
30.7704589491552838 -10.0986130725351053 10.3591513504004293
30.7827630034631134 -10.2585326884179260 10.4999833051223810
30.7909691006401012 -10.4126189317368940 10.6421604619782588
30.7954605846393079 -10.5591377917319384 10.7839359718099530
30.7964620074115949 -10.6964862409751973 10.9242728167418672
30.7939482997498146 -10.8249668694741530 11.0636266918235613
30.7876456003366918 -10.9478916195760867 11.2048055980322268
30.7770035726318980 -11.0700018731869356 11.3519618049213840
30.7610995062616475 -11.1941538045117284 11.5078907455203314
30.7385285688367382 -11.3199932881258505 11.6729233109193196
30.7074671064414666 -11.4454059902550647 11.8459654933360063
30.6660652910431608 -11.5686273254167276 12.0254188981757117
30.6131533482512310 -11.6894923943771119 12.2089443306082757
30.5488578237704012 -11.8095104571066081 12.3930368924481691
30.4744904966438526 -11.9310256501995333 12.5734937888307954
30.3916808307803130 -12.0563491189502763 12.7467603666904559
30.3014484187060980 -12.1877284070198968 12.9112569559897281
30.2040195426526275 -12.3277396708998737 13.0675649480782567
30.1000268700108080 -12.4787759525301283 13.2170718721363514
29.9925414272048734 -12.6415286984627890 13.3601806739868021
29.8877369768879362 -12.8142843292487640 13.4960471619118003
29.7929764873253333 -12.9941769184742171 13.6244234147777590
29.7140522725497576 -13.1791110225586472 13.7476623233499531
29.6538630069760991 -13.3687302679364102 13.8708558605992778
29.6132281078291726 -13.5634089528070660 13.9996658043506876
29.5928428224462863 -13.7612763175757244 14.1366604406558629
29.5947785463519324 -13.9559547534612776 14.2787391036275455
29.6222011539034575 -14.1390343587050928 14.4188327806604288
29.6770120945476492 -14.3059848255981130 14.5508412661271578
29.7570055592530913 -14.4587686477095261 14.6724798601175106
29.8551065790793686 -14.6035177113635299 14.7843429515712241
29.9614323058717069 -14.7472276600357119 14.8879170536240597
30.0663434482607244 -14.8959410069000526 14.9848522792398953
30.1623275345121833 -15.0538634336861001 15.0775434416914607
30.2440559931167385 -15.2229289577474702 15.1696004728028839
30.3072696979679996 -15.4032453964800773 15.2647523545954087
30.3477509403573151 -15.5939968805989082 15.3642740601012697
30.3614375141476707 -15.7935839901482069 15.4647595382261276
30.3455178915026416 -15.9991754302711016 15.5586447342098335
30.2999875646410253 -16.2074896835523425 15.6386987404351103
30.2298568772755623 -16.4159719589224125 15.7037283806841845
30.1467362173664490 -16.6217381706434431 15.7607140521563469
30.0669571585215927 -16.8209574900956191 15.8230310783086860
30.0062102783311175 -17.0098412920036210 15.9061890544240612
29.9739267642162268 -17.1852278467762680 16.0215622537236442
29.9707818017338496 -17.3451665815394946 16.1716831048378999
29.9905744584415004 -17.4900811661489364 16.3512867822693622
30.0240727935687026 -17.6223335160383456 16.5514289507075496
30.0613356318691558 -17.7441930531309850 16.7614504373586541
30.0927139649553368 -17.8567875165918828 16.9695473876434164
30.1105027568840278 -17.9615050924484301 17.1664981169992288
30.1105546627291467 -18.0618910132038941 17.3506906093769366
30.0920522782041999 -18.1630914691169458 17.5278166794071524
30.0558904459295100 -18.2693491302403928 17.7050659331204017
30.0035172741459135 -18.3825537063040905 17.8864401487844127
29.9370338310415001 -18.5023454688181310 18.0719784753336796
29.8597269917478094 -18.6265821284769544 18.2593149873037994
29.7755878649204284 -18.7517736422524450 18.4455510030849084
29.6873461555523726 -18.8747392057747554 18.6292458632279292
29.5951836872066458 -18.9945579712478185 18.8109473608728841
29.4977553348124459 -19.1124841343976435 18.9913241995994397
29.3941082654774597 -19.2303286836313347 19.1693774251643276
29.2841320144716875 -19.3494070192813297 19.3434675211472218
29.1681087183250511 -19.4698997625793844 19.5128164042358527
29.0469670872190342 -19.5903228522157313 19.6766684209405298
28.9221449285801420 -19.7085660921463131 19.8335181482152194
28.7947354621163143 -19.8238551574997288 19.9821419821825330
28.6655694969962980 -19.9369098340890787 20.1224910770632874
28.5356131471098529 -20.0489332034215693 20.2557079576457006
28.4050364395341965 -20.1617743776505591 20.3838799205446115
28.2722474221888049 -20.2782877377674140 20.5088729657220057
28.1340416651685530 -20.4013962164421230 20.6305435808943542
27.9865693307086083 -20.5322688295417208 20.7455150462015148
27.8268303913382589 -20.6692385454199581 20.8473302798219180
27.6538500634796947 -20.8090201302461750 20.9288867341858236
27.4692719775882495 -20.9489158490019562 20.9854087442314174
27.2764122261661228 -21.0881671213864124 21.0154342893575858
27.0780365350477439 -21.2276291916878250 21.0197180244330575
26.8753780909892654 -21.3681232657062523 20.9999282951563089
26.6695935879591559 -21.5088484245997122 20.9583412992832194
26.4631406917121730 -21.6474116539890176 20.8979646709934883
26.2589259354823845 -21.7813261382939984 20.8224948485862669
26.0593613162506408 -21.9091504076093102 20.7359302529324054
25.8661465051656876 -22.0306547440290217 20.6412727916204091
25.6803552528162200 -22.1463876225996117 20.5391806981844454
25.5029840118474240 -22.2573943233832878 20.4288354783903223
25.3339480678940205 -22.3658873729809002 20.3109918778160576
25.1692954457511853 -22.4758587580353435 20.1900461743189084
25.0014197586420366 -22.5915500464685906 20.0740935004311325
24.8236074023970232 -22.7147848316783652 19.9735496450597765
24.6339965995858208 -22.8445647382853636 19.8977145438328336
24.4352874774962991 -22.9794471121654951 19.8503528285090489
24.2314227949644909 -23.1197527781802705 19.8278269369904905
24.0248206120031682 -23.2668274964058739 19.8219236047312179
23.8166669173470389 -23.4199060970567885 19.8253020393050718
23.6089722423484005 -23.5746285993841340 19.8350223686007432
23.4048966020224043 -23.7259325675492718 19.8515988271045742
23.2072861682263714 -23.8716383121676472 19.8751226963823200
23.0178330141825498 -24.0119002786555313 19.9019118784716049
22.8367303824497441 -24.1466357798962505 19.9239601794374472
22.6623448613680125 -24.2753769065529426 19.9310262892436221
22.4933279707153204 -24.3981406922894095 19.9136846008288941
22.3316358493837868 -24.5147369290997972 19.8658805517010890
22.1812845897901028 -24.6240335895133029 19.7858972950618224
22.0439081517006201 -24.7247551463828401 19.6753242201286582
21.9178223776751722 -24.8161630648946598 19.5375411813905657
21.8016655914272377 -24.8972143353375372 19.3770328367795877
21.6964631114521147 -24.9663436341474494 19.1975963352469172
21.6035815049014026 -25.0227347484514340 18.9999039259551310
21.5226090627914637 -25.0669704728959601 18.7828945458156333
21.4519615872662328 -25.1002543287694024 18.5488010543443451
21.3905138209157535 -25.1232751467979796 18.3052335366631276
21.3380421330274892 -25.1357582325830933 18.0600745764008330
21.2946072257564651 -25.1369403478067923 17.8146066192014594
21.2600602829181113 -25.1264240955748264 17.5643962217265965
21.2339906384447836 -25.1045627859122220 17.3077536797161144
21.2157447698651431 -25.0719532378357997 17.0497797763300909
21.2045894438239664 -25.0288194070271146 16.7969451102084335
21.1994549030200865 -24.9756261594357909 16.5515848015561815
21.1979184183460809 -24.9144354553037886 16.3135165551962480
21.1960573307693778 -24.8487486196074485 16.0826591671581021
21.1901891314013078 -24.7817326969645038 15.8584921458430266
21.1787441909225329 -24.7151053995225141 15.6405050145628302
21.1622473009464223 -24.6488190693874003 15.4286760060199271
21.1417178247414874 -24.5811008723569131 15.2219243371957376
21.1172224247870943 -24.5095896593846447 15.0176639096963420
21.0874358957846830 -24.4334008914024778 14.8138891747663752
21.0497592059783081 -24.3539655219283375 14.6106624181493707
21.0011732142082899 -24.2733396244375612 14.4090064031488687
20.9401269188236796 -24.1917976520203055 14.2094242520729050
20.8676686608122246 -24.1070993916264982 14.0117146502502674
20.7865904068805989 -24.0158152957586211 13.8155763216653344
20.7004144064240414 -23.9157467315955756 13.6223918445569723
20.6128313094413826 -23.8071778573714710 13.4362687746646294
20.5263388601363239 -23.6912984497558128 13.2614374903651342
20.4412281493128596 -23.5679549118331195 13.0990008829961706
20.3565034282238351 -23.4354364019956165 12.9472946883259059
20.2714640945241911 -23.2914993787854314 12.8048993497272257
20.1864199345689457 -23.1339963713950709 12.6737016781061591
20.1025273303232233 -22.9608697446492016 12.5598735115131106
20.0212717288533248 -22.7701804484991257 12.4712016924969618
19.9436444354189248 -22.5605015893245948 12.4113146368917366
19.8699693439143239 -22.3325430370657259 12.3764664789187968
19.8007674354847332 -22.0904423634212463 12.3585224369289524
19.7373168549429039 -21.8403908724015352 12.3500133310823337
19.6812399204900501 -21.5880148830674727 12.3465743972216107
19.6338495750250850 -21.3370064605698531 12.3466070549521874
19.5959207645113445 -21.0893464194075051 12.3499058225384140
19.5676752987614293 -20.8461383459895657 12.3563128060338876
19.5485423151795104 -20.6079696835311239 12.3648811940355721
19.5370469995283074 -20.3742428767083155 12.3739438467302296
19.5314859302883370 -20.1421123053991593 12.3820953839654013
19.5309470160202103 -19.9067037536782649 12.3891101464527082
19.5355527641973268 -19.6637459858098289 12.3956015829636712
19.5457064710232871 -19.4128941610880545 12.4018042218174465
19.5612049369147023 -19.1581863119271034 12.4069985020014499
19.5808426671488540 -18.9055481406238819 12.4099566724580797
19.6024571736880091 -18.6603462863442147 12.4094532032871800
19.6234464767166585 -18.4252893861737519 12.4045135755481439
19.6415658967689950 -18.1993632899312843 12.3945748800606523
19.6554230998187194 -17.9788632377613595 12.3794208746171694
19.6641761938529172 -17.7602234968258799 12.3590090558225825
19.6667404693887633 -17.5422174229964369 12.3333828246870674
19.6614650890918909 -17.3247036652652788 12.3025028401613046
19.6466073253884375 -17.1063471659883355 12.2662220541471214
19.6208705153598011 -16.8863049517796213 12.2246505467260036
19.5834768398802801 -16.6664780758051450 12.1782002177551547
19.5339620570779466 -16.4505059696429115 12.1270522844577116
19.4720297221002347 -16.2412600551400921 12.0707055195318489
19.3976031980812849 -16.0395360069247808 12.0081139978995299
19.3110023973749598 -15.8444186373780518 11.9381750601705203
19.2131143121020820 -15.6544223189172058 11.8600446378561699
19.1055366760193976 -15.4686060083619701 11.7732681385416189
18.9907736506089790 -15.2872710201386184 11.6780830895722083
18.8723448776142320 -15.1119251820023131 11.5757966965871937
18.7543050204367354 -14.9441153511323286 11.4685938913498156
18.6399725322147951 -14.7836298893248070 11.3584355618291379
18.5308115228518524 -14.6279607470194755 11.2459519456743582
18.4266147179521944 -14.4737605562465639 11.1306086659665411
18.3265963434915946 -14.3184604211157520 11.0119024691285787
18.2301653139172153 -14.1605041873364073 10.8902026091085649
18.1370061663284794 -13.9986528688916962 10.7665603641402932
18.0469720063189243 -13.8315247577253331 10.6420673385319660
17.9601153721331741 -13.6577898864177030 10.5175162344639368
17.8767139477055892 -13.4765393959861157 10.3935328102042170
17.7971752533917176 -13.2872898195753848 10.2709173940603211
17.7219001362173358 -13.0896634223921318 10.1508373504207228
17.6511800257477205 -12.8831441573453525 10.0345821190999320
17.5851971233473776 -12.6671573624539349 9.9231118310401847
17.5240868789386255 -12.4413597415122936 9.8170405893292561
17.4678910302706427 -12.2058273986479868 9.7171102879659692
17.4164487677759539 -11.9610733197539325 9.6244358207130887
17.3695630302545752 -11.7083779657848659 9.5401768850747342
17.3274137192301723 -11.4508006386258607 9.4651584479401905
17.2906471765366376 -11.1938230819945908 9.3998082870727142
17.2597936070869231 -10.9435557741434195 9.3441002209406125
17.2344995270555117 -10.7026818231924707 9.2972560385127547
17.2133688813642856 -10.4684847379545651 9.2576718356716654
17.1944283975497072 -10.2360432142938151 9.2235424338712821
17.1754763376980790 -10.0020448613745181 9.1935855608751780
17.1539577357642585 -9.7629579409422433 9.1669939675665990
17.1269449825303823 -9.5102379631542071 9.1428614038838560
17.0919790775120646 -9.2318575326745673 9.1201016293867880
17.0484958069566375 -8.9209883410479733 9.0979914159723521
16.9984501230483964 -8.5818580666943589 9.0765190387318526
16.9452848557264062 -8.2260877736954932 9.0560921988770247
16.8922431918611622 -7.8650755095022973 9.0370701951207444
16.8414200305107258 -7.5059551670724183 9.0195871871947446
16.7937887441390252 -7.1519194381866633 9.0036221439911941
16.7496375355956673 -6.8039984223942405 8.9891014658306627
16.7089464635546250 -6.4623747882569340 8.9759472440708343
16.6715869097368170 -6.1269775336784065 8.9640867427366828
16.6373991787915294 -5.7976756510197802 8.9534505241404947
16.6062162239029547 -5.4743266970726125 8.9439703274722735
16.5778695414119994 -5.1567864530450009 8.9355781954125213
16.5521903839269342 -4.8449104742047489 8.9282062316049995
16.5290099694876922 -4.5385542922128685 8.9217865495531186
16.5081595119726501 -4.2375734367077804 8.9162512640659024
16.4894702248355145 -3.9418234371863292 8.9115324900951087
16.4727733214933920 -3.6511598231373092 8.9075623426054094
16.4579000153607495 -3.3654381240491471 8.9042729365624425
16.4446815198518905 -3.0845138694102570 8.9015963869319137
16.4329490483811185 -2.8082425887090388 8.8994648086795269
16.4225338143627226 -2.5364798114339049 8.8978103167709790
16.4132670312110065 -2.2690810670732482 8.8965650261719809
16.4049799123402593 -2.0059018851154882 8.8956610518482329
16.3975036711647775 -1.7467977950490319 8.8950305087654371
16.3906695210988680 -1.4916243263622899 8.8946055118892993
16.3843086755568166 -1.2402370085436640 8.8943181761855179
16.3782523479529267 -0.9924913710815577 8.8941006166198058
16.3723317517014912 -0.7482429434643816 8.8938849481578597
16.3663781002168065 -0.5073472551805533 8.8936032857653835
16.3602226069131262 -0.2696598357184907 8.8931877444081042
16.3536964852040896 -0.0350362145669827 8.8925704390521503
16.3466309484939494 0.1966680787798687 8.8916834846696311
16.3388572100707670 0.4255975147620052 8.8904589963071423
16.3302064820148516 0.6518965631339224 8.8888290897897058
16.3205099658302260 0.8757096876446777 8.8867258877994502
16.3095987848445390 1.0971813075935355 8.8840815640396222
16.2973035747643600 1.3164555642655724 8.8808286127566163
16.2834524115670689 1.5336751322699680 8.8769012236224469
16.2678621224436384 1.7489761867651996 8.8722410904850086
16.2503085032115493 1.9624708776868580 8.8668174151181045
16.2304447010713844 2.1741980902411271 8.8606814718729190
16.2076291204226273 2.3840157174166521 8.8540777498773870
16.1806673665523206 2.5914312497639838 8.8475869122772366
16.1475963467029615 2.7954581174366613 8.8421433436036772
16.1057465547855259 2.9947117184690200 8.8386346142582628
16.0522028669614087 3.1879310697080427 8.8369382696048788
15.9844874692122030 3.3746999598377379 8.8348744837674786
15.9012422569755749 3.5556005580950707 8.8281351430220365
15.8028619912432564 3.7313740265465540 8.8117710834078729
15.6917621260053313 3.9021257704592500 8.7823467498057539
15.5717764429333805 4.0678877580796353 8.7391618445514965
15.4469649253920558 4.2298042113558356 8.6839725772744547
15.3205334209094293 4.3904451402278619 8.6199017470491199
15.1943587771011721 4.5530102010940556 8.5503997335418447
15.0694448568533090 4.7200539509311987 8.4787735217920321
14.9468081328683855 4.8926476449706033 8.4081656391091144
14.8277552253097280 5.0706279639906349 8.3413795082116806
14.7132363689794321 5.2537189811152718 8.2803004371632802
14.6033202981534664 5.4422333128057705 8.2256368100116966
14.4976449299055474 5.6363397414059184 8.1774544745623814
14.3962041350721002 5.8348912138526847 8.1359210860211686
14.2994471844316511 6.0355581424367735 8.1015412461160814
14.2076521687202568 6.2363923630669200 8.0749362496461430
14.1204754029931294 6.4371272894125955 8.0567365822492576
14.0373013228419410 6.6389553743561782 8.0477735325064508
13.9578723624733030 6.8435062097483996 8.0491761140310594
13.8825922281134311 7.0517913062326985 8.0621144487086660
13.8125319455355040 7.2631533745473797 8.0873648984424165
13.7491674908427619 7.4750432117043886 8.1250115424074174
13.6937989771388402 7.6844583317799131 8.1745060374967569
13.6470578737143082 7.8898677878395009 8.2350358410303741
13.6088666090886683 8.0918584200983545 8.3058268081970628
13.5786656258760292 8.2920432341210830 8.3859559315044052
13.5555163995777708 8.4912665215994476 8.4737709657336318
13.5380027379358427 8.6889315191077348 8.5666149250359211
13.5241370803177912 8.8841640014427057 8.6612568705571285
13.5113684887805690 9.0772357554034961 8.7544648632741069
13.4965516467965365 9.2695730833787167 8.8429899709772961
13.4759612219400093 9.4625855419421789 8.9230012203616500
13.4456480508197505 9.6566103555058884 8.9897103531011027
13.4021195773952098 9.8505917726909171 9.0378544586252580
13.3430919269130648 10.0422923555388550 9.0628908574747875
13.2680618577392533 10.2291625490854798 9.0622609591009784
13.1784968975152896 10.4096273139063626 9.0362131888136510
13.0776221452078314 10.5836101822559190 8.9878868837414245
12.9697919316532726 10.7521411100030200 8.9225968365562309
12.8593993468894165 10.9170126286122269 8.8465162114913252
12.7497028679004512 11.0806970619017093 8.7653035665798633
12.6424659769355099 11.2459089405144805 8.6833888644330841
12.5385133114525722 11.4149164851350235 8.6040406830984288
12.4382638265908074 11.5893918292379716 8.5296079472745525
12.3419614313034849 11.7705987038738886 8.4616873384896927
12.2499411214367235 11.9592295338556820 8.4014835647425290
12.1626051241042994 12.1554992302942235 8.3500768002507719
12.0798932040373508 12.3600214275470517 8.3081826502132969
12.0009977348448782 12.5740170035925889 8.2758544758982602
11.9248588744657802 12.7976128524966750 8.2527377560744100
11.8509541230775746 13.0281491217186574 8.2385194575726430
11.7798066660372029 13.2609091244987614 8.2329498048246670
11.7130218494304650 13.4914861775780679 8.2355238366316499
11.6527724591716098 13.7173548409303052 8.2453378372252182
11.6009328508117520 13.9378892474538354 8.2613136076275833
11.5584439045527052 14.1538238484105907 8.2825475241088462
11.5252551928535354 14.3670123081067693 8.3085269035077154
11.5006596453290850 14.5802300577009376 8.3391270441846856
11.4836660484609645 14.7961879027776764 8.3743621026077264
11.4731918084726754 15.0158089999287458 8.4139704109590667
11.4680221844921064 15.2373990669054802 8.4571507592165531
11.4666332910307762 15.4578919286170784 8.5027080955879519
11.4670440380539951 15.6749108328332003 8.5494389046217023
11.4667206592685407 15.8879086441422235 8.5964684080266949
11.4624078002429215 16.0979016170334752 8.6434556319559981
11.4498236440763410 16.3059858168084872 8.6906478715310005
11.4234079796254733 16.5112928760777251 8.7386163381054374
11.3765894299419550 16.7098982332728028 8.7873736633250807
11.3030662785326754 16.8957814916987239 8.8348888600180402
11.1990119152078673 17.0631253803493301 8.8761544107733741
11.0650426265530548 17.2087458868310392 8.9046153187166972
10.9063859311091775 17.3337017280966847 8.9156222056506067
10.7309519308818189 17.4431406941296316 8.9088985150338758
10.5468401057049928 17.5445333713577831 8.8881259004257736
10.3608030917525316 17.6455296944227022 8.8587638081206386
10.1776546195062352 17.7523749206261954 8.8261628363631139
10.0002147203133998 17.8689767749761472 8.7947858514215795
9.8296407299008468 17.9967260394192081 8.7682167004153229
9.6659871498602836 18.1352288844135145 8.7493579666221493
9.5090171097481413 18.2830792763331580 8.7403387031901723
9.3590221002805940 18.4381639064362908 8.7423204535665118
9.2169510730398052 18.5982432301029057 8.7556638180556980
9.0837192622058467 18.7619301743504288 8.7804598799205458
8.9595535907706250 18.9290358023407848 8.8168598908622862
8.8441599833805462 19.0998937625243599 8.8647977421126143
8.7373285088468311 19.2745298758875414 8.9235402277352307
8.6389792362625055 19.4523488343326605 8.9915486412175696
8.5484025804939510 19.6320153536757651 9.0664211938893118
8.4633846983664256 19.8115293030112198 9.1449090275771852
8.3801222588812756 19.9888426394472845 9.2235624045467350
8.2940086117722505 20.1623761569898932 9.2995869414534269
8.2004075723253393 20.3305215668347543 9.3707031569017722
8.0949432622579245 20.4900872709956694 9.4340248680141663
7.9735782492954153 20.6347052935964612 9.4853098838480214
7.8332346977277272 20.7551687836017749 9.5197247540759715
7.6731136852779658 20.8428821905837154 9.5338992836236951
7.4955615342785231 20.8945914408240796 9.5278927741264106
7.3051765398961876 20.9148066559375110 9.5057504724394555
7.1067089612019627 20.9142869820385862 9.4741786138935886
6.9037338414299443 20.9064239276647399 9.4402082438700141
6.6987487464520754 20.9040683483350271 9.4095429091321794
6.4939907859491912 20.9175378598519188 9.3866295423725425
6.2923594583191704 20.9534336745774361 9.3756354703725933
6.0976735956420018 21.0142982112237675 9.3804120688618511
5.9136078514060451 21.0993576675794934 9.4028592930836066
5.7419013252128615 21.2058100465936690 9.4413258662093007
5.5814397700661669 21.3296094511454726 9.4909156563167834
5.4289584539559828 21.4654750525743623 9.5456418902941067
5.2804563438276109 21.6067708022774951 9.6007429470595032
5.1320177430077329 21.7456937300462414 9.6536331204751562
4.9797745044721911 21.8733517386319605 9.7032322062252625
4.8199293013524551 21.9793803502700200 9.7484863402406567
4.6499189209894825 22.0521428579229699 9.7871694302748580
4.4702372519668092 22.0811742526689301 9.8157002256232069
4.2850316318394430 22.0613593734315714 9.8301631673137830
4.1005069161304233 21.9956580980750189 9.8279706960538569
3.9220666830033739 21.8939863687561456 9.8088939504428119
3.7519096636265630 21.7694378152837515 9.7745965387087530
3.5883713256394296 21.6347407276584818 9.7275273534952920
3.4273810343813649 21.5002182531607282 9.6704750121905150
3.2648960388362145 21.3730222610780132 9.6069885644810995
3.0983361534260032 21.2573525895444249 9.5418175478059304
2.9263881997905137 21.1555824574556901 9.4802841314971609
2.7481860127221416 21.0700632782030297 9.4266311401275757
2.5629443807660750 21.0043259433134537 9.3830304983679298
2.3703048624184024 20.9622916578148022 9.3504709651496469
2.1710795430850349 20.9460737887396888 9.3305091270259606
1.9678250806857580 20.9545462337736730 9.3259625496488354
1.7645575536567026 20.9842553053003726 9.3398544470122875
1.5655006611962188 21.0319926084339741 9.3736987520012214
1.3740371500047368 21.0965938833473672 9.4267230311291001
1.1929846328205524 21.1785835455535718 9.4963189211978118
1.0254116583551653 21.2787348982071691 9.5787049053072462
0.8745122638744713 21.3970166083116311 9.6691085322604255
0.7422310676148909 21.5321354532509979 9.7619407827010534
0.6275999918027091 21.6813237342108707 9.8515129966183252
0.5255173234975121 21.8401195061615887 9.9329221872986757
0.4266306720513147 22.0021333307643019 10.0027616455181452
0.3199363997822602 22.1591851161422895 10.0597500918627425
0.1977220886611493 22.3012514069466121 10.1044835418948935
0.0590981166436961 22.4153304804884961 10.1375238897638589
-0.0898631261383396 22.4854000231254680 10.1572755538651620
-0.2387270559282659 22.4971131680397818 10.1598602828628550
-0.3777159969317219 22.4464120189056580 10.1414773156851616
-0.5036115772376775 22.3448755360315374 10.1014833592916364
-0.6223763334113368 22.2159840571402647 10.0440135978210918
-0.7460000688274655 22.0859833398661110 9.9777212074246435
-0.8859900975690529 21.9764744872797664 9.9140287521731238
-1.0478377127513090 21.9006579069769174 9.8638427419898598
-1.2294182832061300 21.8619086019887305 9.8335544500350984
-1.4238254014941614 21.8546734845348318 9.8228047432587111
-1.6240138619646216 21.8679076481150787 9.8256519415802170
-1.8256045591708192 21.8889968319820767 9.8337178505263001
-2.0265222549864346 21.9058080855903370 9.8385325759400679
-2.2249316968979622 21.9070665884332172 9.8323350525877373
-2.4176321845289994 21.8831133876248707 9.8088800984723505
-2.6000872386016010 21.8280162448714243 9.7650511516125711
-2.7679376378458151 21.7415673388157984 9.7017694206472527
-2.9187751727477282 21.6289933812833368 9.6227209671392799
-3.0529074318195253 21.4982273680635068 9.5318265948946213
-3.1729357440710348 21.3566980715839634 9.4314285307709209
-3.2827904443377864 21.2098899417102515 9.3221448057551424
-3.3871511407451429 21.0622995721335720 9.2042308955844732
-3.4916180433113073 20.9188647222248036 9.0793669481537940
-3.6027448445065211 20.7846843983382215 8.9512739677140924
-3.7268063790902151 20.6634922650386699 8.8247626526956573
-3.8678036707519290 20.5570357919124405 8.7046760914357293
-4.0266339989280828 20.4658530362705839 8.5957822502807257
-4.2016638718799566 20.3897787682045077 8.5024910619646601
-4.3899019926628657 20.3276102873038411 8.4279750403547382
-4.5882190430922583 20.2768562990948844 8.3737931074874865
-4.7938979681462817 20.2344217182921859 8.3401919278416230
-5.0043600839237570 20.1984443978341446 8.3262664173723522
-5.2172497683447787 20.1701680471916092 8.3297391353130461
-5.4312381724246706 20.1539300435222479 8.3471400019846271
-5.6461006317490181 20.1548558799606958 8.3748213609735309
