BEGIN_0
8.4745160271994848 27.8939885484596850 4.9165531036266596
8.6327389556451433 27.8474957080596717 4.7965582791797381
8.7948934918145589 27.7864063462603106 4.6876254077045054
8.9613543174834120 27.7096130397319484 4.5914707228043206
9.1326985689441180 27.6171034190260514 4.5096864630774700
9.3096969297424526 27.5109775218027544 4.4436106963522608
9.4929309238768518 27.3962815085446074 4.3942021122000412
9.6819384285410859 27.2804323467635825 4.3620073750125581
9.8745537209497094 27.1705768806934458 4.3472728921373207
10.0675388206898511 27.0703798118361014 4.3501837462098987
10.2583376177997465 26.9789713591477494 4.3711628961538018
10.4461690302913563 26.8928121773955837 4.4109415361417330
10.6314111473499739 26.8085257863372348 4.4700138124013158
10.8140874057280545 26.7245623065573241 4.5478513255646664
10.9929765012757841 26.6410966876866517 4.6427345486204121
11.1660108270372600 26.5589544028706150 4.7521870624769669
11.3312684350293100 26.4787667486714859 4.8734081585444446
11.4878793613725954 26.4006426748553977 5.0036327306295831
11.6366045318600033 26.3239567904083245 5.1404572620515481
11.7797765083323878 26.2472809837504890 5.2818022850140878
11.9205116316306121 26.1687803828378591 5.4253017569272330
12.0617587293776154 26.0869320573354102 5.5673208554895339
12.2061009793248516 26.0009369573897651 5.7023905397140009
12.3562436080607796 25.9105557375266820 5.8236257158155809
12.5148988098832401 25.8159197749637386 5.9234328817812081
12.6836088217713119 25.7177747767113232 5.9941147926535390
12.8613638429239128 25.6178654111992152 6.0291997933577814
13.0442261048791401 25.5188644122735369 6.0254429485179681
13.2268831837126175 25.4235409135990800 5.9839630972184761
13.4053898698362008 25.3336701711947399 5.9094875397320106
13.5787100331149500 25.2496535281917858 5.8085041721352546
13.7476967582400071 25.1711679566663094 5.6878674393186373
13.9130776371960660 25.0979621652521239 5.5543559775897062
14.0747414204696550 25.0298700460496306 5.4142433609251253
14.2326329476753255 24.9660342279207796 5.2722026516405602
14.3876600771869931 24.9042899137591505 5.1305343644012904
14.5414179075344396 24.8415587979420565 4.9898335780691365
14.6953469090569513 24.7747889935331003 4.8503687562628954
14.8503044254257670 24.7015218114773276 4.7129142329238078
15.0066528468828260 24.6198855373731114 4.5788181499534417
15.1644969788598321 24.5283577509325639 4.4497650454307696
15.3238419162185764 24.4255865682199627 4.3275760380964474
15.4846433695853118 24.3103735585364795 4.2141133975807392
15.6467677715467506 24.1818854169747901 4.1112432546627211
15.8098554034546996 24.0401980728866818 4.0208006064224353
15.9731284172079882 23.8871044427804264 3.9444964942453016
16.1353782619878814 23.7265314163159573 3.8837048491082093
16.2954538264368942 23.5634754321216349 3.8391518682230341
16.4530245041359606 23.4014617978443056 3.8107372906656707
16.6085912257537522 23.2408070243535114 3.7977732061192775
16.7623462128305576 23.0797470929619983 3.7995132730372738
16.9131870289830886 22.9169751114610989 3.8154705092398977
17.0590328774236824 22.7527438873425112 3.8454252640385373
17.1980465435250096 22.5878594776454378 3.8894513256250018
17.3295609401685127 22.4221138492989382 3.9480209213199657
17.4541193835899335 22.2539347257262143 4.0219366979320235
17.5728207494207922 22.0817749426066641 4.1118972818941142
17.6863258918187469 21.9060660215732348 4.2178916107172508
17.7941837142729540 21.7296817166039489 4.3390362248191998
17.8950514712770925 21.5562248991048193 4.4740727095493575
17.9873019224488218 21.3879781046705872 4.6216720410790071
18.0694304886733299 21.2253360935872166 4.7800271711837006
18.1403726980633024 21.0676032697266180 4.9463467580379845
18.1999648574710591 20.9139767780840309 5.1169607141482203
18.2493497043753408 20.7638444114109717 5.2880500051717281
18.2908577234993572 20.6165078980771383 5.4565139076904359
18.3272771931852532 20.4709459178408970 5.6205661848730877
18.3611753790829688 20.3256936189175690 5.7798884227116005
18.3949210464822315 20.1787254855943274 5.9350438135956196
18.4311455552164674 20.0277973103834981 6.0860423169746802
18.4729218600339031 19.8714958174326028 6.2308206828559207
18.5234206758072091 19.7099919921420650 6.3650566769242261
18.5854998537676650 19.5445158293596677 6.4835680467760692
18.6615443367999916 19.3764210729432804 6.5817664790392509
18.7531530334661838 19.2071823511454021 6.6561361748530476
18.8604370820120728 19.0390787738396554 6.7041893544535451
18.9815591469574194 18.8751252012163633 6.7246468007379594
19.1130881671451185 18.7177833277091743 6.7177840137001255
19.2509259059579243 18.5676204873956507 6.6853657146682117
19.3913936335831529 18.4228755770921389 6.6301600466351278
19.5319596395428334 18.2801306451407228 6.5555572283862915
19.6710524990326761 18.1357888500758264 6.4655887192313344
19.8072256177621071 17.9874800686663505 6.3651318704663993
19.9385919112509633 17.8346877983719878 6.2596951801607155
20.0631579792713453 17.6783400857124349 6.1544025041603998
20.1799197228331764 17.5194736074539534 6.0528155557177215
20.2897181726196791 17.3579363242202369 5.9565571116619775
20.3948559963241500 17.1922148588274055 5.8659141827002657
20.4977864701131978 17.0201516026023008 5.7809052815072661
20.6000890026196366 16.8397310907991553 5.7022271741030188
20.7023821424719934 16.6496308301372693 5.6315104292766005
20.8048147093827893 16.4495293164359992 5.5707420509784420
20.9073173179831571 16.2401730299378642 5.5214969320494216
21.0092600279287289 16.0234600803022396 5.4846222245860652
21.1091533497432273 15.8025635775517959 5.4603363899612827
21.2051489437211664 15.5813091132051618 5.4484339933245494
21.2959304968633880 15.3625872642949428 5.4485133483816064
21.3809638782571980 15.1472453746215869 5.4602394246459074
21.4601747079121061 14.9344353736596744 5.4835102027860643
21.5337036061053411 14.7227291897521528 5.5183653108716086
21.6015864009889569 14.5116136718101529 5.5646654293871425
21.6633544445825770 14.3022969859662492 5.6218175814621727
21.7180698252450100 14.0966790144570986 5.6888205104596175
21.7649254452905225 13.8956043338273840 5.7646002625158452
21.8040046566411974 13.6982208525762381 5.8483122798832969
21.8365915601146412 13.5028445670024730 5.9392056467740062
21.8647346433018939 13.3083641627415030 6.0360132773544706
21.8905762828848971 13.1147277363639265 6.1364767780223719
21.9162137674626365 12.9220890334156557 6.2374880968544328
21.9441965457580324 12.7300476479114444 6.3353726495813234
21.9780797847953302 12.5380011984211244 6.4257615229545344
22.0223148523605801 12.3457527733114141 6.5033219923935182
22.0811026292052404 12.1535956775511540 6.5618997100718257
22.1565485850350115 11.9625504101906177 6.5953108497140711
22.2473274011095832 11.7747768331936786 6.5988564818486672
22.3491733793769747 11.5930068276736815 6.5709402992782930
22.4570289036971218 11.4191460291416043 6.5134869226307437
22.5670730240189705 11.2536595125240204 6.4309628048554348
22.6771853464535553 11.0960931106813359 6.3291136933341470
22.7863576663025320 10.9452772558709395 6.2139907658285090
22.8942601482298755 10.7986866872718181 6.0910384986924306
23.0010891085000360 10.6522487912836556 5.9644022187155468
23.1072101863523685 10.5015001828095329 5.8370202702820997
23.2127650560928203 10.3430585077346464 5.7113748223158858
23.3175206638927079 10.1753258730667273 5.5900896027178177
23.4207766383783529 9.9985630415816562 5.4759916634556891
23.5213288491107022 9.8146052329171827 5.3719184151441812
23.6178292942275974 9.6257988420080753 5.2804105804702495
23.7095152583555873 9.4332130064508828 5.2032285427049061
23.7965862616407193 9.2356205437651653 5.1410301755903038
23.8797262675286177 9.0303722661943748 5.0936540452654384
23.9593071440310013 8.8151651346899129 5.0607421458067687
24.0349487476242984 8.5893223725646468 5.0421229773033804
24.1055092787877747 8.3543180041622254 5.0377642598720840
24.1693465429214029 8.1137134162044973 5.0474809046943587
24.2247756205334319 7.8723734681617250 5.0706964687658385
24.2705858448076270 7.6350393995248798 5.1064586459075940
24.3063876529083664 7.4050699398059887 5.1536497761779447
24.3326105048653609 7.1841034428726047 5.2111668322874127
24.3501821065910633 6.9725480472443468 5.2779227107183875
24.3601396004017055 6.7703332351694483 5.3527071351754234
24.3633918837402668 6.5774208063789397 5.4340983153560014
24.3605877485110938 6.3936379070273652 5.5206877368413032
24.3519542407692811 6.2176640049291034 5.6117549082425420
24.3372092281776631 6.0460350013875397 5.7079601655873908
24.3157240010076698 5.8738457134748616 5.8110549126147788
24.2869178690209004 5.6972682780595205 5.9223842179996176
24.2506467137449668 5.5155133289852261 6.0414508004896224
24.2073370045307570 5.3304397556322032 6.1656679746178309
24.1578893943407067 5.1441351863542444 6.2912320572359963
24.1038058291063031 4.9562681469994834 6.4141091095028067
24.0480173141117071 4.7626490381791973 6.5304719845383570
23.9962247824589987 4.5556315823128619 6.6368472357949457
23.9575044132511543 4.3273360516685697 6.7306869559645275
23.9424132899143771 4.0763347475780813 6.8113391996062234
23.9583344590701834 3.8134565447556099 6.8802554719456994
24.0053140458006524 3.5577502191974197 6.9400308915718645
24.0766656234534153 3.3234463322504348 6.9933706252991543
24.1638277865186595 3.1123061898609858 7.0426523391625970
24.2604850323181438 2.9175449669445328 7.0897348305503805
24.3633733989823540 2.7313638581647872 7.1358314716102536
24.4711657080481686 2.5487038001386946 7.1815693564814334
24.5833350375185233 2.3671538362540101 7.2271964971531197
24.6995864111805652 2.1857174891559179 7.2727806629139593
24.8196719815172315 2.0039317338790514 7.3183243630551287
24.9433499566638908 1.8214870490413357 7.3638116352911274
25.0703787480493148 1.6381088638431613 7.4092223569981757
25.2005166566893450 1.4535290289613982 7.4545356519510335
25.3335219532983551 1.2674803573408369 7.4997305336575222
25.4691529041643037 1.0796957800924964 7.5447860026197695
25.6071677751678806 0.8899082402185527 7.5896810581162049
25.7473248321707402 0.6978506816973749 7.6343946993356413
25.8893823410352901 0.5032560485720801 7.6789059254620646
26.0330985676241653 0.3058572848892087 7.7231937356793043
26.1782317778000326 0.1053873346954415 7.7672371291711908
26.3245402374255484 -0.0984208579625445 7.8110151051215482
26.4717822123633937 -0.3058343490380633 7.8545066627142051
26.6197159684762212 -0.5171201944844377 7.8976908011329900
26.7680997716266980 -0.7325454502549782 7.9405465195617344
26.9166918876775050 -0.9523771723030166 7.9830528171842658
27.0652505824912915 -1.1768824165818597 8.0251886931844076
27.2135341219307243 -1.4063282390448251 8.0669331467459919
27.3613007718584633 -1.6409816956452339 8.1082651770528464
27.5083087981371932 -1.8811098423364019 8.1491637832888024
27.6543164666295667 -2.1269797350716519 8.1896079646376840
27.7990820431983039 -2.3788584298042803 8.2295767202833261
27.9423637937068889 -2.6370129824872670 8.2690490494097340
28.0839199840303877 -2.9017104490688279 8.3080039512032826
28.2235088801872607 -3.1732178854378716 8.3464204248798097
28.3608887496848396 -3.4518023468618626 8.3842774699609262
28.4958178730476526 -3.7377308830851739 8.4215540886393860
28.6280546267689466 -4.0312705019545785 8.4582293027734057
28.7573579831788564 -4.3326879383318726 8.4942822560359019
28.8834900162219910 -4.6422483893260971 8.5296927238222189
29.0062262220616134 -4.9602095138197697 8.5644431988098404
29.1253896894834980 -5.2867966633578902 8.5985257162561446
29.2409383875222986 -5.6221142526742263 8.6319589472993066
29.3531219622978625 -5.9658758149791069 8.6648178136180238
29.4626223714908271 -6.3167329805356189 8.6972577890604299
29.5704030148494859 -6.6710273579904005 8.7294866721169306
29.6769997236151539 -7.0214218878254044 8.7616659481721477
29.7816286374250829 -7.3572020908030673 8.7938798095563477
29.8822917348144976 -7.6682783524820657 8.8264063058111368
29.9773039764529940 -7.9512009017319905 8.8601657008343597
30.0665114940820430 -8.2108494235793295 8.8967170503725121
30.1507133334427166 -8.4553161190388764 8.9376295074596346
30.2305575618738906 -8.6904173187358289 8.9839782103945538
30.3062198174469941 -8.9186275853669521 9.0363527604036200
30.3776307298335269 -9.1407040215326099 9.0950722232129060
30.4446282839695073 -9.3570518828409242 9.1603223194548207
30.5068963523187158 -9.5680528879712661 9.2322115867209025
30.5639581685788819 -9.7738815883670291 9.3107945906754068
30.6153823413555131 -9.9743720960556388 9.3960459936433569
30.6610606400870793 -10.1691410858854780 9.4878134905699554
30.7013039888019179 -10.3578723314080641 9.5858239057623358
30.7366584645602643 -10.5405332766879418 9.6897478014224827
30.7676465801169492 -10.7173834424470655 9.7992933122039574
30.7946442461014520 -10.8888966375132377 9.9143605833594659
30.8178331712227198 -11.0558145487069233 10.0352912486357084
30.8371333301042370 -11.2193737603483683 10.1631675310024381
30.8522440082248544 -11.3815290042074508 10.2999909820431093
30.8629008266973273 -11.5446509295026694 10.4482149641431121
30.8691267845586630 -11.7099503844411004 10.6089431340374354
30.8711628819786910 -11.8752021199250599 10.7796132940981586
30.8691195340699487 -12.0346889890324462 10.9542548790080634
30.8626808579203065 -12.1828890146028321 11.1274631060828355
30.8511351758042913 -12.3181925119413904 11.2977821262616622
30.8336826536783768 -12.4427728040797625 11.4668439727032681
30.8096417851879849 -12.5599537099515572 11.6366230577215664
30.7782801679569218 -12.6722750199874774 11.8083232836092584
30.7385224255936045 -12.7813089466279273 11.9827825042326648
30.6890534510117909 -12.8884055810267277 12.1603528117815287
30.6290109337053877 -12.9952063384900995 12.3397890617435735
30.5587819714817535 -13.1035342921204290 12.5177350343329667
30.4800416985499396 -13.2151457752486046 12.6899562444098528
30.3947394012134922 -13.3316765028808426 12.8533231710639662
30.3039016676075441 -13.4546501734341284 13.0069896379525041
30.2075277844454924 -13.5855654959097016 13.1523365642671592
30.1060504281846093 -13.7258764108356566 13.2917423769159111
30.0023721142583923 -13.8763143336549746 13.4266738148730358
29.9023928382136042 -14.0360361702029977 13.5568911759661646
29.8130360742216496 -14.2029416395121721 13.6820541872178421
29.7395483819053155 -14.3751201710148351 13.8039546635064756
29.6844784720441979 -14.5520443120309295 13.9268555900000681
29.6487879568542034 -14.7340122264397309 14.0554619236348604
29.6336859233539407 -14.9195621485712309 14.1916778186153785
29.6414432343374479 -15.1034275410378136 14.3325490073280921
29.6742523828606970 -15.2787293488135951 14.4720089509764271
29.7318395435123861 -15.4421479073357020 14.6052288240902968
29.8099597135909704 -15.5960534624092872 14.7306763555415721
29.9011111124553786 -15.7462454396627081 14.8486155881847637
29.9966135748209801 -15.8987755755953302 14.9590716008001188
30.0885238843074205 -16.0580720070881604 15.0619000236446361
30.1705739826755988 -16.2263939741819172 15.1585544807552832
30.2378952620310422 -16.4044947159533692 15.2528118341874332
30.2858785665858434 -16.5927387518526679 15.3484926075862465
30.3095134234336960 -16.7912300039273639 15.4456929516753760
30.3044048763256093 -16.9987763576264754 15.5393776067976255
30.2691153993918824 -17.2122245587427791 15.6225274825825942
30.2076536542660641 -17.4270735780183763 15.6919347101554152
30.1307455534152417 -17.6387282924581257 15.7522125708949545
30.0542836237531148 -17.8434790134944947 15.8153449358698257
29.9946792791420940 -18.0380884228802998 15.8962417461550913
29.9629410986783995 -18.2190909563808283 16.0062908322403779
29.9608629222186202 -18.3843098198410289 16.1491668005579072
29.9823646945870195 -18.5347648144319059 16.3219537234006467
30.0180682666551526 -18.6736901673955487 16.5182897299029321
30.0580761566282852 -18.8038600969713414 16.7294342798939901
30.0924992360070718 -18.9264762068246739 16.9445147410320942
30.1127541226563054 -19.0427389717594409 17.1538851239637324
30.1137239984006158 -19.1555894091991163 17.3537089021861988
30.0944320808601269 -19.2686870583042769 17.5458205957720885
30.0566134770276747 -19.3841330137084533 17.7333119736212197
30.0028076780937134 -19.5024628247539979 17.9182697926503103
29.9356382106005512 -19.6238086364464799 18.1021390927295869
29.8581788234451118 -19.7478141636724622 18.2857955243445858
29.7738366506647587 -19.8728567561319416 18.4691772071317573
29.6851180708046591 -19.9965379363320714 18.6516090746111054
29.5925637384561355 -20.1174464017477312 18.8324423364387243
29.4950070225004417 -20.2361835870825999 19.0112435351173374
29.3910090469614609 -20.3545638375165652 19.1873854335990472
29.2799924708370405 -20.4739998672601153 19.3599382764173029
29.1620882763777445 -20.5946304747331546 19.5283118298868850
29.0375657619550402 -20.7156894466299981 19.6923966304578180
28.9065120355074470 -20.8367428200584470 19.8520901078991550
28.7689351682511507 -20.9584618699150980 20.0072223426746909
28.6253831575459259 -21.0821065199086561 20.1579773828582418
28.4775623897777166 -21.2084256894556802 20.3046760382565523
28.3276561817386678 -21.3374024934167537 20.4465835956647446
28.1762014769215057 -21.4690024410260705 20.5811130055678575
28.0204767642459238 -21.6036763381300929 20.7041083126911829
27.8552616806332267 -21.7420116103469923 20.8107069229851476
27.6763610928904633 -21.8837483651421394 20.8961996870213831
27.4842726909853425 -22.0271026076338501 20.9568914252579219
27.2835586432317214 -22.1697728875258093 20.9910932794567060
27.0786518829481615 -22.3105462666963632 20.9994245310922878
26.8716752597640323 -22.4494400674615733 20.9838808298430948
26.6638543313503078 -22.5864904854115380 20.9468041484062404
26.4569353589156755 -22.7208156857184136 20.8907799263940035
26.2528753463917681 -22.8508883628666339 20.8191084069839611
26.0538127641495478 -22.9751835307655483 20.7358198725113070
25.8620039999964817 -23.0926608074993425 20.6441644255239929
25.6787593530550424 -23.2032449859764469 20.5445513112822482
25.5038814695768004 -23.3084722450797486 20.4350937303183073
25.3354909614721429 -23.4119421661681457 20.3155907062889014
25.1691788823630951 -23.5184627565880220 20.1908129111018084
24.9985017042468343 -23.6316608715990029 20.0703232247259926
24.8182074818758061 -23.7520146730431350 19.9658955941917498
24.6268086529643213 -23.8778534012958445 19.8873463724148536
24.4259940537757991 -24.0081867972740994 19.8384392422856166
24.2183595779955176 -24.1440142383676104 19.8154191324767055
24.0066709580749347 -24.2864351881642477 19.8097955631209501
23.7946209360088510 -24.4338308748910791 19.8138305117931850
23.5862314222372618 -24.5818990775664474 19.8243425346854103
23.3841318091133488 -24.7263228260218639 19.8417886114887381
23.1886599151476140 -24.8651224921182603 19.8661428260565032
22.9980972617801278 -24.9991507131096711 19.8933291706031312
22.8094927808309471 -25.1308009656573361 19.9144092288480650
22.6204385909556542 -25.2619769494856641 19.9173879917577921
22.4316008306049035 -25.3924759519310328 19.8907649884329771
22.2479336408534039 -25.5195873673936759 19.8276458501381114
22.0766887431116814 -25.6391409453234260 19.7282183777757716
21.9234584328397659 -25.7472179277403015 19.5985685602865445
21.7899284682017438 -25.8412589652091498 19.4465122536492103
21.6749568670985582 -25.9201738788192486 19.2779826189173136
21.5768173066961459 -25.9839513166995033 19.0964267548292312
21.4938165734312427 -26.0335065511940087 18.9038444819882372
21.4237444424437484 -26.0707474177576941 18.7020943044751426
21.3640086943055465 -26.0979145779390080 18.4946262348098145
21.3122406169015477 -26.1165404588609249 18.2861176584704204
21.2667438058147518 -26.1271398453756447 18.0790281739788554
21.2269463914599648 -26.1295274050629516 17.8717275694153699
21.1934058534095904 -26.1232361449420196 17.6607225867616968
21.1669096034739290 -26.1079124068308559 17.4440280217022128
21.1474078518098310 -26.0834332029103919 17.2216199610026237
21.1339099688402676 -26.0495309449770573 16.9934588818868519
21.1250943883614788 -26.0053261911759321 16.7581397960164260
21.1194965988969692 -25.9498643857645916 16.5138471559625195
21.1150322003351363 -25.8840410358872504 16.2620420385649886
21.1088584487405484 -25.8117176974835232 16.0096934476882957
21.0983095296301393 -25.7377043131776730 15.7651837866690752
21.0822129950860599 -25.6645027890486830 15.5320095290495068
21.0612233356682417 -25.5914518939606666 15.3084303061352003
21.0366966668929223 -25.5162943476632975 15.0914192770804672
21.0089706456518179 -25.4371623637575297 14.8788527601473621
20.9764143317976881 -25.3540408012419718 14.6700220444614100
20.9359850353451442 -25.2687880866825694 14.4655788449813283
20.8849944700827272 -25.1832660633004011 14.2663494719167101
20.8229518253320869 -25.0974387338830880 14.0723988244383129
20.7520890463892584 -25.0093507959440586 13.8835261189601997
20.6762062591246334 -24.9165723945156543 13.7004022171157978
20.5986607718866530 -24.8172435405421652 13.5244420124714324
20.5207927587495824 -24.7099303579803191 13.3561940931616867
20.4422927068715126 -24.5935576234239832 13.1951474089568990
20.3628641607756116 -24.4676951864051517 13.0411846296798011
20.2830312497931402 -24.3322384371029443 12.8952375193778508
20.2035810926159449 -24.1864383028933574 12.7592011048027345
20.1248533311719981 -24.0278434524995461 12.6364624334215101
20.0467858386058637 -23.8519888891489700 12.5323608523193677
19.9695534256518137 -23.6542195183215114 12.4524439263834985
19.8941108934615762 -23.4334264348988768 12.3986309093638702
19.8222105638873316 -23.1940891587193576 12.3671041398846686
19.7559472701011813 -22.9438963324942833 12.3506966467019996
19.6971753286706885 -22.6898236802834887 12.3429888158409167
19.6471593520238095 -22.4363384579478833 12.3403394535755950
19.6065953095430388 -22.1858468905186967 12.3413842863702197
19.5757057402621832 -21.9397355320486156 12.3455144686244083
19.5540049738800938 -21.6987689408147233 12.3516967492926604
19.5401203459817943 -21.4624716197622334 12.3583378875865506
19.5323778085427158 -21.2281468275801899 12.3641488338009751
19.5297724739723897 -20.9909032968527001 12.3689805697499455
19.5322994571578334 -20.7455904368905664 12.3734584622521862
19.5403231551570364 -20.4897053519497234 12.3777843228566962
19.5536042391969325 -20.2255671750737243 12.3811823030560895
19.5707104836770966 -19.9614036781439346 12.3824195805220860
19.5891923787962305 -19.7093441876293625 12.3804950420643038
19.6064781158940384 -19.4779122326806551 12.3749208459744757
19.6207526883848793 -19.2661508121955549 12.3655659041863011
19.6312358699559262 -19.0655879555898373 12.3523105226985184
19.6377303853503662 -18.8670478763787166 12.3349387090424489
19.6398114836833884 -18.6651312969868215 12.3131714996295738
19.6363085285565866 -18.4576798487383513 12.2865624392526165
19.6253988638102221 -18.2438193756566029 12.2545643845700525
19.6051188582723981 -18.0238541036750135 12.2169372577350401
19.5738511132498978 -17.8000491436892858 12.1739204466699018
19.5305014885411303 -17.5762153639893413 12.1258098422590184
19.4744542816020214 -17.3562752362702284 12.0724191025405254
19.4055034004880902 -17.1428984783432554 12.0129741194561284
19.3238293421241281 -16.9368505435761669 11.9464022641137202
19.2300908222180666 -16.7374712079814962 11.8716549679703540
19.1256683117136106 -16.5439566225356920 11.7879998386732154
19.0129750146135983 -16.3564709924554421 11.6954621954905775
18.8955384762618408 -16.1762715809621653 11.5951758527054221
18.7774158345124320 -16.0045727864626315 11.4890526454203048
18.6619386680148374 -15.8408932462027607 11.3787064640831517
18.5507292830471329 -15.6826492060061931 11.2646046215128735
18.4438970038627623 -15.5265432913914907 11.1463684271565242
18.3409688854028339 -15.3700190206141549 11.0237615422266355
18.2415326659131907 -15.2114155540259475 10.8972812954659872
18.1453237619781973 -15.0493192761130459 10.7679248167173061
18.0521916286971589 -14.8822161333569625 10.6366378753613660
17.9622059412976540 -14.7087566887993226 10.5041093154461240
17.8757268203956841 -14.5280995141065929 10.3710053598768077
17.7932638013068853 -14.3398486700113246 10.2382360019955776
17.7152333078755717 -14.1436954607592078 10.1069246958569057
17.6418581625370479 -13.9391618822625070 9.9781680022194195
17.5733134064665997 -13.7256627258806105 9.8530577248647653
17.5098414152958526 -13.5028250327955632 9.7331126820425453
17.4515389606344300 -13.2708839767973608 9.6204781089397073
17.3981525559362211 -13.0311292712059092 9.5174409284961747
17.3494193339454661 -12.7865907309556910 9.4257693443520107
17.3056211041838850 -12.5425364878653127 9.3463592305414345
17.2675073315385283 -12.3052475009363924 9.2790052438738595
17.2354703088747740 -12.0786007407713889 9.2222244767843637
17.2089194074262437 -11.8613480001726153 9.1735646351471232
17.1865952776811319 -11.6480603001506537 9.1305023762199440
17.1672436646121795 -11.4323408622988048 9.0912275878474702
17.1497945437097741 -11.2098104616535323 9.0548614316421343
17.1331020753914061 -10.9803735102288371 9.0213471350589316
17.1158426021932399 -10.7488528886771206 8.9911961373072771
17.0967473518275064 -10.5219669930508495 8.9649682578278664
17.0748642337384453 -10.3033121549116871 8.9427071428303080
17.0496431737306509 -10.0913407701757727 8.9238508035220079
17.0207814574768150 -9.8803943076420637 8.9075161010998194
16.9878595079244903 -9.6614135354396318 8.8927157020335486
16.9501013400282936 -9.4223407751669974 8.8784456009077743
16.9067902953306444 -9.1515729388381146 8.8638805035532471
16.8582720492485052 -8.8446686619958221 8.8487084137733341
16.8064435976009285 -8.5079279862402402 8.8332627214842105
16.7539597094240378 -8.1540361929827228 8.8182255909665841
16.7030313599173326 -7.7947574092455483 8.8042042453313609
16.6549044817998180 -7.4373034350281095 8.7915357381187178
16.6100428462696073 -7.0848678614713769 8.7803267273944758
16.5684999746653787 -6.7384711459541933 8.7705613865583238
16.5301719958491731 -6.3982878779951733 8.7621767730145610
16.4949084624574240 -6.0642404838495700 8.7550960328838130
16.4625479843806488 -5.7361919422661387 8.7492390614180611
16.4329270953211655 -5.4139939438885314 8.7445251419709038
16.4058820077082004 -5.0974964348809202 8.7408734642147294
16.3812488932310316 -4.7865491409148291 8.7382032061064425
16.3588639193430154 -4.4810017648600589 8.7364335444067418
16.3385632531376430 -4.1807040076647262 8.7354836557771183
16.3201830616836290 -3.8855055701461207 8.7352727168724513
16.3035595120482881 -3.5952561531144482 8.7357199043472651
16.2885287712988998 -3.3098054573795981 8.7367443948560819
16.2749270065027432 -3.0290031837514491 8.7382653650534152
16.2625903847270870 -2.7526990330398995 8.7402019915937785
16.2513550730392033 -2.4807427060548299 8.7424734511316924
16.2410572385063645 -2.2129839036061334 8.7449989203216685
16.2315330481958355 -1.9492723265036993 8.7476975758182256
16.2226186691748993 -1.6894576755574082 8.7504885942758719
16.2141502685108208 -1.4333896515771407 8.7532911523491332
16.2059640132708722 -1.1809179553727969 8.7560244266925213
16.1978960705223329 -0.9318922877542608 8.7586075939605514
16.1897826073324360 -0.6861623495314397 8.7609598308077636
16.1814597907678710 -0.4435778415145482 8.7630003138890764
16.1727637878870674 -0.2039884645185275 8.7646482198651778
16.1635307656453939 0.0327560805823666 8.7658227254686274
16.1535968899198856 0.2668060922885420 8.7664430081844973
16.1427983170816063 0.4983118635310859 8.7664282521376471
16.1309711327752474 0.7274236451957865 8.7656976909295494
16.1179509787954096 0.9542914185505005 8.7641708693642180
16.1035711550815464 1.1790636951739106 8.7617689793727678
16.0876546374929639 1.4018821799250691 8.7584205018358237
16.0699867509078373 1.6228618496595448 8.7540805877839567
16.0502409311996459 1.8420291472097539 8.7487835535765939
16.0278256877636132 2.0591658975552782 8.7427477256961357
16.0016663739382849 2.2735038587409289 8.7365006613657243
15.9700440540653581 2.4833225773968639 8.7308515182949158
15.9306598235037811 2.6858101999364585 8.7263926622802046
15.8809021220960425 2.8778434643942532 8.7223742814923497
15.8181362529666103 3.0578344363456047 8.7155010150668417
15.7402772227318515 3.2271221425513250 8.6999358300561962
15.6471431941731289 3.3888745860869092 8.6693601079694993
15.5415854270068223 3.5456448533536520 8.6200656443313228
15.4285282773647516 3.6989574630758586 8.5526777008497135
15.3126672601024225 3.8506627320156861 8.4713358096973934
15.1970622000130309 4.0036060553513044 8.3816527231475586
15.0832758260843107 4.1608422812141690 8.2891241696824807
14.9721565533816126 4.3243899368073162 8.1983552054370179
14.8643383339058470 4.4948742525516616 8.1128696994069855
14.7601675852525904 4.6722619209140177 8.0351741853048999
14.6595712659796007 4.8564748376039386 7.9669920439492827
14.5624139801247665 5.0470307687290594 7.9096461932977533
14.4689339678717097 5.2425853846887005 7.8642870966544560
14.3796550603098865 5.4414221071543007 7.8317989114985798
14.2950771898221660 5.6422843085526493 7.8126843910046109
14.2156725847612684 5.8445104296458501 7.8072453271024260
14.1419902143193994 6.0478735641300121 7.8159166340787616
14.0745909074407454 6.2526479893768832 7.8394009606134434
14.0139954249373115 6.4593004318331264 7.8784183513989117
13.9608299528413582 6.6674119277261266 7.9332200158428012
13.9159192170926094 6.8752012732061498 8.0033200046076161
13.8800782855018365 7.0808818490883532 8.0877930531937547
13.8538057883853298 7.2844730595308427 8.1858313786229857
13.8370762017404747 7.4879186405850957 8.2967626993774424
13.8291793404131287 7.6932368717765431 8.4191340321506516
13.8286127958304910 7.9006385748123762 8.5497102823733186
13.8330966286418899 8.1081386838197833 8.6833398843277880
13.8395916696915027 8.3114631609252250 8.8129899677044303
13.8442719992136372 8.5049890545889575 8.9303371728977705
13.8426967026301675 8.6868628836712780 9.0289437107365096
13.8302113519188783 8.8624609727071491 9.1064779780771339
13.8025653725779556 9.0403013665639307 9.1627659316467547
13.7567780189012776 9.2247531678747432 9.1966097959328472
13.6920558558808096 9.4136094108239146 9.2056415417330317
13.6102571134169725 9.6012434554401533 9.1886891684746761
13.5154368205912689 9.7828821013936942 9.1475272509514305
13.4125348110107634 9.9568283775688684 9.0864663003014883
13.3059276578232026 10.1243903130163027 9.0105937837772547
13.1987097489926910 10.2886125930110577 8.9244347985182699
13.0928709804926608 10.4527916668032930 8.8318547449152582
12.9898950163587372 10.6192762007432631 8.7365302302300378
12.8910322835528621 10.7892132716064477 8.6419300146735338
12.7970180863149139 10.9634506716599009 8.5506810788128185
12.7078652331815967 11.1434220753119408 8.4641545546022172
12.6233505015968941 11.3306757566824885 8.3830462483484389
12.5437067349580023 11.5255100219990805 8.3084135435940389
12.4697793119789253 11.7261871297656324 8.2419735047016829
12.4025986175386613 11.9295736776805512 8.1854529192229055
12.3426701322806522 12.1329699394011463 8.1398307697361219
12.2895489635186230 12.3356486535808809 8.1051483299130105
12.2422106439311982 12.5386104834889913 8.0809633819625617
12.1998674375927578 12.7432050739345950 8.0669804869177781
12.1625375193954373 12.9503560197232943 8.0633045553637430
12.1310673398441704 13.1608701933780861 8.0702793074542445
12.1067242289204469 13.3759508728270724 8.0883343281962947
12.0906621403795000 13.5975596380140047 8.1179946035989090
12.0835926772706266 13.8279781376467703 8.1595698273612296
12.0856444604510394 14.0668777612851823 8.2120276416131155
12.0960890153698379 14.3077484163387716 8.2717570738084376
12.1130445384507546 14.5395691904046753 8.3329245911175889
12.1335092495342920 14.7535458833133610 8.3894869957546021
12.1534613243767051 14.9469558704018297 8.4367038624439559
12.1675858185469394 15.1226392715666211 8.4713735460336821
12.1689287558206551 15.2876559811335522 8.4916321712367395
12.1492021355449378 15.4497097720516230 8.4968636901254690
12.1003110591337979 15.6111818700233886 8.4879547336036847
12.0171228315280132 15.7677130227426670 8.4677916768616015
11.8998451891713444 15.9132215882300478 8.4408137363525011
11.7540489025834489 16.0453101624419787 8.4112553212114722
11.5884155698656865 16.1665037884741771 8.3816390072699303
11.4118548523801877 16.2821701554643283 8.3528167156111106
11.2314849023568417 16.3980166909432974 8.3250164130582629
11.0520745914910350 16.5186791628619467 8.2987184346949974
10.8765701231710405 16.6472342357126379 8.2749131566245193
10.7069429226269861 16.7851484616828088 8.2548870267552719
10.5446884303842374 16.9325599730330190 8.2397939534783227
10.3909760154113187 17.0885990455960020 8.2303185835082431
10.2466346320377681 17.2516442119541615 8.2267171741343788
10.1118772401902284 17.4200440186372489 8.2292131544847980
9.9861879076401685 17.5928711109404219 8.2384204328335731
9.8688147596052520 17.7696826611891225 8.2553036006356155
9.7592686161733830 17.9498537626672849 8.2806320068542369
9.6572719388597061 18.1325427447374352 8.3145225698600882
9.5625277798466506 18.3169439952069375 8.3563429429574114
9.4744315058970869 18.5023538193551254 8.4046798983972320
9.3915533976379031 18.6881932284257850 8.4573044206300221
9.3112703960638861 18.8738217963243216 8.5112172440556666
9.2298044816491185 19.0580071593929645 8.5626819625614594
9.1423878810659094 19.2382546695437711 8.6072704768008350
9.0435325493112320 19.4102866587649103 8.6401414486898815
8.9277753392105588 19.5681152058438279 8.6567226103179138
8.7911121044941805 19.7052206950334536 8.6539842000538769
8.6326073240610448 19.8169570087005837 8.6320210861737667
8.4550736274369882 19.9031724046292204 8.5947892260560241
8.2640651485652121 19.9691199262072452 8.5488767390807752
8.0658067342250988 20.0238490972578909 8.5010043457705109
7.8654510858474582 20.0773102216055435 8.4562669363606453
7.6664231222174530 20.1378604844164322 8.4181771695697822
7.4706684681786921 20.2108868683619924 8.3897273141949285
7.2793818060197557 20.2984968086193938 8.3738566201416926
7.0937278870454890 20.4000031835969935 8.3725338295428049
6.9147189060207506 20.5127879350592792 8.3853194327244474
6.7423227320801260 20.6331288774891206 8.4091392989827014
6.5750742367074348 20.7570894885033752 8.4397524626931819
6.4106222806849855 20.8814028556869502 8.4734221525417865
6.2462967105179459 21.0034719023800704 8.5073492265168582
6.0792962247302365 21.1206056494809999 8.5393282351447866
5.9072340274298423 21.2297819809128363 8.5676179625423465
5.7289396292264927 21.3280928630650166 8.5909088533048461
5.5444055002032648 21.4125845506325376 8.6079370891716671
5.3540813341291349 21.4793926064802179 8.6170585165616806
5.1586735540123883 21.5235989125144087 8.6161379116451720
4.9596063925768199 21.5408862672841153 8.6027721532486439
4.7590180122593617 21.5303276410960898 8.5750520714259721
4.5587968189440389 21.4960194757450758 8.5329334091391118
4.3595896277277912 21.4458172227463386 8.4792604746480311
4.1606397892590401 21.3883817024487115 8.4193449490774483
3.9605362621155598 21.3313249252922787 8.3592831284932778
3.7583835497987792 21.2813713196732834 8.3040770999575511
3.5543286001916696 21.2449475704632995 8.2567359351403589
3.3489560867656203 21.2275377567626720 8.2189355009601321
3.1426260873522613 21.2321435813065271 8.1924684367335683
2.9357915665336884 21.2583619239013686 8.1799797358400710
2.7295353353991350 21.3030408702162966 8.1840405521278576
2.5253254135153052 21.3621453952754763 8.2052124095799748
2.3244599204563032 21.4323273125127365 8.2410570811950237
2.1279779894871305 21.5112478490111485 8.2871934867199641
1.9366727324600359 21.5973353306430873 8.3393096555763133
1.7508732805983795 21.6897150373556258 8.3944703960133431
1.5704151277563942 21.7881373837446262 8.4511332472204366
1.3948626543357463 21.8923913907339553 8.5082424068940448
1.2232814320144350 22.0013720056788529 8.5643913759854922
1.0536625139515614 22.1127538962907693 8.6179144894290651
0.8831939591367579 22.2235885581884922 8.6674743316792693
0.7094509616396159 22.3310697420871769 8.7122076175937533
0.5312473591027087 22.4326750467449543 8.7515289906930995
0.3482901117427573 22.5256750590641346 8.7851277322007562
0.1607107483042305 22.6062547608725133 8.8127727442227481
-0.0305474401225108 22.6685150071620640 8.8334386978724027
-0.2231143539696347 22.7044345105621161 8.8443237229864788
-0.4134221263482134 22.7063770118989581 8.8411881844430873
-0.5982457494171132 22.6720026183598478 8.8207046990689673
-0.7768275629237809 22.6079406259848739 8.7832711662994249
-0.9519306824052500 22.5283276987139338 8.7338793842413232
-1.1285270267623715 22.4493186476771847 8.6805958932271547
-1.3109285926234922 22.3840928697405452 8.6320890215503425
-1.5006552549248653 22.3407297445631770 8.5954633271211502
-1.6963905430686239 22.3223069520366195 8.5749213517245728
-1.8953492927023934 22.3281280771673849 8.5714222674365459
-2.0946663607493754 22.3553946897057827 8.5832899653193238
-2.2921909662200521 22.4004520545022991 8.6072495392681549
-2.4868972419091069 22.4589709372548789 8.6391929994903833
-2.6790271173356803 22.5252112835823119 8.6743055877107640
-2.8697637784891725 22.5909885088517939 8.7067018178531566
-3.0604738253443804 22.6453196881092289 8.7293618060507416
-3.2515797483456144 22.6759603344168568 8.7352538934876041
-3.4414193813272220 22.6731371407391222 8.7195459045861519
-3.6261959926667497 22.6333715136306566 8.6814000702269283
-3.8015712098956111 22.5600381437992539 8.6237592810008117
-3.9647130555954799 22.4601898192375842 8.5512931507922332
-4.1155122806341238 22.3409855821303367 8.4683020288652635
-4.2565970707703684 22.2083498235788106 8.3778617614038602
-4.3920962583091780 22.0671823645091649 8.2820017883839405
-4.5259102966038336 21.9215302231687801 8.1821401422671194
-4.6607118660480582 21.7747339556300545 8.0796054761811824
-4.7981117715704391 21.6298967387888048 7.9762452968139410
-4.9394668441958611 21.4901040888359844 7.8746423149238396
-5.0863223960056043 21.3579847500823590 7.7776222629860650
-5.2405032181932434 21.2351887243115556 7.6876609723440250
-5.4041122988873775 21.1221949753268206 7.6069753311808954
-5.5789116261146559 21.0183109588509325 7.5379173673596496
-5.7651954970222299 20.9219914781413046 7.4830232108938599
-5.9610868351182873 20.8316807095687793 7.4447774483740039
-6.1631421762041452 20.7467980201118039 7.4251252956479421
-6.3682140394133544 20.6683484338442298 7.4245532996035211
-6.5750906286934683 20.5988776906943372 7.4414162832915727
-6.7842593666776789 20.5416323984932205 7.4724175558735277
-6.9960211959523022 20.4993428298171168 7.5138449994706056
-7.2091260878718710 20.4733062018723402 7.5625157519512154
-7.4214139936880841 20.4630290406519819 7.6161499868422569
-7.6313958740264098 20.4663729405046659 7.6734432777511117
-7.8390246557291015 20.4799435819614999 7.7339635826716542
-8.0451085884604989 20.4993611219762251 7.7977441073449736
-8.2500471034877201 20.5192455415459278 7.8645327717678581
-8.4530532073542854 20.5330685555220889 7.9330629730650024
-8.6521700689642582 20.5331600281565727 8.0007566009453832
-8.8442410551822128 20.5112007048296583 8.0637831813704768
-9.0248531158397576 20.4596150355827788 8.1173426020495185
-9.1892919093216321 20.3738467483326673 8.1564320092805360
-9.3345899733172093 20.2544161010053969 8.1772932523080257
-9.4614124964922741 20.1071245559499587 8.1789832712854516
-9.5742351097209202 19.9409420547172189 8.1639966435411786
-9.6796401481756273 19.7649848623939164 8.1374060187661197
-9.7841817907654676 19.5863537783996371 8.1051647667614226
-9.8930168569278312 19.4095492436916643 8.0726458611004368
-10.0093501944484622 19.2371233339919208 8.0439112007496192
-10.1345017167934888 19.0706618969425463 8.0216536230679800
-10.2684367176590570 18.9112474158029222 8.0074524284175315
-10.4103492616161741 18.7593004843103088 8.0020045078240809
-10.5588537631915909 18.6142257312552317 8.0052355542319553
-10.7117108966747612 18.4741731636785005 8.0163060104846373
-10.8654100891689005 18.3356786516766022 8.0333827843287686
-11.0145050153766082 18.1930989348913030 8.0530499820673747
-11.1506076235746345 18.0385083378985982 8.0698187449702097
-11.2622411706408290 17.8637161306748311 8.0768402615098118
-11.3374912610733176 17.6655529296115361 8.0682205778541061
-11.3696250454021985 17.4505834182863495 8.0414633633733814
-11.3616743927297357 17.2319458407524664 7.9979146991296384
-11.3251758473069248 17.0197957396410331 7.9411690657942344
-11.2743485888219706 16.8164296113293013 7.8754403174084340
-11.2211415694654644 16.6189616613197018 7.8048671617119343
-11.1737105682657578 16.4239793714411810 7.7335741533427038
-11.1369607853873784 16.2305120834536041 7.6660128466216220
-11.1133447697423797 16.0404571259959994 7.6068741122438857
-11.1034991686625748 15.8561028259717318 7.5601377748746996
-11.1070556682146471 15.6762636726320359 7.5280003909920996
-11.1234858206844738 15.4954538025193109 7.5108192019261173
-11.1522835180438218 15.3082965188782598 7.5080095569548400
-11.1924904641749254 15.1140777178095824 7.5186912985530112
-11.2424905660735526 14.9161726049657588 7.5416453878779812
-11.3004703933811417 14.7183963431312232 7.5753011827655499
-11.3649852374286002 14.5227394753497716 7.6181211044447679
-11.4351107597439370 14.3294207639353495 7.6688831544364922
-11.5102292843002800 14.1380446771502370 7.7265208259395157
-11.5898718997513086 13.9485671935020878 7.7899570707226973
-11.6737256061615202 13.7614322722945257 7.8581934016462789
-11.7614471342144409 13.5772345207668383 7.9301759249556856
-11.8523114790047490 13.3961319768283627 8.0042251619481739
-11.9450531917164096 13.2171662369769685 8.0775779849368927
-12.0378305762514994 13.0380889249773571 8.1464078871536856
-12.1281182164034416 12.8556542319721832 8.2060465737220056
-12.2125336678785974 12.6657728732085442 8.2511415916831368
-12.2868799681243477 12.4637342866436249 8.2761828424370627
-12.3468344581312781 12.2457871018222857 8.2769393971274905
-12.3891533677538668 12.0126734948786638 8.2524299708164399
-12.4126903198882879 11.7718859674449750 8.2060663660467075
-12.4186198666456082 11.5339179346449452 8.1444800525652692
-12.4099333061434596 11.3050721162939407 8.0746372687280523
-12.3907099560992169 11.0854260957136148 8.0018524433041289
-12.3654735101248754 10.8721423725760715 7.9295271995449434
-12.3385098586645157 10.6620871559402755 7.8595802312157810
-12.3132855208522241 10.4520799877814206 7.7929521691945975
-12.2923394703700968 10.2390823481488784 7.7302315166765396
-12.2775339400506436 10.0211571852839523 7.6722124475591205
-12.2702254358711382 9.7983482038165786 7.6201124838234602
-12.2711566750292445 9.5727195959848466 7.5754653690212743
-12.2802208004841837 9.3471356974680813 7.5398531215764120
-12.2963995049873382 9.1231719661486572 7.5146337613511225
-12.3180994021767649 8.8999938513837886 7.5007781595891974
-12.3438430043638334 8.6756083022767179 7.4987563563707527
-12.3728850955875576 8.4491690984534245 7.5083386574355222
-12.4052149257045894 8.2221171675167817 7.5284921572173360
-12.4410710757145839 7.9974056676472625 7.5576795192547470
-12.4806901520292417 7.7776426678065524 7.5945204596261222
-12.5245042671956934 7.5635719747412544 7.6383810144017614
-12.5732945345231606 7.3538322554814846 7.6893464588371900
-12.6278968230751527 7.1460781590069304 7.7474760262114621
-12.6886673732262789 6.9388150069475136 7.8119797038568271
-12.7552003809397458 6.7325322500674840 7.8811834030021153
-12.8264550785335629 6.5290404041382111 7.9534039838563775
-12.9010870521738994 6.3299407094752329 8.0277141579211886
-12.9777198267560401 6.1357518497751293 8.1036731446190338
-13.0550598877910264 5.9457702828710852 8.1805095027354469
-13.1318642649379882 5.7582265250076698 8.2568030969324369
-13.2068751117463830 5.5705796690411908 8.3307241905098373
-13.2788000040134158 5.3795338875183392 8.4001695981456415
-13.3459953717406670 5.1807471462727941 8.4624626274232497
-13.4057934171920614 4.9686580083598777 8.5141595474447413
-13.4541390937198528 4.7379602482565399 8.5517066504947277
-13.4862959419905692 4.4883535995946424 8.5728738633831441
-13.4986857968342360 4.2289117002878891 8.5780019911321315
-13.4906248675202871 3.9743400700307463 8.5698935547688322
-13.4643726924538676 3.7344810885468647 8.5522343844594229
-13.4236193036418037 3.5091038955950911 8.5278565607809345
-13.3720489903100628 3.2918081319088754 8.4981326438613447
-13.3128249493515831 3.0760164637334668 8.4635404651251243
-13.2485217839956988 2.8576872075446076 8.4245399991788013
-13.1811076219797343 2.6351893060489733 8.3819814957345145
-13.1122032279637182 2.4086141638233194 8.3370012740097454
-13.0436283902753836 2.1796543486669702 8.2908921336516528
-12.9777076097700501 1.9515878055892291 8.2451328886086497
-12.9168670103675911 1.7281645176106757 8.2012491757814558
-12.8627264938937813 1.5113158167116190 8.1603346436004092
-12.8155360427154612 1.2997275770204872 8.1227056068812651
-12.7745386887283949 1.0899185156302291 8.0881530989618486
-12.7387981149555714 0.8783900482644587 8.0564731202579907
-12.7077433606013610 0.6627816916693519 8.0277383290415329
-12.6812813580961858 0.4418098431218542 8.0022245193976218
-12.6597156177013748 0.2148605413576909 7.9802429956427234
-12.6436598650378631 -0.0181488318426730 7.9620593832338393
-12.6339454660547936 -0.2565412777132785 7.9478859874667629
-12.6313661361672533 -0.4986416614545970 7.9378948683054329
-12.6363549142676828 -0.7423353724525654 7.9322375506411396
-12.6489522832083843 -0.9867668490916337 7.9310709255801459
-12.6690350983021389 -1.2334122851745324 7.9345708735137892
-12.6963384230585650 -1.4838786873584802 7.9428922267572650
-12.7303262547128391 -1.7362533719180764 7.9560933901313398
-12.7704440911066204 -1.9859351188311454 7.9742425178754344
-12.8167050747868210 -2.2309333296132507 7.9977563122253450
-12.8698561643293541 -2.4743938705973783 8.0275067462485161
-12.9306505408907313 -2.7204477900300095 8.0643435208429253
-12.9989306837589460 -2.9691254798010593 8.1085266236723168
-13.0735556573734755 -3.2164932383382112 8.1597229863893030
-13.1530732528913941 -3.4581067730180237 8.2173843643349400
-13.2363461114930416 -3.6912659324869406 8.2809849696103583
-13.3227294347347662 -3.9150354387871165 8.3500199623612517
-13.4118720565011049 -4.1294268156906710 8.4239756332979745
-13.5034472092467297 -4.3348286047543212 8.5023515943022971
-13.5970811348301002 -4.5317956764339318 8.5846687619952018
-13.6924467530055178 -4.7209697636107109 8.6704616644315244
-13.7893718436872348 -4.9030355075893510 8.7592949786123420
-13.8879408655734018 -5.0786664563744175 8.8507896540694375
-13.9885635879406394 -5.2483924171872864 8.9446378342620321
-14.0919192695538591 -5.4124951331775328 9.0406195020257272
-14.1988602059267777 -5.5711164297942197 9.1386185231093364
-14.3104516827802613 -5.7246000221021305 9.2386519772581117
-14.4281432277537895 -5.8739798785474839 9.3409547466431704
-14.5537899327998481 -6.0212757949936417 9.4459760322528386
-14.6890018197734342 -6.1689405519802314 9.5538535526168928
-14.8337583814332383 -6.3184452793496568 9.6633352670509360
-14.9854952409235018 -6.4694044976562033 9.7713258255172324
-15.1399490132685450 -6.6203695447218998 9.8740769713697514
-15.2930109523673003 -6.7703421974000051 9.9687727903071313
-15.4418177314259673 -6.9196160876823960 10.0537422334057638
-15.5845663960973084 -7.0696674342796761 10.1276665803077535
-15.7198663596110002 -7.2225778680418955 10.1892856083991035
-15.8464328543695991 -7.3805163909661964 10.2379688000702291
-15.9631176464727744 -7.5454762420476946 10.2743379451662413
-16.0688981385807459 -7.7191358918732007 10.3003065483830110
-16.1628402606764610 -7.9026269285922197 10.3185436354677442
-16.2443663360511863 -8.0961199434495263 10.3316031884188071
-16.3137511605406118 -8.2983610591205057 10.3411343435992737
-16.3722678829638930 -8.5066724545132750 10.3477157543640530
-16.4217327542318685 -8.7179911904037475 10.3514100006478831
-16.4638911893318358 -8.9306090271336025 10.3524739034725073
