BEGIN_0
-16.4337426169094698 23.3333443772823657 4.2773372198224724
-16.3448216216602553 23.4800286431417184 4.1259065365054362
-16.2459542689889780 23.6345244388352249 3.9867066378058205
-16.1381057170685338 23.7953288201170139 3.8626782600933929
-16.0225449579631665 23.9603192646007486 3.7562562519727756
-15.8997571557109936 24.1282697614019312 3.6686584731319485
-15.7686513653567779 24.2996926950707177 3.5996154039606179
-15.6271019016575323 24.4759840634953534 3.5479419560063743
-15.4734299675379745 24.6577523124259343 3.5123520518129645
-15.3076608886960273 24.8436334663446559 3.4919185008530320
-15.1318924418008329 25.0300900577840011 3.4861363635576801
-14.9496581618368936 25.2123430837200004 3.4947281106477099
-14.7646246880556546 25.3860096340820256 3.5173615357530394
-14.5795369245669129 25.5482799855799598 3.5534953664336513
-14.3959809295591654 25.6980129729083195 3.6024135264238044
-14.2147685581771483 25.8352362822670258 3.6633250392120793
-14.0364127548740498 25.9606773071915846 3.7354141005262065
-13.8613042936603996 26.0753848837009343 3.8178403044220097
-13.6896234601250892 26.1803489398631228 3.9097225334767778
-13.5213360084335807 26.2763801482350345 4.0101105700541417
-13.3563449839054798 26.3643152803470500 4.1179789105391080
-13.1945982125901526 26.4451712264386245 4.2323046742582076
-13.0360838729731601 26.5200305273988981 4.3521871056947177
-12.8807554009146674 26.5898058615599311 4.4768696234121652
-12.7284358138188960 26.6551692609061135 4.6056679726516681
-12.5786992268383777 26.7167100749524451 4.7380022007764442
-12.4306426384463347 26.7751891333637033 4.8736812398007494
-12.2825357686807841 26.8317419599235194 5.0133250241738700
-12.1317320450488850 26.8878819281679498 5.1584493139480383
-11.9754905264461780 26.9450749828761573 5.3106136194103684
-11.8125918446029328 27.0039463363399221 5.4698335222563514
-11.6441836857085814 27.0637718163090497 5.6337033035626369
-11.4726915437457127 27.1228647684900785 5.7980792614303276
-11.3000145136822265 27.1796509546941465 5.9581261366229494
-11.1267113038737264 27.2337101253148575 6.1088504528084275
-10.9523438806056124 27.2860313367585441 6.2457958690050770
-10.7761045277954590 27.3383286444053653 6.3660135333804746
-10.5970717306926403 27.3922940913522304 6.4681519365153530
-10.4142353475098819 27.4494853136505768 6.5515793174446326
-10.2268191561791895 27.5113367971617464 6.6159296839420740
-10.0348967389221695 27.5787147187605441 6.6616484720264779
-9.8396432061808845 27.6515204217110266 6.6905379989899210
-9.6428986487634702 27.7290270870263313 6.7055263439009494
-9.4463798623604465 27.8106142174024917 6.7099625876314395
-9.2510058062723974 27.8962442793717074 6.7069923115278165
-9.0567949351680159 27.9864329367277520 6.6992026653686274
-8.8632577016612046 28.0817683149261228 6.6885133209410572
-8.6698713803947651 28.1822522084802500 6.6763234722288125
-8.4763815242045428 28.2869311362041387 6.6638864963927560
-8.2826550273291968 28.3941808922357275 6.6527181773106037
-8.0884263017676350 28.5022330111353028 6.6448590426453151
-7.8935931672510335 28.6092927435740449 6.6429122494572734
-7.6987175376759538 28.7134266602486043 6.6497250945410737
-7.5048914953459995 28.8126964412395559 6.6677838716310216
-7.3128877224589601 28.9056257344111849 6.6986828385136867
-7.1224862536446452 28.9917261415395480 6.7428445741297534
-6.9327320409908086 29.0716402265781113 6.7994671680238703
-6.7428987297950194 29.1466655193377306 6.8668049267552025
-6.5530448804820711 29.2180987176888998 6.9425901592552233
-6.3635891754503131 29.2869427390281771 7.0240321616078232
-6.1747454508028081 29.3538785013844823 7.1071957801867169
-5.9863573087976629 29.4193357038802752 7.1863825090604294
-5.7979582672099692 29.4835919316479966 7.2541139273285546
-5.6093338766411671 29.5466379200010039 7.3015229620080175
-5.4216184735904234 29.6078375415569504 7.3191736136599728
-5.2380378946516712 29.6656848056087412 7.2988926226127395
-5.0635262716534806 29.7177939190925748 7.2363369512646836
-4.9032908661773185 29.7612924739972513 7.1327641777430504
-4.7609810112192470 29.7937150216754958 6.9945673544943858
-4.6372462180149396 29.8139741269100398 6.8306461769752991
-4.5295312977331381 29.8228422110613138 6.6492215812563771
-4.4331751334421048 29.8228321828345564 6.4559660219896120
-4.3430106815481659 29.8176135966966669 6.2542138944135210
-4.2544510274993037 29.8109611346006211 6.0462925682971633
-4.1637004245194618 29.8053767041762008 5.8346448503544170
-4.0674881515923147 29.8012383476352980 5.6222798652215467
-3.9628119890520663 29.7972388207908594 5.4127233519496194
-3.8468638721866109 29.7916058909215415 5.2097842158761427
-3.7171460553048785 29.7830633755460852 5.0173824515033942
-3.5718226090490468 29.7712217297331279 4.8395119554279908
-3.4102850986032642 29.7567259688612040 4.6802286381107656
-3.2335298161266604 29.7413261659285411 4.5434157230921191
-3.0436377902619771 29.7275607463316796 4.4321347085510698
-2.8424033382585714 29.7177847635012959 4.3478493109295009
-2.6306594831439423 29.7130535731673397 4.2903125701698208
-2.4093749724192719 29.7128258064938464 4.2584013332665798
-2.1809551747742990 29.7156370467436339 4.2510669137143875
-1.9491055382983493 29.7199598881727951 4.2676292083913570
-1.7181855645317827 29.7246477817967723 4.3074777333194287
-1.4930722114886201 29.7290326891608885 4.3696810625336511
-1.2784655171032568 29.7329223947064065 4.4528879357774969
-1.0776961198308532 29.7365322469593210 4.5554541233110815
-0.8922473497820560 29.7403554849803449 4.6755698927434644
-0.7221468484882649 29.7450104943448927 4.8113944842497318
-0.5665240781385981 29.7510432268599878 4.9612092209020311
-0.4239347001235143 29.7587095657195171 5.1233753683412431
-0.2925150885768950 29.7678832973340839 5.2960654890699175
-0.1701248546350516 29.7781423232124673 5.4771223425645257
-0.0545558065361802 29.7888782880021630 5.6642731562133548
0.0562470712759429 29.7992806471952214 5.8555167359100189
0.1640375049672067 29.8082100478064085 6.0493971862295517
0.2701931685180878 29.8141190217259791 6.2450327569723090
0.3759272764443358 29.8152413671767285 6.4418773837424990
0.4829470463973786 29.8101178914486411 6.6391951326174325
0.5938769074718604 29.7982313315491893 6.8351551280199381
0.7117675920798396 29.7804369759516518 7.0257074440273515
0.8394824561143142 29.7590984815669160 7.2041178924841489
0.9796525913159910 29.7381051038115345 7.3617227622401264
1.1342172381429076 29.7226960026398466 7.4891057030467874
1.3030901559254500 29.7184112468007307 7.5774172224925707
1.4834143808367994 29.7286538598041972 7.6209445524614976
1.6706902552819969 29.7520610590963557 7.6203174086902177
1.8610380444438914 29.7822287715155802 7.5832300003703459
2.0528140450015653 29.8104127219992421 7.5216126936848573
2.2464326785658764 29.8290814409292828 7.4478223294903056
2.4428545992391539 29.8339148797631317 7.3724570107818685
2.6424145098260285 29.8238409308241685 7.3039388857848007
2.8447036509652213 29.8001331416705355 7.2488115090658498
3.0486356109319983 29.7653314278180900 7.2121323757385314
3.2521651549915052 29.7220695729063280 7.1977344787805988
3.4524599278989978 29.6721679523617929 7.2081383832117929
3.6467915975592304 29.6164772318552032 7.2441554690916847
3.8333625379866327 29.5553524542773118 7.3044895844831128
4.0117896808382563 29.4892295512181164 7.3854670427093314
4.1834142700953976 29.4190716461124175 7.4808063588203932
4.3513552253048893 29.3467819777741212 7.5815110778581083
4.5199560441726190 29.2755367621479614 7.6761727444399499
4.6935862816587930 29.2097067598742974 7.7520298071725184
4.8750164923894177 29.1539899154412758 7.7972262832554060
5.0640616787431814 29.1117700052206168 7.8040876307709768
5.2577483710763362 29.0835722601481663 7.7714424961269906
5.4523461681405312 29.0668796813098034 7.7037512250232698
5.6452196143185374 29.0574864422722463 7.6078814162715780
5.8345994363582765 29.0512379166452526 7.4905806613188313
6.0184844675012847 29.0448268181214502 7.3579859053666921
6.1948356431843479 29.0354539842960406 7.2160804574197712
6.3630792425049378 29.0205618989379630 7.0704682566518855
6.5249971653776297 28.9984853719904869 6.9253064694714865
6.6839196013029962 28.9692397610562686 6.7828334137205815
6.8432554634037039 28.9345056346637257 6.6439549035514318
7.0056384724843657 28.8966882162281635 6.5090629103843956
7.1727271225630496 28.8573612453422719 6.3785555567473935
7.3452329312532685 28.8159956994225901 6.2530855962440164
7.5231271276793077 28.7699914334896256 6.1336298863448881
7.7060355381462884 28.7158731955096869 6.0214360969621978
7.8935690341719651 28.6505302097520484 5.9179207795852697
8.0853440512854515 28.5718675103794268 5.8245779997568103
8.2806704913328186 28.4791949560096711 5.7429060630820548
8.4781141233780417 28.3738350575224985 5.6743153403924040
8.6754408797371632 28.2596939601456185 5.6199783953336695
8.8705023549346098 28.1427258148462620 5.5806663782855832
9.0626446992592768 28.0287134476570898 5.5567450926636788
9.2529555545337878 27.9208095447751532 5.5484434005315926
9.4427362941824047 27.8190532823091807 5.5561583967328527
9.6320592539487180 27.7218837461228205 5.5804577413853327
9.8196655461921019 27.6278676019435636 5.6218475971372222
10.0037123760819107 27.5363339959698123 5.6805070296659466
10.1828008662280816 27.4469495266527304 5.7559881745534458
10.3564736947623111 27.3592256811323296 5.8468113744579124
10.5248026698882970 27.2726296553007614 5.9500259174405095
10.6880446126118613 27.1869034498992974 6.0611067978296695
10.8472039236275233 27.1019876467703362 6.1745719142858722
11.0047088766299108 27.0177021452134980 6.2846129553410073
11.1641930991594105 26.9336835837735364 6.3847420823515417
11.3293999397788809 26.8497025786925789 6.4671455141415919
11.5026926296743994 26.7660581153844106 6.5233493483470113
11.6838000518036225 26.6836500939557801 6.5464688585880602
11.8698896599530812 26.6034859947768041 6.5336575500049019
12.0572838457821288 26.5259123120883835 6.4868658641182684
12.2432100405696183 26.4503155286403455 6.4113639659471602
12.4258881217065564 26.3756373434313360 6.3136488687528747
12.6036831144377643 26.3011112606017008 6.2003261479761527
12.7750960714547741 26.2263628478820756 6.0775264074733393
12.9397265793257130 26.1507978890015913 5.9498602434266594
13.0987759222444939 26.0731054254447940 5.8195767337930793
13.2543035078728426 25.9914380330468830 5.6872347755887063
13.4082191856583641 25.9040062162014308 5.5533831783748226
13.5619860483740293 25.8096648162200850 5.4195105396429497
13.7168433109461390 25.7080747807486780 5.2875681915067734
13.8738490421850837 25.5992324410458174 5.1590282003732000
14.0336203011481153 25.4828744700032850 5.0347434273091523
14.1962493251268409 25.3583996331533505 4.9157779679013309
14.3613724757523968 25.2253831942059641 4.8041880862706776
14.5277890120835771 25.0842954704985424 4.7027963817875147
14.6929316739106319 24.9368459824729740 4.6142891423943482
14.8534908233894356 24.7853879219685354 4.5403871912879694
15.0073557238893081 24.6313875345021884 4.4813532151606061
15.1549251530056210 24.4742925766289048 4.4361461963303448
15.2981682518388062 24.3120990398611809 4.4033509823991537
15.4385659268603899 24.1428786648450959 4.3821581588590774
15.5759784624038335 23.9657960042379976 4.3727168983068729
15.7089778320462443 23.7811627076585381 4.3758759195913868
15.8357901854702714 23.5901887554741663 4.3925888642427235
15.9548587416073797 23.3951713081956214 4.4233158512782271
16.0649442819845518 23.1996238055142570 4.4678598608830971
16.1653825364906609 23.0072868715955003 4.5257448918529342
16.2563918197639836 22.8205850130549308 4.5967222950436497
16.3390111811422649 22.6397700231866992 4.6810979230437990
16.4145942377425662 22.4631397193786206 4.7797377177225950
16.4840606037453092 22.2882516133918429 4.8934634578661100
16.5473387676134180 22.1136604848337370 5.0218966150511264
16.6035900094359548 21.9398815776663056 5.1627218417599252
16.6522233154886230 21.7686901833732165 5.3122285610197455
16.6937746806720284 21.6016783713593696 5.4665427751255695
16.7299991352106865 21.4393075072976984 5.6224910386139104
16.7634764508798924 21.2806581308087530 5.7777656818594245
16.7972923486455521 21.1236968043166904 5.9305428696526352
16.8349659514259429 20.9661412269042025 6.0786588415832110
16.8803401749770963 20.8065943050601696 6.2185983169982091
16.9371944207575922 20.6449428712076326 6.3450489007702640
17.0086788346432378 20.4817587873458606 6.4515958760419512
17.0966327116616661 20.3178580570071645 6.5320831124328063
17.2009578989351510 20.1545080765282734 6.5819245310149466
17.3195462137489571 19.9932892134838447 6.5990984780349056
17.4488645690466271 19.8352679132896874 6.5847149282154600
17.5846598463162742 19.6805387715494540 6.5429474459086983
17.7226569135630996 19.5284870981404168 6.4801891246512788
17.8593722268860517 19.3781929747590596 6.4035490186987776
17.9926601993460942 19.2287695285099076 6.3194254376415753
18.1217822636987407 19.0795077921520289 6.2328989788122922
18.2474183924062032 18.9294570399974305 6.1476913329310392
18.3714937400817249 18.7768940090301015 6.0662233978831068
18.4962404722656579 18.6195549267012446 5.9899672706369849
18.6229218143642470 18.4555686249241901 5.9201600642159331
18.7512054436917985 18.2844696105197215 5.8583375387582368
18.8795280219367925 18.1076233717040083 5.8062449315158968
19.0061050392413975 17.9273901501746771 5.7653122290134622
19.1299448658201499 17.7452951365228984 5.7362484732845544
19.2510977055916506 17.5609774423171174 5.7191207615563489
19.3698804774889766 17.3732202579854764 5.7137130463009349
19.4860196567593817 17.1818454609536815 5.7196197037136418
19.5986231750599948 16.9884085001848568 5.7360833026480531
19.7067387065471067 16.7950629324040861 5.7621810575603458
19.8097412150598657 16.6027184592670913 5.7974084824869969
19.9073077903536237 16.4102802484051296 5.8418818928434817
19.9991758572306573 16.2157956866533866 5.8957687909886953
20.0848382027696566 16.0185613368337663 5.9584849071693551
20.1634787298161839 15.8201181988010582 6.0285038804713533
20.2345015868771441 15.6230868971473278 6.1039760905137381
20.2982476091843260 15.4291439280957814 6.1835237296906556
20.3561251252152928 15.2379122674298610 6.2664691993167612
20.4100747818736821 15.0474330165749652 6.3522275213184276
20.4620251917844627 14.8556826829833213 6.4393732702933839
20.5138201710867278 14.6616989407096785 6.5252509556919644
20.5674917245786659 14.4656545645119579 6.6062324889716386
20.6254636694861304 14.2687503987726831 6.6780402330220490
20.6904141023981651 14.0731315379429702 6.7361054565164729
20.7647148520437668 13.8811502246861451 6.7762753595829608
20.8495333125115501 13.6943298422645832 6.7956677453057130
20.9442316453080828 13.5128872526180857 6.7931976876354554
21.0467702802491807 13.3358264996961147 6.7695261805460945
21.1547221376241481 13.1613027375919209 6.7264614837194969
21.2659899423259091 12.9873374249425027 6.6662523037339483
21.3790953113176982 12.8126731121259425 6.5912508682678990
21.4932203684570133 12.6372144579216865 6.5040420597249859
21.6078982526029186 12.4619184239007463 6.4077526963391751
21.7224586664477819 12.2882846731465154 6.3060941509277626
21.8358435005806300 12.1173671857889964 6.2028997899567617
21.9471582344371363 11.9485927793366944 6.1012463890233413
22.0563171755176768 11.7794735771419603 6.0027826459352074
22.1639295068349220 11.6066704641439244 5.9080028271287066
22.2706626619725157 11.4273216038823691 5.8172285677994733
22.3767930965704736 11.2397581889082865 5.7313247436643078
22.4820848644534195 11.0438246836823364 5.6516780524173296
22.5857007116786690 10.8411116751662497 5.5798140511340808
22.6861019492637510 10.6348157753293151 5.5170791643257449
22.7813916829008001 10.4286030234907123 5.4643442495387262
22.8703054246125461 10.2245549125989381 5.4216961280692129
22.9529690083165434 10.0219031452760490 5.3884925020261019
23.0304662964954545 9.8180531646487577 5.3639257849954305
23.1036776965378863 9.6107344122763951 5.3475486147914868
23.1724879882431907 9.3993611102335421 5.3393668948599213
23.2358857674259127 9.1850523390908219 5.3396774027817422
23.2926253350280277 8.9697729942929669 5.3489014790225546
23.3417479918495481 8.7553208076251750 5.3674848746334352
23.3827259585181544 8.5425879687322848 5.3958994318150673
23.4154465692896778 8.3312390275039583 5.4346892207231683
23.4401499148037260 8.1204292054771177 5.4842840285297925
23.4572710094432715 7.9105096972693563 5.5445069363314907
23.4672085918918114 7.7037780734497865 5.6143065304841677
23.4701902161633349 7.5028194562840289 5.6922315247500883
23.4663113342239775 7.3083125752358464 5.7771650385645579
23.4556980789851224 7.1190565911576229 5.8683674070684315
23.4386504359204935 6.9338055883135317 5.9648922588509450
23.4156033309531928 6.7521037569936135 6.0654017920768748
23.3869375176762873 6.5733987891755321 6.1685504654501422
23.3529426281761907 6.3959109637510565 6.2731305454244826
23.3143788795277160 6.2162674455459772 6.3775005927712503
23.2737445185650458 6.0295449744677168 6.4788928580910952
23.2366748481539389 5.8293222224284031 6.5736787887062853
23.2123057702760569 5.6093489098146350 6.6587278305485764
23.2111847196950656 5.3689672779582027 6.7327168762108549
23.2405410449218337 5.1185677922706292 6.7964429670176072
23.3001377194065142 4.8761595551646026 6.8520675559014341
23.3831285021883097 4.6551639377243799 6.9020941098043291
23.4811236785248170 4.4570948453811461 6.9487613826457819
23.5881922094642960 4.2752987230725097 6.9937706281576828
23.7014193550869976 4.1021886993713839 7.0381928514132781
23.8196752797499158 3.9328458440535012 7.0825626129853028
23.9425026883060461 3.7649162653462778 7.1270801961594286
24.0696102268218404 3.5974133801935739 7.1717899867198440
24.2007290619980360 3.4298655157294959 7.2166805214681187
24.3355893721972869 3.2619489833802682 7.2617246367686894
24.4739199408307861 3.0933737519149815 7.3068916529483348
24.6154491482496063 2.9238559682455989 7.3521502575030135
24.7599053008325605 2.7531127044080996 7.3974690461360453
24.9070166951991787 2.5808611459877593 7.4428166038662908
25.0565116270291846 2.4068184899945599 7.4881615147290050
25.2081183919400331 2.2307019343766612 7.5334723626902287
25.3615652855471119 2.0522286771445106 7.5787177317126018
25.5165806034658758 1.8711159163118563 7.6238662057586808
25.6728926413118579 1.6870808498925705 7.6688863687910311
25.8302296947005239 1.4998406759005487 7.7137468047722146
25.9883200592473713 1.3091125923496776 7.7584160976647949
26.1468920305679156 1.1146137972538259 7.8028628314313337
26.3056739042776293 0.9160614886268981 7.8470555900343948
26.4643939759920279 0.7131728644827646 7.8909629574365372
26.6227805413265948 0.5056651228353122 7.9345535176003237
26.7805618958968239 0.2932554616984291 7.9777958544883187
26.9374663353182235 0.0756610790860019 8.0206585520630860
27.0932221552062806 -0.1474008269880951 8.0631101942871855
27.2475576511764928 -0.3762130585099648 8.1051193651231870
27.4002011188443682 -0.6110584174657205 8.1466546485336480
27.5508808538256709 -0.8522197058413337 8.1876846284811897
27.6993251517403749 -1.0999797256204680 8.2281778889292685
27.8452623082657311 -1.3546212787555909 8.2681030138528531
27.9884206197307144 -1.6164271668438630 8.3074285873580997
28.1285283886957842 -1.8856801880717882 8.3461231948081309
28.2653139679469696 -2.1626631128863423 8.3841554317185505
28.3985060516540919 -2.4476585199647811 8.4214939627640568
28.5278352866043576 -2.7409478588481857 8.4581078491700534
28.6530416701452033 -3.0428069112054317 8.4939680569643112
28.7739023570342098 -3.3534872060738596 8.5290531545239556
28.8903152744817575 -3.6731519609167442 8.5633665995984813
29.0024918411124659 -4.0016920624721273 8.5969773730510486
29.1112656904743936 -4.3382950624215262 8.6300887688042884
29.2183264883874720 -4.6806627601573751 8.6631065168671668
29.3259194002944064 -5.0240547059606264 8.6966342546975035
29.4356751426926309 -5.3609637851522791 8.7313544169296886
29.5471477490041359 -5.6826409507932780 8.7679016830326777
29.6575125905074515 -5.9825869847939579 8.8069129855915200
29.7630808457660088 -6.2595834835165292 8.8491976929531280
29.8613076118220135 -6.5172835691034656 8.8957036121724613
29.9515815982676230 -6.7609185477293217 8.9471993193275843
30.0346836429371074 -6.9944759413953541 9.0040282746524234
30.1118882472936562 -7.2200828296636672 9.0662026090349883
30.1843205559962051 -7.4387560706030555 9.1336899958166136
30.2526794241122872 -7.6512236570252625 9.2066102195894679
30.3172724423824285 -7.8583386288867274 9.2852150533199946
30.3781266515829884 -8.0611131956698401 9.3697124088628101
30.4349731629232920 -8.2604198602594998 9.4600922773347715
30.4872615175965542 -8.4565336242368652 9.5561049643247706
30.5343845954296143 -8.6489261210663066 9.6574570783621052
30.5759867671308498 -8.8365586846372288 9.7641188369710257
30.6120793437391541 -9.0184595409651074 9.8764543644317850
30.6428867087988017 -9.1941472291607127 9.9949941665068867
30.6686626384470244 -9.3637023481908486 10.1199860527453769
30.6896539579231487 -9.5276362649990389 10.2509692435373285
30.7061585925594862 -9.6866844384583892 10.3866464002086527
30.7185662123836956 -9.8415361633496694 10.5253941193069558
30.7272583400333907 -9.9926893391522889 10.6663563941682185
30.7323801320077479 -10.1407070509778414 10.8103278488325252
30.7337354869054167 -10.2867180208139075 10.9595710464802014
30.7309400802742232 -10.4323294605857200 11.1164487869924322
30.7235910436989741 -10.5782604375935350 11.2815043786292240
30.7111853973400422 -10.7228085189251914 11.4524146772118947
30.6929039847856622 -10.8626021834649968 11.6254010665066279
30.6676172063224222 -10.9954104552475833 11.7980150991269603
30.6342241005204130 -11.1215826183771185 11.9698026222008309
30.5920648173377892 -11.2431669746824561 12.1406823884395934
30.5410928052789536 -11.3627182975794767 12.3097882611652434
30.4816651831360339 -11.4831864465600049 12.4759213372956452
30.4140997050453805 -11.6083945957704699 12.6385451345938122
30.3383754355694180 -11.7428606502720143 12.7981595052579156
30.2545721415892146 -11.8902585129755884 12.9554900690172872
30.1642451176402524 -12.0512232532586339 13.1097133059880306
30.0716163664810132 -12.2227499212554420 13.2577814750977190
29.9829583496401817 -12.4005765867662561 13.3965722899084323
29.9045474531544393 -12.5823795155689631 13.5258698695052377
29.8410801984414746 -12.7687078306944670 13.6492726969400877
29.7953271313608354 -12.9610759667420403 13.7724656308276412
29.7685993726576719 -13.1585899102214796 13.8998468392222350
29.7616001717675758 -13.3557977264318879 14.0318293069738544
29.7749003858526855 -13.5448676814048454 14.1656764851723658
29.8083735359811257 -13.7206865452560933 14.2990435475674058
29.8601014248526866 -13.8832211115802124 14.4315234695820820
29.9259430898029208 -14.0363085476359366 14.5629191087612888
30.0002587792282505 -14.1859397081208876 14.6913024776083887
30.0772618048675149 -14.3388446600569388 14.8133794351403516
30.1521303041884750 -14.5005178972900595 14.9268039937515500
30.2213045332729600 -14.6735723183940578 15.0324110014044248
30.2818594721589847 -14.8580542597281422 15.1345540433302599
30.3302311777553051 -15.0529614092291695 15.2386281049905499
30.3613182293435493 -15.2564969064360483 15.3466748343168611
30.3692460903023189 -15.4651605210147274 15.4543976327888331
30.3495481341104671 -15.6746166807017531 15.5530169284179589
30.3013096910829596 -15.8824215826863586 15.6354185208185541
30.2289534968937090 -16.0884089779874238 15.7015536157434230
30.1433785179349734 -16.2915502949170516 15.7593538854202428
30.0604817366097876 -16.4883515908107263 15.8223591755262660
29.9964396606617107 -16.6745722769202267 15.9056539754486455
29.9618755436862614 -16.8473102142676474 16.0202991611925221
29.9581994486731560 -17.0058634745525978 16.1693176763934261
29.9786862278481969 -17.1516188020058067 16.3487489011194640
30.0128810202573284 -17.2871128422055556 16.5513057113667656
30.0498171150998701 -17.4148669709758614 16.7683197736432597
30.0792359670975991 -17.5367835624954651 16.9900453530536559
30.0930853110266767 -17.6544995654566428 17.2075732154177139
30.0871210580950041 -17.7699588283320438 17.4160249538851559
30.0608810537232145 -17.8852308251237559 17.6155660579026012
30.0163145739008463 -18.0017011640920472 17.8089777545626831
29.9564935890575335 -18.1198051891929062 17.9985689311644705
29.8848133123819863 -18.2398358939892518 18.1856864589179281
29.8044707622172211 -18.3622250509271190 18.3715810805564352
29.7178467819598318 -18.4867619706859259 18.5573485374518938
29.6260804542729588 -18.6121723641810419 18.7429888003383169
29.5292879264671626 -18.7368173899227628 18.9270445227423743
29.4271574696824061 -18.8597457668970527 19.1075977926808527
29.3198055506890896 -18.9806584907917788 19.2830822132591173
29.2082399743140400 -19.0993140283003058 19.4521880247487751
29.0936288572387340 -19.2155322260889712 19.6140269970272456
28.9761953545193514 -19.3296874275210264 19.7684478007899038
28.8549959668661735 -19.4428336561621506 19.9159777567093492
28.7288375956026627 -19.5562358209751679 20.0576544601863489
28.5977788969663642 -19.6707789128406034 20.1947090407019267
28.4636347838106012 -19.7866499140507273 20.3279970043544402
28.3280940994052237 -19.9042254898329816 20.4578924870471255
28.1905418391576461 -20.0249955818103658 20.5840515590659550
28.0480530170937499 -20.1508335945461781 20.7041019870056644
27.8968227377113678 -20.2825317805840513 20.8127275274853538
27.7334826850114204 -20.4192538437790603 20.9031589166793736
27.5564664016178398 -20.5592057056817410 20.9699818227982320
27.3670280281733831 -20.7011966327773536 21.0106115674812131
27.1687027467734232 -20.8450883019106143 21.0248222199074526
26.9655526660863920 -20.9903505870419949 21.0138378955866294
26.7608028084721177 -21.1351157708714936 20.9800423045305884
26.5567724815251367 -21.2769029640480838 20.9268673493311397
26.3552603005526542 -21.4136919400874817 20.8584032006434938
26.1577110246176652 -21.5443906144642412 20.7787832153623171
25.9653779317845341 -21.6687466678168619 20.6910623263166222
25.7791150827706872 -21.7870802125240033 20.5957107638429839
25.5989411033467533 -21.9005016095518670 20.4904971585990197
25.4244328374870925 -22.0113720015039931 20.3738493118415924
25.2549225803819795 -22.1229082139343518 20.2495187972462567
25.0881434522695130 -22.2379856252040042 20.1270556287399174
24.9192642203009704 -22.3582611160685545 20.0179481690761776
24.7429836626607944 -22.4838405890376265 19.9316474244414934
24.5577947404887809 -22.6131461986145581 19.8730034861122817
24.3677538623235144 -22.7437934249335143 19.8407255657343384
24.1782118440554932 -22.8751548921912971 19.8280497565748135
23.9897841060484573 -23.0098786634540886 19.8266193248490339
23.7984621719799598 -23.1512398479209693 19.8310255460321798
23.6018237521094250 -23.2985690623262087 19.8403516646781242
23.4030879925111748 -23.4470496789807115 19.8560580689666466
23.2089287656138659 -23.5917959215976580 19.8783527033452891
23.0247081842323951 -23.7304178544291062 19.9036525964175510
22.8513468588227475 -23.8626168347046814 19.9243731440272214
22.6855374499889919 -23.9893710515412337 19.9305377399348806
22.5232799470638767 -24.1121025279435059 19.9121662357804006
22.3638219011025789 -24.2310570085713337 19.8619747737236274
22.2102081424803615 -24.3444193131630016 19.7776376450295537
22.0666508442956193 -24.4494139160304300 19.6619894540262123
21.9360107045759847 -24.5437837849878306 19.5209795304912852
21.8195511193784206 -24.6257505695867138 19.3611503788140809
21.7175923086994693 -24.6939030489443283 19.1875179864841527
21.6298047734596146 -24.7478551582446187 19.0027255935019781
21.5551299228820348 -24.7887034472580154 18.8077613425566454
21.4917196133617132 -24.8185220881536281 18.6029434576987676
21.4372139571019318 -24.8391090037927782 18.3873794320308015
21.3892677439176815 -24.8507649937392827 18.1569531465803564
21.3464541586905270 -24.8518135889808107 17.9042979097400057
21.3090351090785326 -24.8392347062922880 17.6226490592490670
21.2787140286199445 -24.8102214637843730 17.3126647519388506
21.2572231939008915 -24.7640351140138648 16.9868945255735966
21.2445146790420374 -24.7035441585736351 16.6660736491172869
21.2378997715948650 -24.6352714965610673 16.3701044192395209
21.2327795980729981 -24.5663280753990563 16.1086948469304723
21.2246695653492807 -24.4999867811614962 15.8765861973573905
21.2109477809119547 -24.4344678546188234 15.6586709982378700
21.1910602790515163 -24.3657914165060490 15.4412577797011750
21.1656798295732571 -24.2914840279357165 15.2195102893111827
21.1355896507364491 -24.2122171410476810 14.9967115149147450
21.1004034998480421 -24.1309730541977743 14.7789186831649673
21.0578327825225919 -24.0507394387066640 14.5698333271355533
21.0048021513852134 -23.9723109550193669 14.3690186400445743
20.9398017248868378 -23.8936564783030292 14.1734772932140203
20.8641735724071467 -23.8113909051130861 13.9805133293558814
20.7815097335138788 -23.7229950670002481 13.7901332220762374
20.6960560627551686 -23.6277290357995966 13.6054087698022084
20.6107515715519511 -23.5254318704965826 13.4296823525036739
20.5259593026176042 -23.4149061161466108 13.2632756417693969
20.4405131940500944 -23.2944005337897408 13.1042482003293514
20.3538966130405470 -23.1631668640977537 12.9517340373959922
20.2669651469119749 -23.0213558713879181 12.8074842011307268
20.1811947631005779 -22.8684057607852012 12.6758971302953647
20.0977930274936973 -22.7016887564585943 12.5635141284398735
20.0174361558744245 -22.5170579920389855 12.4768929918958627
19.9404064032132595 -22.3113947946461408 12.4185771693348617
19.8668833395569102 -22.0853729471778166 12.3846820799104336
19.7975223475406175 -21.8440192479644608 12.3673934527381277
19.7337000527927735 -21.5942659103012389 12.3594558078310719
19.6770639766415378 -21.3419789007830971 12.3564987889138287
19.6289317467896929 -21.0907738527658708 12.3568266314480955
19.5901030945157615 -20.8424620522596911 12.3602154863904143
19.5609283139850092 -20.5980366517138620 12.3666832642464364
19.5410871549969478 -20.3581812627387819 12.3756030071345471
19.5293179161146391 -20.1224951464611621 12.3855276669270911
19.5239188387397817 -19.8879860571935794 12.3949502267077953
19.5238059972288980 -19.6491579638072480 12.4033146487685535
19.5289378006477925 -19.4014277864989779 12.4109735578913813
19.5396421593666290 -19.1456582685984777 12.4180985355157780
19.5557027228451688 -18.8885640945142477 12.4240279549368626
19.5759936499709220 -18.6381051263456605 12.4276849103376712
19.5985362392181095 -18.3994791928879877 12.4281128518357171
19.6208693144957707 -18.1742577612617637 12.4245916869909596
19.6407614479097816 -17.9602017429445908 12.4166008479398791
19.6567770875232100 -17.7509460179068732 12.4036393469392312
19.6679978548974077 -17.5384597046115189 12.3850218165455885
19.6731669672746854 -17.3182203610690131 12.3601214096670375
19.6703817297140731 -17.0913214868263879 12.3288039201650044
19.6577082621377528 -16.8615724599885866 12.2915066055700422
19.6338237467043761 -16.6327852445230349 12.2490146963628987
19.5980604887486187 -16.4083107582373025 12.2020632257711572
19.5501073838646064 -16.1909403843978232 12.1508871466473654
19.4897772847766397 -15.9822344050052259 12.0949795504817512
19.4170113957048898 -15.7820373444663211 12.0332720723888649
19.3320563158288294 -15.5888422733117658 11.9645994789637840
19.2356283728660316 -15.4006856211709966 11.8879867677990703
19.1289546109251702 -15.2159913167601069 11.8026638274857874
19.0138326282285348 -15.0340882683626980 11.7082259184441426
18.8929171161727609 -14.8554151878686937 11.6051510138245693
18.7699968278277716 -14.6813145844362367 11.4952801567708107
18.6494629192106309 -14.5130997434747400 11.3814600458120019
18.5347276800816374 -14.3507545861289927 11.2660948002011647
18.4269170139266336 -14.1924750466981848 11.1499367829713449
18.3252635637582628 -14.0355478436131449 11.0325505552893759
18.2284301925105154 -13.8774118507821811 10.9136042325125917
18.1353577496561904 -13.7159453494937971 10.7934164070700209
18.0454740722676092 -13.5493346185198753 10.6726534006539975
17.9586717702683316 -13.3761315824354625 10.5519522209430221
17.8751973856357864 -13.1954198165990739 10.4319056256280618
17.7954701117091503 -13.0067250334581814 10.3132729533144527
17.7199248721856364 -12.8096783195683663 10.1971224599240102
17.6489152184374483 -12.6037653902926863 10.0846852037221453
17.5826847798599566 -12.3883963613278425 9.9769757770415666
17.5214032591347610 -12.1631925224049340 9.8746516880052528
17.4651715756845611 -11.9281883788795895 9.7783629303111894
17.4139590864032527 -11.6838824552646976 9.6890984274168694
17.3676911212513367 -11.4315662998008456 9.6080052719300504
17.3265409810477209 -11.1741983330590813 9.5359544612254261
17.2909633472845528 -10.9166525833607295 9.4733202885573498
17.2610780422507162 -10.6630740810457461 9.4198328349492151
17.2357667195173683 -10.4114706601672076 9.3742556433134183
17.2122884434141241 -10.1508675786581435 9.3343581198765353
17.1868151106556368 -9.8665512142626284 9.2978086809960132
17.1556745161960791 -9.5503732176264045 9.2634441623748991
17.1167516255970966 -9.2062113483240537 9.2316144286179629
17.0702906411245294 -8.8456189791378534 9.2032448436651393
17.0185588324488783 -8.4799509034926821 9.1787528814921622
16.9646207785099605 -8.1163096908290946 9.1578062227747594
16.9111130873891611 -7.7578791110137857 9.1397321430516865
16.8596910709482515 -7.4056939657800065 9.1239330392530142
16.8111233791346955 -7.0599447735445331 9.1100267098805006
16.7656363228831502 -6.7205672294463241 9.0978006839505490
16.7232050673553942 -6.3874355348153280 9.0871300848079049
16.6837125090813103 -6.0604116364597083 9.0779240710542943
16.6470139547704150 -5.7393553901480665 9.0701023094094069
16.6129578899176344 -5.4241263315422081 9.0635871161188355
16.5813913913043507 -5.1145839500549677 9.0583013616555270
16.5521612911205622 -4.8105877286091037 9.0541680135733209
16.5251143857223610 -4.5119971492553574 9.0511100537400395
16.5000974670306029 -4.2186716939369582 9.0490504658037629
16.4769573265028626 -3.9304708445854679 9.0479122335992521
16.4555407555560151 -3.6472540831313616 9.0476183409777207
16.4356945456039263 -3.3688808915050288 9.0480917717915901
16.4172654880602948 -3.0952107516368628 9.0492555098933618
16.4001003743388090 -2.8261031454572478 9.0510325391355391
16.3840459958531497 -2.5614175548965754 9.0533458433706251
16.3689491440170016 -2.3010134618852263 9.0561184064511213
16.3546566102440529 -2.0447503483535936 9.0592732122295274
16.3410151859479882 -1.7924876962320564 9.0627332445583484
16.3278716625424920 -1.5440849874510061 9.0664214872900910
16.3150728314412383 -1.2994017039408359 9.0702609242772532
16.3024654840579259 -1.0582973276319265 9.0741745393723381
16.2898964118062324 -0.8206313404546677 9.0780853164278490
16.2772124060998422 -0.5862632243394490 9.0819162392962944
16.2642602583523370 -0.3550524612167063 9.0855902918302309
16.2508867599757423 -0.1268585330175149 9.0890304578831653
16.2369387023601561 0.0984590783194577 9.0921597213216288
16.2222628766361865 0.3210408907890709 9.0949010661632315
16.2067060713235769 0.5410274220167821 9.0971774779045589
16.1901150525122048 0.7585591895192128 9.0989119543070665
16.1723364216247205 0.9737767352011932 9.1000275794091507
16.1532157493577309 1.1868209195838002 9.1004479514131322
16.1325931369519111 1.3978351624400833 9.1000992532782270
16.1102843206733155 1.6069778141648374 9.0989185389266929
16.0860152711095168 1.8144727849727431 9.0968805767580267
16.0592445626312923 2.0207587700923408 9.0940654690558347
16.0288095566321971 2.2267729644947760 9.0907794874068113
15.9924939204008787 2.4341462428328864 9.0876632664474162
15.9469741235372364 2.6446069074503189 9.0855626025288174
15.8887133611352382 2.8580852779731121 9.0848811246706518
15.8155130229249821 3.0709531216990023 9.0845330700183631
15.7272749118930086 3.2773335870700944 9.0813698778490739
15.6252716655320629 3.4731128160803699 9.0710309061553147
15.5112298593725964 3.6580124914411485 9.0499118850330582
15.3872390003079396 3.8341376015389290 9.0167290697897968
15.2559013724364352 4.0038129355830350 8.9725750964996926
15.1200214560661159 4.1688927958060393 8.9198034839497655
14.9822198420404575 4.3310471474616321 8.8609495748465577
14.8448573769046419 4.4919704957072533 8.7983927209165689
14.7097716877962483 4.6535717508549119 8.7343920279984495
14.5779162675653442 4.8180213245154198 8.6709796141507347
14.4497719688480810 4.9870553708899408 8.6098022493919792
14.3263054043292062 5.1610290025101202 8.5521955153998981
14.2091201973774890 5.3389139226022770 8.4993778058485709
14.0992030439231595 5.5196113184757474 8.4522681801536592
13.9957448216220008 5.7033705140240425 8.4111064508971936
13.8966627718269233 5.8917245891335686 8.3756138881514204
13.8001344746964882 6.0860983605359689 8.3456075182170473
13.7055539317628376 6.2864939288219857 8.3214720621657161
13.6134896206510909 6.4913132922718217 8.3042388010887187
13.5250937588453191 6.6984688532061298 8.2953659057962756
13.4414369019872115 6.9068887485059474 8.2963976068742564
13.3632768044941344 7.1167748208522319 8.3086131274234098
13.2914133541234065 7.3280843070132464 8.3327029653126026
13.2269551803274901 7.5392294252600740 8.3685997780906138
13.1709935255092976 7.7478972939052397 8.4156455663543692
13.1241228505040812 7.9528783317576037 8.4729567210565957
13.0862414906126023 8.1547735730407105 8.5396436227767367
13.0565947048542306 8.3550109644102548 8.6147114787030432
13.0339202788998829 8.5542226431072166 8.6966963739048957
13.0165541281330022 8.7516842929871590 8.7833892247746093
13.0023931732083415 8.9464456442986613 8.8720206390492162
12.9887335254586525 9.1386764260873594 8.9596394308341942
12.9720676553355041 9.3297162774702134 9.0430825356415205
12.9480808138465857 9.5209501955189442 9.1184584743722237
12.9121065808997724 9.7126685749366839 9.1808919117372305
12.8599608369722667 9.9036268092583022 9.2250422262422251
12.7888765202601906 10.0911224854777348 9.2461080013145036
12.6983426493228535 10.2717556083195625 9.2411106055074175
12.5905460607018771 10.4430367269191766 9.2102416716387125
12.4699882782736378 10.6047275433244472 9.1572866485939954
12.3421477642283772 10.7589118208228438 9.0883891915425536
12.2119103858748481 10.9091734010267825 9.0101357335092764
12.0827190713134165 11.0595513626870670 8.9283381107812971
11.9566077717553902 11.2135821723658236 8.8477106105988987
11.8346427067424802 11.3736624714645806 8.7719176776235912
11.7173976297732363 11.5409389032023331 8.7036864812817996
11.6051727875038644 11.7158337479681798 8.6448009973802673
11.4980472177200870 11.8986200297653042 8.5960918244926461
11.3960897515307220 12.0892897640419541 8.5576207402253210
11.2995587168833094 12.2869340050041451 8.5289236786357279
11.2088037666431983 12.4895325092287823 8.5092225599854672
11.1238625004023692 12.6951289626882051 8.4976740621880147
11.0441010862724180 12.9037937461454106 8.4935988820053261
10.9685610073486028 13.1175027198509220 8.4966013252629331
10.8968921858076975 13.3374030477232637 8.5065066803599780
10.8298444580997231 13.5617364317606715 8.5231511182840620
10.7687473329771617 13.7867923750802284 8.5462029996299922
10.7146866797690770 14.0092172788899063 8.5751320934086497
10.6681703762644453 14.2273198996807171 8.6092912171163363
10.6292256949654931 14.4411698704147042 8.6480576964600786
10.5975453008647502 14.6523590886086961 8.6909827476120860
10.5725736200858584 14.8636115332249101 8.7378011106423266
10.5535761484961892 15.0776504397946773 8.7881626126911332
10.5395672889764178 15.2954107856544930 8.8412688689154919
10.5290405871039159 15.5152588188750649 8.8958272490967119
10.5197108546250604 15.7343793953278706 8.9504644230156103
10.5084753661317265 15.9508847716571616 9.0042503006443848
10.4915805261850767 16.1646020553614846 9.0568371137695536
10.4649362551935621 16.3759135971668108 9.1079985042367397
10.4245256119452261 16.5836391139639332 9.1569096703888633
10.3667693160282628 16.7841167305472574 9.2016793876312839
10.2887562739895344 16.9727383415534874 9.2394049426785489
10.1885672750906018 17.1464466690419286 9.2668131527797915
10.0660581774094293 17.3049887877809532 9.2813174583991689
9.9237740987800525 17.4505548798535877 9.2820148161716318
9.7669177191826577 17.5867881066183678 9.2700232549593160
9.6018980162702050 17.7176968948656111 9.2478833284549840
9.4342566310582860 17.8468193569668330 9.2184852218922035
9.2675129055716390 17.9770914229222356 9.1843611082498278
9.1036113264727394 18.1111984088781206 9.1477351577012591
8.9439870965569739 18.2515037861053742 9.1109823542256656
8.7899467435756566 18.3995295746769827 9.0769550318563432
8.6422506918474404 18.5558737596883141 9.0488739451225833
8.5010895719132975 18.7204908853261358 9.0299062689479754
8.3670636620113026 18.8925814217124426 9.0226330711867906
8.2420194663388884 19.0704171238748401 9.0285980451331600
8.1285272963778894 19.2519227100692021 9.0482066221894435
8.0284935602159919 19.4357724974684416 9.0810112927984719
7.9423553826749753 19.6217878055778527 9.1259930137181726
7.8693544670032916 19.8102549072592815 9.1815907106864607
7.8080315127427973 20.0011097743398025 9.2456849129209004
7.7559796408306410 20.1936833881508200 9.3156914595594884
7.7090404025131010 20.3865534464774996 9.3885525400688330
7.6608114987681430 20.5771520248571136 9.4605391048884151
7.6030147819201943 20.7612141663603360 9.5270496830473412
7.5267794065947831 20.9319594720532720 9.5825718966678721
7.4247408659972880 21.0796160642635684 9.6211890988539448
7.2935711450593024 21.1930901427811200 9.6380202507599151
7.1354938339684031 21.2645869553678963 9.6311933701006893
6.9571308818682462 21.2944805941416746 9.6031945765729994
6.7660241543229116 21.2921227443656846 9.5604899787279223
6.5676723798392640 21.2721043312942797 9.5113796136756541
6.3651415627514503 21.2496688217187142 9.4634154539512636
6.1604885427540879 21.2379487045230348 9.4222469312054784
5.9562533360190146 21.2466133061653863 9.3924736042127925
5.7558929144091753 21.2810455977754529 9.3786724291671213
5.5630715914729834 21.3422343493139124 9.3845595231688108
5.3805678193106772 21.4276054583918949 9.4108047333833227
5.2094451364680507 21.5322802994269793 9.4540813090328548
5.0484645476817516 21.6501692211272427 9.5086422209498664
4.8938992009052296 21.7746281703539957 9.5687487570716385
4.7402808870790025 21.8984895348768198 9.6297668433178707
4.5820379152395923 22.0134858964504403 9.6878532513579749
4.4150737840854308 22.1096852095948648 9.7393505751106701
4.2376998449414849 22.1759491359923047 9.7805419656739119
4.0513836025569745 22.2022273889207611 9.8079698696577218
3.8609352967432478 22.1832133563072951 9.8191507307404748
3.6728340363819898 22.1212141662296524 9.8130967132902178
3.4921115742544830 22.0260114134284279 9.7902461378791674
3.3200846340908319 21.9113840397430550 9.7520232910987978
3.1542504219171210 21.7904374298742241 9.7005940240392832
2.9897343272109742 21.6724119047418782 9.6390390733835325
2.8210679805562542 21.5621583956759366 9.5717045040704427
2.6436284153454084 21.4618862523357379 9.5040161661122582
2.4548506530935272 21.3739628773802295 9.4413693385479789
2.2549925828183257 21.3027870061952669 9.3878996746958556
2.0469297759842897 21.2539219134132509 9.3463297374359691
1.8351685048001503 21.2311540606918321 9.3189012992200340
1.6246520369984478 21.2343810696134909 9.3080158510504347
1.4198263749254798 21.2603449555521671 9.3156704981144856
1.2240589683497625 21.3052970676524893 9.3424301599127482
1.0392802588097254 21.3669898701220831 9.3871769479265907
0.8661823686590631 21.4447065966004971 9.4476722663173653
0.7048397547654339 21.5381885498857883 9.5210353494254747
0.5548987866427597 21.6464998464036498 9.6036692830867096
0.4149751819582150 21.7670782905222033 9.6908787877432516
0.2816957467819308 21.8950004093704180 9.7767564353682168
0.1494561647636936 22.0221197809977483 9.8544153840254012
0.0118917811461188 22.1359188382228815 9.9162382355777936
-0.1351876272173906 22.2201284485861450 9.9545662876205672
-0.2915190265663634 22.2600100994233152 9.9637230646225099
-0.4533946665272821 22.2510007067343949 9.9431139075556665
-0.6177722138217838 22.2038000234324429 9.8993895136018608
-0.7853973984662259 22.1404384529343687 9.8454846223941974
-0.9594672704748697 22.0845189123776251 9.7965252740837485
-1.1416539486676434 22.0529831867986594 9.7648294099818465
-1.3299574529676867 22.0529879370407436 9.7563902818473505
-1.5201965577921377 22.0828754023120126 9.7699846982072884
-1.7090091177973710 22.1343395190096572 9.7985485999408315
-1.8954135188675405 22.1937166618221760 9.8314001809753009
-2.0798793648274181 22.2432330767686395 9.8563692009619768
-2.2619773765163558 22.2646566986578378 9.8622876911783806
-2.4388640251682396 22.2453731360300324 9.8422012780953096
-2.6061902335392713 22.1828584821099888 9.7955138425982575
-2.7605198652570913 22.0837561637105964 9.7268733596009387
-2.9009723829383134 21.9589404720030750 9.6426279075358003
-3.0292811682226990 21.8187190529659425 9.5477223974547165
-3.1487758679334554 21.6705530103191961 9.4447338152857956
-3.2630531619164769 21.5193238941841827 9.3346689531226232
-3.3755497916185524 21.3688366156685809 9.2182376279092679
-3.4905176017184329 21.2229008342960626 9.0968013171883300
-3.6136947057356235 21.0856695582439215 8.9731463117004679
-3.7508143252498689 20.9614131027063451 8.8518583137648861
-3.9049291399359243 20.8534705313859092 8.7384207476359581
-4.0754760414358095 20.7632840170387780 8.6376698575257898
-4.2593966301606052 20.6904638301761956 8.5529918066755073
-4.4526711853319680 20.6336169074287845 8.4863899162273064
-4.6516803250137668 20.5912039718282927 8.4388150513781000
-4.8540939140815302 20.5622210819449265 8.4104407539929547
-5.0588887384946339 20.5467298389642963 8.4007755112095470
-5.2654620600798117 20.5460383292220712 8.4086595582130776
-5.4726064362759148 20.5621169637316541 8.4322490224608693
-5.6781944026525935 20.5962815680434268 8.4690452942275627
-5.8797822758761384 20.6480320544044176 8.5158368019677901
-6.0758688088326416 20.7146644092230581 8.5684819381753954
-6.2668738372545274 20.7910283323200389 8.6219103062684592
-6.4548959656321045 20.8688208808629767 8.6706873619329592
-6.6421006318102265 20.9360543763196389 8.7098009927985238
-6.8284921394263893 20.9781025765576743 8.7351245318612420
-7.0104804738851527 20.9812973188026888 8.7437811863007759
-7.1815630049459553 20.9378826653584724 8.7347868975758658
-7.3352673633988701 20.8488574268879816 8.7093459341945909
-7.4686009557364290 20.7224430114356011 8.6701792115441556
-7.5835163355420043 20.5697970812520481 8.6204881234949031
-7.6857764519736378 20.4011612271424099 8.5633949709243211
-7.7828175643253257 20.2242724997987651 8.5019874888243265
-7.8820648889069904 20.0446721650625292 8.4396540786985916
-7.9896407774008047 19.8664611039800576 8.3801682306791250
-8.1093561913359427 19.6926995460533156 8.3272368579758407
-8.2425936657415946 19.5256109489590557 8.2839617397223932
-8.3890155085483933 19.3669273538004205 8.2526875209722945
-8.5472890070809306 19.2183040452286384 8.2349357377653831
-8.7155404583696736 19.0813552764210144 8.2309986713943566
-8.8916879521901180 18.9573231433462936 8.2395409903050378
-9.0737475489987602 18.8466600872708163 8.2578190049044409
-9.2599673086940300 18.7484171598975315 8.2825030512470903
-9.4483427287436239 18.6593527040399039 8.3104333085580357
-9.6355272627469173 18.5729323618993121 8.3386955227242652
-9.8154702302710675 18.4787927043528839 8.3639305467745544
-9.9781688155621424 18.3639782253974708 8.3815547095816836
-10.1101568685588425 18.2174676120218564 8.3859274228680007
-10.1986404260305008 18.0373488318608572 8.3718579605029344
-10.2380981547295136 17.8348128731748794 8.3367747686792981
-10.2341298454074074 17.6280481072141910 8.2817386751100805
-10.2006964719585564 17.4299895489985985 8.2103148772834622
-10.1534824743536198 17.2429418455134389 8.1269113830374273
