BEGIN_0
-16.7044809091131192 22.2985878988356063 5.4831817870108051
-16.6532575954792215 22.4310995892158829 5.3167173244721564
-16.6020731538403616 22.5620800369146259 5.1437374078967100
-16.5478615464949677 22.6942533288737103 4.9665140484190786
-16.4883458885082241 22.8296721323191676 4.7876924837984376
-16.4221580478967439 22.9696101434573876 4.6105561624766498
-16.3489218688353972 23.1144027206663729 4.4390442559810381
-16.2689711278768847 23.2632158332920334 4.2774769373492063
-16.1826773799302863 23.4144801512584948 4.1297444455842580
-16.0897204640498188 23.5672533447390720 3.9981715117171657
-15.9887861813513048 23.7222793733349917 3.8830850840928139
-15.8779955929121357 23.8815530445447521 3.7837018114440593
-15.7557177203417318 24.0470068603330844 3.6993786794287509
-15.6213326908716148 24.2193935607947566 3.6301067569812648
-15.4758757969868661 24.3975348098985734 3.5761949376942681
-15.3222762916107840 24.5780133175236486 3.5376901760419059
-15.1642960467470793 24.7561899998190107 3.5140391187661475
-15.0039118991036347 24.9289314082652602 3.5043026096549159
-14.8392620884888693 25.0968155632984775 3.5078292782219656
-14.6660099827050026 25.2628143107168484 3.5247555153996188
-14.4813769214973078 25.4284387153734173 3.5557853330173863
-14.2867222107669427 25.5915605932085342 3.6015037529676928
-14.0863329607333441 25.7479865431855970 3.6619192485213432
-13.8846341688705444 25.8942976891551169 3.7364746021011079
-13.6845914816141914 26.0290755514464962 3.8242744654416523
-13.4876349558136166 26.1523830170060378 3.9242773238918538
-13.2942459058553020 26.2649238476661750 4.0353948093995253
-13.1045626217095403 26.3677091838751458 4.1565372844171975
-12.9187230327383578 26.4620654069316856 4.2866331712083969
-12.7368833315390937 26.5495102980119206 4.4246207478481008
-12.5590590354597023 26.6313771851863201 4.5694156163933304
-12.3850606324950832 26.7085708314570169 4.7198763616114459
-12.2146108424882360 26.7816964553927690 4.8747966320239815
-12.0475016610396679 26.8513249059501860 5.0329556945912124
-11.8836791984001771 26.9180881443829207 5.1932633295007591
-11.7232389116808555 26.9825738756481499 5.3549915785523456
-11.5662929588208474 27.0451080275933329 5.5179691276577465
-11.4127565543398237 27.1054410339354348 5.6825367204501838
-11.2622565681699545 27.1624975020426866 5.8491533565105325
-11.1141694722908024 27.2145815401773774 6.0177574335445634
-10.9675297271525150 27.2601227259616650 6.1872365653800987
-10.8207953639706904 27.2983878152670592 6.3553577353874093
-10.6717780277584886 27.3296747024022828 6.5189183354558278
-10.5178276178840324 27.3553914823304538 6.6737499980441033
-10.3561536908522918 27.3782127037635590 6.8152775608006690
-10.1844881834468346 27.4016581932922882 6.9398696857392803
-10.0024194041978909 27.4294512777570816 7.0450609419693855
-9.8129245404098135 27.4657219525907479 7.1278685281804233
-9.6223958495548985 27.5153567424570049 7.1836885977589846
-9.4381947068446230 27.5829599394551437 7.2079852045648440
-9.2653785274726150 27.6705750504892407 7.1994984202536187
-9.1048699178230486 27.7762342495636645 7.1619832873204681
-8.9538008275577976 27.8948591131866408 7.1030380475815527
-8.8072562326355133 28.0204472766423507 7.0314221750314951
-8.6601915776931389 28.1476974834439702 6.9550100933511239
-8.5086216676639861 28.2726280472299649 6.8800765277504947
-8.3498781546703711 28.3927284763530920 6.8113476575670662
-8.1824740907376388 28.5069376985906224 6.7522721109281649
-8.0061739318051046 28.6154107551861472 6.7053609433892873
-7.8221606423352199 28.7190214361592737 6.6725575742136218
-7.6325014423981550 28.8187785376883987 6.6554586748084823
-7.4390447928417522 28.9152989196627104 6.6553017732194863
-7.2430820996873031 29.0084495347737814 6.6727767217943548
-7.0461405610913239 29.0973524756061117 6.7077106840140743
-6.8505060158257578 29.1808563710588516 6.7588572348795894
-6.6584082411595880 29.2583992515787266 6.8241236817023898
-6.4708225301468083 29.3305969462435350 6.9010522257344640
-6.2872163980264641 29.3988833679807975 6.9868897577549696
-6.1062066457960018 29.4645491675214295 7.0780091905835727
-5.9260534900246693 29.5281796703909762 7.1691986158420837
-5.7446696805416124 29.5898117276907229 7.2532197090861992
-5.5602773275344530 29.6491666143158774 7.3205334502181945
-5.3731864257733619 29.7056112961444612 7.3597165670416000
-5.1872729439215179 29.7581248873133752 7.3596479169245779
-5.0094266753684886 29.8053791583054917 7.3131218113211789
-4.8468125403188775 29.8458990799242159 7.2195554850976809
-4.7037763177634559 29.8785480313084086 7.0847451390900220
-4.5806251250294361 29.9033241740092137 6.9181864421615771
-4.4745644522933219 29.9216585626032092 6.7299405304028479
-4.3811656420251639 29.9356360142001066 6.5281754155957952
-4.2953598737732026 29.9467971683082723 6.3181152276006252
-4.2121643877833472 29.9556170222645797 6.1028231951051772
-4.1271892566853197 29.9618179788943415 5.8847590893501938
-4.0367402801226389 29.9648924862554829 5.6667517363778437
-3.9376281869651981 29.9643878060878421 5.4521505906353518
-3.8269746242756240 29.9599589893994960 5.2446363218045331
-3.7022215215903165 29.9513552173624227 5.0480649423418384
-3.5614441150814020 29.9384485750012637 4.8664244614498724
-3.4039175629251091 29.9213379213072947 4.7037958214247642
-3.2305143580444371 29.9005045039509092 4.5640852155339928
-3.0432435832305744 29.8769671847151059 4.4503430615061816
-2.8440254299637822 29.8524196833631166 4.3639524607230289
-2.6342626693713225 29.8293025643288523 4.3044679300890909
-2.4161009475719366 29.8104761678140804 4.2704028408413386
-2.1933034884881319 29.7981496232491168 4.2602326868907685
-1.9697897370364217 29.7926894215539306 4.2729743000349245
-1.7478769644446528 29.7925631988016626 4.3082762483491344
-1.5292253996848384 29.7955090650710019 4.3660467315646905
-1.3167826351902105 29.7997307191600740 4.4458320763568278
-1.1145207060080518 29.8043286351985479 4.5464206954335165
-0.9256733672469033 29.8091979322029594 4.6658868432460157
-0.7516917128857887 29.8147887061651495 4.8019746237828542
-0.5923492898977560 29.8217653339521647 4.9525621540087563
-0.4463219881035112 29.8305607786440810 5.1158408529387689
-0.3117697800518568 29.8410832380476485 5.2900732663044430
-0.1867092667083869 29.8527851474805388 5.4732986912988171
-0.0691395743486733 29.8649018784358482 5.6633882826954967
0.0429160943727420 29.8765304857788081 5.8583681668785612
0.1512643277476151 29.8864840261287270 6.0566605995039993
0.2572631456373635 29.8931511966952321 6.2570113340096327
0.3617900118962423 29.8946620538291334 6.4581533501735766
0.4659078637039431 29.8894142417722293 6.6585473550849983
0.5718282843101585 29.8766694907396371 6.8563722206522906
0.6831586399878002 29.8569214293158538 7.0492139997879404
0.8041800731336548 29.8320817846243713 7.2329090067654684
0.9387337350054601 29.8057878756257892 7.4003568223739755
1.0891205312662544 29.7836342706338471 7.5417276543785308
1.2550095578577651 29.7723077019534941 7.6463013934984625
1.4331420523147820 29.7770146997882357 7.7057869164247936
1.6186646716218649 29.7983249977746993 7.7181443764216127
1.8073704461002902 29.8309667717715605 7.6892057753811880
1.9972066188608513 29.8657908497554203 7.6305405291184289
2.1880938683656890 29.8934915602151499 7.5555008741917957
2.3807118007297303 29.9076589992376505 7.4762123164963565
2.5755507617173516 29.9057704127531778 7.4023789081374494
2.7727571809670204 29.8884266717917129 7.3413319053425887
2.9720949804669896 29.8579163960254910 7.2986252303801349
3.1724673504999270 29.8168508230918512 7.2785812602996147
3.3715706840862971 29.7672296945590418 7.2842608595880209
3.5661995263783557 29.7102655959368676 7.3168489436202577
3.7531045005539045 29.6468013530540162 7.3750172362784099
3.9302775051910475 29.5777503440319016 7.4547443278947068
4.0980595789375700 29.5044352594686146 7.5495472551322935
4.2594486569107302 29.4289708240962860 7.6507917469944751
4.4196626064445272 29.3545437157363658 7.7478627746177891
4.5847824757441522 29.2854125582118066 7.8285957962535457
4.7594459571976522 29.2263265086176460 7.8809144576616239
4.9446097588597073 29.1810759975570768 7.8960170882975369
5.1372909296546778 29.1508026491952386 7.8712843426431247
5.3329599258737366 29.1334714175533200 7.8102711196686387
5.5281789047731138 29.1249584495204985 7.7198482279175327
5.7207336952098853 29.1208168883500598 7.6073398196621893
5.9083198754100756 29.1175166943075929 7.4793143734874485
6.0885575739308280 29.1125234852459407 7.3414307723685797
6.2606029952908457 29.1036823937617832 7.1984454955422574
6.4261780821767873 29.0892080491215097 7.0541099411351693
6.5887316636916413 29.0686355272576051 6.9110718455084887
6.7518676621790359 29.0433701185987871 6.7709465133811921
6.9183276901365591 29.0157187407988957 6.6346214066281064
7.0896664036770600 28.9869307599860413 6.5026591468785924
7.2663534361027917 28.9559060917669342 6.3756568121179669
7.4481767833933841 28.9196178562204089 6.2544653444478424
7.6347267404555641 28.8745209291557821 6.1402314232382960
7.8256564565216689 28.8176236018210474 6.0343215598444715
8.0205808604140962 28.7468460359344640 5.9382251255693603
8.2186426352595809 28.6611483830236153 5.8534807126135409
8.4179274556666890 28.5608758602910875 5.7815916077105385
8.6152900264886654 28.4481859089449038 5.7238531149419618
8.8074028560479576 28.3269669371747312 5.6810926254271106
8.9928764050245711 28.2020288126626397 5.6535605530336799
9.1734667072045823 28.0782025208991328 5.6412975545430459
9.3526647415974722 27.9596730513270799 5.6447958344587885
9.5328410304370763 27.8490208447662795 5.6651910707515434
9.7133992082484113 27.7465639790897001 5.7036856210788098
9.8912820838641409 27.6510089806703832 5.7608280340325564
10.0632109527627787 27.5605415509268461 5.8362514008403004
10.2276407322238292 27.4733067343668438 5.9286770686444790
10.3850705252133366 27.3875498808533067 6.0357135574022376
10.5371070210366931 27.3019424335792174 6.1536066101832176
10.6856859935605577 27.2158380599792764 6.2773967738915406
10.8332001147701593 27.1291212916250544 6.4011961146697907
10.9827790704656394 27.0419783370280769 6.5180520776485515
11.1378093158757832 26.9548443437468634 6.6197610996089100
11.3007715847312014 26.8684288219037697 6.6974277829101183
11.4721904620109321 26.7836806382307770 6.7431673436529138
11.6505764428545273 26.7013791938104639 6.7524488736772197
11.8333493705254540 26.6214902472251183 6.7254459756983760
12.0177196988902146 26.5430529283586125 6.6663687050287095
12.2008850309788759 26.4648996639562455 6.5818054666723427
12.3800465059123006 26.3864917979243856 6.4792551925887647
12.5528952686341260 26.3080226163152311 6.3655285215474269
12.7184168867491287 26.2297718717696782 6.2449368668637106
12.8773051093975681 26.1512625775116661 6.1188204798240662
13.0315495544295210 26.0706587362449795 5.9874118470699997
13.1834558996633735 25.9849790497246573 5.8520948806241186
13.3346592760535447 25.8916224789960445 5.7155205957682877
13.4859755274390825 25.7899733201776513 5.5801235364503352
13.6382396070649676 25.6812868295381627 5.4473380692987483
13.7928965524784317 25.5669272160301659 5.3180622447568311
13.9514673933978468 25.4467618025615288 5.1933908460283806
14.1144655461816484 25.3190003651026707 5.0750279884932663
14.2807463022335472 25.1814799030591594 4.9653901318698814
14.4475877764037932 25.0334795849289762 4.8673063072600709
14.6113084312393493 24.8766968660434813 4.7832793828313065
14.7685011832516473 24.7144179776485657 4.7147107798102148
14.9176971750678700 24.5492819417486174 4.6615163388984051
15.0600468045302254 24.3816140224663940 4.6224154712647305
15.1980308681707985 24.2099766264761556 4.5958552155262264
15.3334970348027628 24.0329189642084913 4.5809506934384032
15.4667710511427039 23.8501449239239136 4.5778130134067219
15.5969386763087954 23.6627646438047670 4.5871911912259726
15.7221910645510654 23.4730194636375273 4.6098445161037418
15.8400244121151594 23.2835819946871680 4.6461415258558301
15.9480030461080950 23.0964439957923418 4.6961303270110015
16.0447512357973920 22.9119539721436922 4.7599373367063276
16.1302407795571590 22.7287329085196959 4.8380613969472588
16.2051904488290930 22.5448034918814848 4.9310780649045594
16.2701963742181306 22.3593842018168552 5.0387462514050618
16.3254084777593462 22.1737872567791570 5.1593377497677952
16.3709779221855314 21.9904981716440346 5.2899349121619732
16.4076485063120501 21.8116172101047106 5.4272795220135919
16.4369574876733608 21.6380764672002073 5.5684061152916513
16.4611554532265885 21.4696769267128715 5.7109126462074720
16.4831719753275365 21.3053445126715495 5.8530682396766718
16.5066888318353051 21.1433930281019578 5.9936784854870471
16.5360758725000032 20.9819773291263303 6.1313323270621360
16.5759575921192166 20.8196744547820316 6.2630714538944154
16.6305038775989580 20.6557671974213122 6.3834149058513390
16.7026564020989667 20.4903799375237412 6.4846340769516146
16.7933174592823491 20.3250787552794350 6.5582095052567499
16.9007899732821514 20.1631097002508923 6.5971597391917385
17.0211009585085122 20.0079343502733309 6.5985911506608907
17.1492951811605963 19.8609904510441950 6.5649827532112610
17.2810030899635052 19.7207944048525441 6.5031794056201502
17.4134552175010135 19.5838929108529456 6.4218370990397471
17.5455388144619491 19.4466210116490643 6.3292170653185202
17.6771731612287724 19.3065671890223136 6.2324684178635721
17.8087686640863581 19.1628954518787182 6.1377156662657715
17.9409416879240950 19.0154252653555851 6.0498839111962610
18.0738799900978364 18.8636092112677254 5.9723869646719905
18.2065289099295562 18.7066068344690386 5.9073428680298115
18.3368154645660262 18.5439866182376782 5.8560723413691935
18.4630759242273008 18.3758939926388969 5.8192763103453302
18.5853088495997554 18.2027085541497442 5.7969573789549980
18.7051832227407679 18.0246895957207443 5.7884618357350845
18.8250670885136451 17.8414720130975084 5.7926635849718764
18.9465940164713516 17.6520658173581140 5.8081640233685778
19.0693931650451454 17.4563141199522178 5.8334941218294460
19.1911170609940172 17.2563382365294871 5.8673356253590558
19.3088464233407180 17.0557356325502028 5.9086834323119426
19.4203149400183648 16.8573825461684663 5.9568149388129612
19.5242088526273037 16.6621248378436952 6.0111208823857734
19.6201933585150954 16.4688531289070497 6.0709264750276652
19.7090205711237054 16.2752241028464297 6.1353237232373701
19.7921745765120072 16.0788820692071361 6.2031714298909435
19.8708025753864739 15.8790958332710090 6.2733882679949406
19.9450247607354783 15.6774822457441800 6.3451171516314560
20.0146308677159190 15.4766834840265179 6.4174812144308735
20.0801840296585752 15.2781877839161719 6.4893783685180271
20.1432409057614059 15.0813540861722366 6.5595322205373403
20.2058524287504895 14.8843800282497085 6.6263593221335775
20.2700912782842728 14.6862434539505688 6.6875918495556288
20.3379621343767418 14.4877369341759064 6.7402165158637288
20.4115956406602592 14.2906840867666691 6.7809614563550697
20.4931954643679539 14.0965337673071893 6.8069085012699739
20.5842712147230920 13.9057990739232906 6.8158765987704655
20.6846728815173897 13.7184555135531454 6.8066019699287459
20.7926280130449612 13.5343113821498662 6.7788709231343240
20.9058265999575070 13.3528231830394848 6.7335207901017267
21.0221569010053138 13.1731287424315830 6.6722940911859645
21.1395269493584443 12.9948283123492221 6.5977976319053404
21.2556696415076125 12.8187936231846855 6.5134939361669417
21.3687519335754423 12.6467550644736093 6.4231995098606891
21.4783714841101059 12.4795316091023381 6.3300227982803445
21.5857464170433815 12.3156237442194954 6.2356972450953290
21.6927108474256229 12.1516779729494964 6.1410175228864006
21.8005422285902810 11.9840772075286726 6.0466647209331352
21.9095767331336013 11.8100999975981633 5.9535660731307782
22.0195082644819884 11.6281223700646965 5.8629043983124394
22.1297711596485520 11.4374171902402892 5.7760970456019098
22.2396113677766571 11.2382587242062986 5.6947098452982257
22.3478756362631152 11.0324243470821433 5.6203453918043991
22.4528843191199705 10.8233389543621286 5.5545662674569751
22.5528116708506978 10.6148729716027752 5.4986137267837396
22.6465625662386536 10.4090408240647569 5.4528866147683601
22.7343515330893240 10.2046817011874822 5.4167791355048696
22.8173088906174257 9.9986232109681197 5.3892778330373421
22.8966217486337875 9.7879214031198458 5.3697282574759928
22.9730101429031492 9.5713324766701984 5.3580863235297933
23.0466150799220024 9.3498140462002794 5.3546929979517905
23.1168046115816814 9.1263347469361378 5.3599375994432048
23.1817506515184313 8.9047299049381348 5.3740255893398174
23.2385224082560242 8.6877265521201590 5.3969544828441371
23.2841656643482118 8.4755512634267838 5.4287024917436053
23.3169078784371422 8.2663886265395732 5.4694485146035294
23.3366633567937427 8.0578910538232247 5.5196370322670720
23.3449454876457700 7.8485260568554214 5.5796753892522766
23.3443888022533557 7.6392045567770497 5.6490474123042596
23.3377728123435091 7.4342073947905787 5.7256993803413287
23.3268739822565330 7.2377165425647911 5.8073586675215640
23.3120089555332264 7.0488484923476875 5.8935197357758948
23.2925867997428000 6.8627662970835326 5.9849795268917294
23.2679823331364020 6.6752371138315034 6.0818989859395831
23.2381558210941463 6.4847457952236471 6.1826161113445917
23.2041724982249526 6.2912755164738003 6.2836446641493549
23.1689661529126276 6.0933364576680393 6.3805909824014897
23.1382695339794324 5.8857746941235254 6.4694786751133879
23.1208515666957481 5.6615411245633869 6.5479232726240859
23.1265592027533877 5.4184923454881142 6.6156700573487761
23.1619363939258491 5.1659612055373163 6.6740804489077430
23.2264777152290947 4.9215867009908916 6.7251191394202046
23.3135337950018879 4.6987945790167363 6.7708057960295509
23.4151031885521803 4.4991435284642698 6.8130726459383899
23.5255814366035629 4.3159594360970104 6.8535406477328689
23.6422400451524766 4.1416040100999005 6.8932931558716417
23.7640272697492421 3.9711164611125298 6.9328861216199318
23.8905076369691614 3.8021191413445283 6.9725338316994119
24.0213892045537314 3.6336130261840189 7.0122912252845389
24.1563953997227898 3.4651186010883990 7.0521569791155851
24.2952467965904475 3.2963057220017085 7.0921142654981839
24.4376621734370083 3.1268782285202512 7.1321428603411388
24.5833598341899204 2.9565461999945981 7.1722219423695392
24.7320579983156996 2.7850206503649293 7.2123306058467973
24.8834748742488259 2.6120127083125873 7.2524479354880800
25.0373286693574464 2.4372335140668895 7.2925530151623290
25.1933375909372472 2.2603942088057778 7.3326249286824163
25.3512198462811895 2.0812059337702085 7.3726427598588069
25.5106936426822841 1.8993798302044862 7.4125855925019426
25.6714771874335810 1.7146270393530330 7.4524325104222768
25.8332886878281087 1.5266587024602902 7.4921625974302604
25.9958463511589208 1.3351859607706960 7.5317549373363484
26.1588683847190602 1.1399199555286810 7.5711886139509925
26.3220729958015625 0.9405718279786779 7.6104427110846435
26.4851783916994776 0.7368527193651300 7.6494963125477513
26.6479027797058379 0.5284737709324698 7.6883285021507648
26.8099643671136896 0.3151461239251336 7.7269183637041383
26.9710813612160649 0.0965809195875558 7.7652449810183262
27.1309719693060032 -0.1275107008358241 7.8032874379037818
27.2893543986765437 -0.3574175961005679 7.8410248181709541
27.4459468566207541 -0.5934286249622378 7.8784362056302992
27.6004675504319650 -0.8358326461762520 7.9155006840923114
27.7526346874080438 -1.0849185184957584 7.9521973373682044
27.9021664749082952 -1.3409751006430426 7.9885052492788775
28.0487811209873534 -1.6042912509889113 8.0244035037548063
28.1921968403131267 -1.8751558245286564 8.0598711857686567
28.3321319005662424 -2.1538576487886196 8.0948873886495853
28.4683049277175328 -2.4406853612652526 8.1294312622490601
28.6004365847986719 -2.7359264795945109 8.1634822783380550
28.7282572265099816 -3.0398628939774834 8.1970214456235926
28.8515354390593473 -3.3527523823872123 8.2300358764351849
28.9701629879119409 -3.6747647778743797 8.2625326034716000
29.0843477329211026 -4.0057981857450642 8.2945711070156616
29.1949141549812410 -4.3450473444949651 8.3263190307346520
29.3035068639738903 -4.6902170838853436 8.3581100880392434
29.4122336219682765 -5.0365533465255581 8.3904491815297959
29.5224582444797861 -5.3764925140206827 8.4239289452606183
29.6334262758081159 -5.7011474964214557 8.4591337509558748
29.7422202440439172 -6.0037745750011773 8.4966797268162608
29.8454930420434437 -6.2828544230505869 8.5373796147666656
29.9413277979143508 -6.5418391751604972 8.5822969805570608
30.0295745558020855 -6.7860058564611236 8.6325582412727968
30.1110156850398596 -7.0195994095363154 8.6890698355732656
30.1865552034888971 -7.2450377843102167 8.7523030187097817
30.2569279783488447 -7.4635140256480277 8.8222144825163902
30.3227025339805323 -7.6757728843266797 8.8983843783533434
30.3842567787991200 -7.8824876257079985 8.9803668967240231
30.4416955638207547 -8.0842412503516528 9.0680146040173675
30.4948533617658661 -8.2813504819565473 9.1615079475972294
30.5434180357644074 -8.4737622977215779 9.2611010334212587
30.5871369521969321 -8.6611255949923951 9.3668381184743623
30.6260057766091585 -8.8430367870011892 9.4784480686199579
30.6602855581991314 -9.0193091369213434 9.5954399307928373
30.6903549778548914 -9.1900396782388860 9.7173152460777423
30.7165553132229334 -9.3554932736255658 9.8438104251022214
30.7390928802596157 -9.5160567054393503 9.9751103641632515
30.7579396807579712 -9.6723727347895334 10.1119437771115486
30.7728037768761986 -9.8255420457268308 10.2554887699365800
30.7833347810322593 -9.9772197554652742 10.4071260229375433
30.7894763087594967 -10.1291325032305153 10.5678553542297529
30.7915817365541145 -10.2814084671431907 10.7368511774404194
30.7901084754981937 -10.4307922448525190 10.9099406359088942
30.7851864179708201 -10.5719588660916308 11.0810392142617804
30.7764432878598626 -10.7021992842303071 11.2469597350158281
30.7631618357411689 -10.8237769970363473 11.4097376067845371
30.7445227001296715 -10.9409053097267019 11.5733341752301158
30.7196197978755166 -11.0561056459946592 11.7400560443396493
30.6873260932581644 -11.1697869507768850 11.9102928590732198
30.6463967807872280 -11.2819245484371891 12.0835018600607302
30.5959411085891162 -11.3935233909819402 12.2583515699795083
30.5357619006460013 -11.5069297383948133 12.4326924085558765
30.4660755132050909 -11.6254421172592934 12.6045001833893764
30.3870892254916711 -11.7529035335241119 12.7729877187612733
30.2995295023697615 -11.8927459374748352 12.9380825347212269
30.2060061316840063 -12.0460073993799099 13.0985135170865465
30.1115955774582353 -12.2103248086306664 13.2512800137848714
30.0227119068273254 -12.3818975863796013 13.3938330543705391
29.9452911576466896 -12.5584509113453535 13.5265428929767975
29.8836491768388655 -12.7401680951132299 13.6531969805018534
29.8403477507418735 -12.9280981255221121 13.7794053811190711
29.8167557372205003 -13.1211358305496617 13.9095738546149104
29.8136945289050601 -13.3138878446124060 14.0444041474773798
29.8313523247852714 -13.4985577109954846 14.1817136912030293
29.8684442806456616 -13.6699690067655801 14.3195841126048915
29.9215835094340257 -13.8284006351285065 14.4571664071284687
29.9856205473956763 -13.9787327521386899 14.5926938656773331
30.0548212518912159 -14.1279907759825178 14.7224988447553446
30.1242077091272797 -14.2827531592545611 14.8427868519846040
30.1903941041534942 -14.4474402549609309 14.9524688782675117
30.2514741512531451 -14.6242463035174879 15.0547541446925024
30.3057137325972370 -14.8141223912370315 15.1560155947890376
30.3495754936239237 -15.0170081829705495 15.2618041696087037
30.3768092869223736 -15.2304402070623084 15.3721779895772190
30.3801848587582413 -15.4487413886941702 15.4802989236363917
30.3549098420954166 -15.6651731300808166 15.5764282805408385
30.3011485339245219 -15.8753584122764799 15.6545338037294464
30.2249059917143619 -16.0784420537790353 15.7164101107921290
30.1380055473008781 -16.2751068109184409 15.7715873618319140
30.0565288683493002 -16.4651190475140936 15.8349670290347078
29.9962797546036875 -16.6467521414580339 15.9226256769415393
29.9666467599508799 -16.8171732731277430 16.0448792532088689
29.9671163569069385 -16.9731691374168285 16.2008967111114899
29.9894418404993104 -17.1130645291689731 16.3813741291086998
30.0229466914780048 -17.2386924681798348 16.5767225982180584
30.0577468812324931 -17.3548739835914567 16.7814171480727268
30.0851770164558694 -17.4664554571856954 16.9912167896847208
30.0982247606660493 -17.5761450769044814 17.2000152569462905
30.0927863660258055 -17.6850735007326705 17.4020629449942064
30.0679736061705540 -17.7943657229106229 17.5959587078764415
30.0250049840885644 -17.9056013745847658 17.7846926076187444
29.9662115519912291 -18.0201855826277182 17.9720634748338668
29.8948706991347848 -18.1385560295229702 18.1595543561819426
29.8147687658448142 -18.2599561830660946 18.3464276865612668
29.7286361434486466 -18.3832613226226798 18.5323326429396573
29.6372206243172229 -18.5076413565491045 18.7181068223898990
29.5404616335406907 -18.6319534390139658 18.9032928590852620
29.4389045437599677 -18.7543532901162600 19.0847717881826249
29.3332270346515784 -18.8736857982646775 19.2596349125322384
29.2231615947175207 -18.9908709366263402 19.4280618484169487
29.1078687233504141 -19.1078515462553788 19.5920370429376263
28.9873348061047125 -19.2253391963689815 19.7518380826002016
28.8624273803051352 -19.3425563196412185 19.9054908162914259
28.7336808471669904 -19.4589826154917986 20.0515981548383664
28.6014906050333835 -19.5751458445102600 20.1908827442559513
28.4671881483187441 -19.6917432380811661 20.3249993713983130
28.3322824407445673 -19.8094302053900790 20.4551352845963166
28.1967312887280741 -19.9293224581915638 20.5811644704785728
28.0582944189990222 -20.0528083943770383 20.7005838522188164
27.9125446837368507 -20.1812219244397824 20.8082644389854750
27.7534342324906973 -20.3157898360922928 20.8982295044691995
27.5763981497587594 -20.4568245574870247 20.9657975884327357
27.3824714215182183 -20.6030298559436247 21.0081771052319866
27.1780274510598261 -20.7520590346263347 21.0242117663618657
26.9700232126842643 -20.9013532369208193 21.0144068216671442
26.7625836455522581 -21.0485144854736532 20.9810466765776340
26.5574452807378982 -21.1915343436719184 20.9278213027231246
26.3555798178346130 -21.3289896248772379 20.8590953787441187
26.1579324411183762 -21.4601449145997876 20.7791707176465437
25.9655664098783845 -21.5848829557802873 20.6911879532983818
25.7792890917377342 -21.7035457387233564 20.5956571713504033
25.5991033182057492 -21.8172408359468406 20.4903519922611750
25.4245714004371166 -21.9283413521712447 20.3736847379543704
25.2550358283008514 -22.0400793057058308 20.2493973002607248
25.0882789025025588 -22.1553307912391304 20.1270424145400781
24.9195271921102943 -22.2757511015432286 20.0180983329585231
24.7435278617629244 -22.4014472478609363 19.9319770100316269
24.5588907067356921 -22.5307879174901728 19.8734721780492336
24.3700925656211602 -22.6611313188411998 19.8412254827331083
24.1836001360369366 -22.7911530683585610 19.8283541192550530
24.0020736173904048 -22.9222130619010755 19.8262467697296394
23.8236855126975584 -23.0561346279435568 19.8290711527465184
23.6460120926088742 -23.1919779217189088 19.8355276993941629
23.4681339214146547 -23.3271163501357464 19.8472653672382897
23.2901868074076397 -23.4605909789396989 19.8657660154281892
23.1132156925809582 -23.5930966032008982 19.8896750794407424
22.9385141603076441 -23.7247289398198333 19.9136433303496112
22.7667620145154714 -23.8542110747548435 19.9289284053108844
22.5987393218327668 -23.9797502723469904 19.9254175295668574
22.4365191266997464 -24.0997097350373650 19.8941772481956747
22.2827427197062704 -24.2129061270831443 19.8298274322247821
22.1391914434548340 -24.3184354823210782 19.7319906036806891
22.0065718402097659 -24.4151945693498575 19.6045761361421675
21.8849689892562296 -24.5018636205494147 19.4528932202730083
21.7747093776855145 -24.5770414192205564 19.2816703540874919
21.6770388390256805 -24.6392954840729104 19.0952600746974497
21.5931153515228900 -24.6880740143822024 18.8973298288319960
21.5225436580013962 -24.7245376618628896 18.6901308552312528
21.4632622125033521 -24.7508352799299516 18.4746766035346504
21.4125705778518878 -24.7684628985463462 18.2512209637724219
21.3684126655369298 -24.7773252090886018 18.0190212438305792
21.3301148793158077 -24.7757380962497678 17.7751466810158618
21.2982652995905752 -24.7609949926551138 17.5145616465511544
21.2739754937050947 -24.7305416673943341 17.2337221680994155
21.2579246803664361 -24.6837176647231828 16.9366880552485881
21.2494363831032871 -24.6235769951584942 16.6385078540034215
21.2459307395445123 -24.5571406174379518 16.3599952011672762
21.2433600838916128 -24.4920840532860140 16.1152423821019077
21.2378891042600166 -24.4319304647338313 15.9022811748122539
21.2274035302316051 -24.3748187293834633 15.7067453393711673
21.2114999200062435 -24.3164351843475472 15.5138385483254932
21.1905768133674357 -24.2534023975318362 15.3162769367958411
21.1649867713812547 -24.1845779475513467 15.1137240700089706
21.1342374297355242 -24.1105827155427193 14.9079437295888404
21.0963945456562918 -24.0330770885330978 14.7003878210720256
21.0485488029900125 -23.9540521431028068 14.4932757444967599
20.9886524693158449 -23.8745579142897597 14.2896878852354146
20.9171197017347019 -23.7935706655990415 14.0912890161406459
20.8365365057318073 -23.7085172505387760 13.8975555255394081
20.7501316124015887 -23.6166934650653673 13.7075006190379369
20.6605104474052581 -23.5158905604194857 13.5212258102333376
20.5692734337352690 -23.4043265355246319 13.3399464629463971
20.4771697365995031 -23.2806228970135081 13.1652157239536489
20.3843775134599454 -23.1437045062833704 12.9985737578532241
20.2909080155926986 -22.9922861117672568 12.8421989203239235
20.1971392475546239 -22.8242097179727921 12.7001440552970450
20.1041735657501164 -22.6364736145311696 12.5789075911020927
20.0138189565387172 -22.4269190130234293 12.4854663776218739
19.9281745620799313 -22.1968996557270017 12.4227118873206592
19.8489583644350596 -21.9519387455356991 12.3865705057280042
19.7772011426389440 -21.6991431838916924 12.3685521898346238
19.7135093190433714 -21.4441968253561299 12.3606451403367714
19.6584080999782422 -21.1903843155605145 12.3580131530786339
19.6124677948907475 -20.9392288016318417 12.3588654859657545
19.5762689168629720 -20.6915308908925795 12.3630403120236512
19.5500817022075921 -20.4481355731870948 12.3704915997153506
19.5332770620531662 -20.2096801522003275 12.3803281310237683
19.5242005627318562 -19.9749595529832717 12.3908567595703296
19.5210721637773865 -19.7392435301842539 12.4006025292972879
19.5231350661788490 -19.4952759397902540 12.4092452374659405
19.5307231895177331 -19.2383560915350387 12.4172364895304579
19.5441927775488011 -18.9718444659377070 12.4245598026420687
19.5629699487800721 -18.7060370695382829 12.4302439648173042
19.5854409825449949 -18.4504346233688565 12.4329683428768138
19.6092877625049944 -18.2086572325786449 12.4316820100899470
19.6320395553530567 -17.9797591513029431 12.4258353711527860
19.6517082212678531 -17.7616940421352041 12.4154285450152635
19.6670261461904943 -17.5532016950813485 12.4007264994733752
19.6770404260498815 -17.3532748486719441 12.3818006044368936
19.6805663012488381 -17.1587790374040310 12.3582622070176082
19.6761187760698206 -16.9632248751211243 12.3293357921755771
19.6622451066341206 -16.7601068658838663 12.2943838800785166
19.6378003577048510 -16.5481663786571822 12.2535123011724956
19.6020001561649444 -16.3319842766231744 12.2074398915643680
19.5543417216355913 -16.1179673619110382 12.1567275369905783
19.4944973194358653 -15.9105372417415545 12.1011759130053651
19.4223133319606838 -15.7109961146318469 12.0398697549139673
19.3379589758602641 -15.5184010515729511 11.9716796333392761
19.2421012364807389 -15.3309295591713841 11.8956440499026819
19.1359721417281925 -15.1469534911993975 11.8110480362134052
19.0214228559355654 -14.9657262910946294 11.7175738237958207
18.9011355866535879 -14.7876974261326026 11.6157250440133595
18.7787883695080851 -14.6142784655744755 11.5071872132687663
18.6585442342118597 -14.4468049861988455 11.3945151846781592
18.5436772963788883 -14.2851884728669738 11.2799421439287784
18.4354135713808240 -14.1275317628571813 11.1643347192574200
18.3332248842262047 -13.9711104303933666 11.0475022709183399
18.2359544999364047 -13.8134476487385527 10.9292565416963328
18.1425839687587924 -13.6525307028917702 10.8099170822502710
18.0524987769927137 -13.4866029610568710 10.6901027672218927
17.9655397874335030 -13.3141961818808880 10.5704191359038564
17.8819103103007819 -13.1343299619786436 10.4514289881433999
17.8019856503075644 -12.9464756338071929 10.3338299595015322
17.7261626158606127 -12.7502498844506427 10.2185945988427989
17.6547711994154533 -12.5451583500093697 10.1068649821299132
17.5880568005384035 -12.3306410411737559 9.9996405689297667
17.5262408576601771 -12.1063410231828925 9.8976566250846005
17.4695236734933985 -11.8723022339758977 9.8016574016376516
17.4179657087776647 -11.6290302798976661 9.7126655160070108
17.3715127928084883 -11.3778604510229364 9.6318107164336002
17.3303100743930472 -11.1219632340815728 9.5599480381993978
17.2948597410123668 -10.8669989603522303 9.4974870335660171
17.2655992921745636 -10.6194062274247294 9.4443186045755070
17.2422466276309443 -10.3822979698136919 9.3995830284985313
17.2235931976035843 -10.1529290668786807 9.3615938411005697
17.2077846160822112 -9.9251801344640889 9.3283622994263826
17.1926640141398366 -9.6945017616841014 9.2983664618672428
17.1761663195825562 -9.4604018214336811 9.2709004760798326
17.1569768947593175 -9.2251566783884371 9.2458202564678302
17.1351083490739597 -8.9913600701295131 9.2230237199796843
17.1118066010058243 -8.7606604140625741 9.2021336055009861
17.0888190408303231 -8.5337727112622339 9.1825538370695359
17.0676329410647369 -8.3108754887101526 9.1637035275111245
17.0491413275057759 -8.0918238222006416 9.1451690135196486
17.0337136403561829 -7.8759963499792605 9.1266891494546378
17.0214219287088717 -7.6616891747822073 9.1080278222522928
17.0122519724726189 -7.4451791228011501 9.0888156819534878
17.0062651984360258 -7.2202571373096411 9.0684604278631760
17.0037145446741533 -6.9795238013605854 9.0462432496483096
17.0050612733972102 -6.7175588742912460 9.0216097070878742
17.0107949878443989 -6.4340142615382518 8.9944780496457124
17.0210636044976553 -6.1350981301782177 8.9654184229125242
17.0353801913454532 -5.8329447961152034 8.9356255849268500
17.0527609753770477 -5.5407840275722151 8.9064514564335315
17.0722068633537347 -5.2658706870671530 8.8786909656869053
17.0929935841856420 -5.0076888272596030 8.8523824545343395
17.1146008740760251 -4.7619729560668240 8.8271920898833187
17.1365363676367650 -4.5248262664169872 8.8028206665946058
17.1582348461616760 -4.2940679983596972 8.7791484789423961
17.1790058825966980 -4.0689215389880964 8.7562315063161833
17.1979593688171946 -3.8495826421598238 8.7343047321583747
17.2139227643657193 -3.6369580042309444 8.7138057627602485
17.2254689031657016 -3.4318768399306592 8.6952990300750415
17.2311653646397360 -3.2332106767571567 8.6791870008153928
17.2299456465109806 -3.0360979730497686 8.6653385193274666
17.2213076944421246 -2.8329420447521194 8.6530110973768970
17.2052307465187511 -2.6174409672407233 8.6412065604406472
17.1820554680914555 -2.3880758860269200 8.6290889353486158
17.1524995328351295 -2.1484485946197225 8.6161266489412363
17.1176479544395548 -1.9050582090168930 8.6020676167016887
17.0787732439245659 -1.6648386050013642 8.5869878282408330
17.0369877019364182 -1.4333424767609539 8.5713168846215915
16.9928256444080361 -1.2131051599312315 8.5556494116358976
16.9460228975636369 -1.0029647906030412 8.5404962646323703
16.8956963648825891 -0.7994868652140887 8.5262457528833515
16.8407142866539985 -0.5992308426006865 8.5132827986686159
16.7799871490659953 -0.3999650142608608 8.5020415468173738
16.7126808113231959 -0.2005910753595401 8.4929034869450426
16.6384407877618727 -0.0005666043534056 8.4860143645793151
16.5575195328642586 0.2005576015648725 8.4811754189866235
16.4706270227064167 0.4033093636621192 8.4779223283209451
16.3785842716012695 0.6082678067301668 8.4757274851887594
16.2820488663298306 0.8159928771521265 8.4741597821760628
16.1814452210700281 1.0269953573549628 8.4729243675535546
16.0770284468640057 1.2417454870402693 8.4718249377153612
15.9689684418547024 1.4606910466433582 8.4707148966473227
15.8574047801517324 1.6842659119094936 8.4694668492190441
15.7424806302085472 1.9128733046008790 8.4679599260033989
15.6243944417222878 2.1467969160354023 8.4660778294692882
15.5035378836103277 2.3859206750564219 8.4637153606966002
15.3808001336532953 2.6290979608093465 8.4607962690840246
15.2579899472519429 2.8732630234379837 8.4573017781230249
15.1379559363694280 3.1131337918482540 8.4532907012904808
15.0237496490552012 3.3428535829793287 8.4488749872191580
14.9169426554517344 3.5593802089135504 8.4441444600356039
14.8166184089789272 3.7645403966206388 8.4391075244193683
14.7201907588491050 3.9633406140196232 8.4337184455144616
14.6249524337543697 4.1606715186855858 8.4279643674419447
14.5288505626470474 4.3595100459392224 8.4219378924330890
14.4304268956515127 4.5610444218779431 8.4158441632106360
14.3286829935299824 4.7655704077633763 8.4099146951123895
14.2232840128801943 4.9733050304466380 8.4042426690083687
14.1148457950147908 5.1847967694287016 8.3986426069943132
14.0048061921711131 5.4008078455107587 8.3926803027054024
13.8948357045576341 5.6217297550932601 8.3859067374794698
13.7863877466602194 5.8468132526394783 8.3781536451516274
13.6808435042817624 6.0735858194523624 8.3697439270489706
13.5798029258107231 6.2980426971943517 8.3616182720537040
13.4847670069502854 6.5163665210030164 8.3553996035221285
13.3963410224362658 6.7276315869179157 8.3533207023764415
13.3140458816699319 6.9347357336359483 8.3579341930072779
13.2372731107852015 7.1418624011741771 8.3715889900275791
13.1663093553105472 7.3509798453336730 8.3958483305324449
13.1023606523713791 7.5608014662416458 8.4312300564280065
13.0467739502493103 7.7687247637456824 8.4774214099430125
13.0003317750743470 7.9732819678055193 8.5336840606759345
12.9629999457848495 8.1749376438205559 8.5991670625681067
12.9340148862247535 8.3751196837387489 8.6729695597910208
12.9120854349267322 8.5747214328566912 8.7538535822664887
12.8954399606654473 8.7736361183987945 8.8398835172185457
12.8816808968102396 8.9716719021755118 8.9284226638028041
12.8676495290606621 9.1692758608174252 9.0163230303081967
12.8494435927109922 9.3670591497524800 9.0998884899326491
12.8226610747183791 9.5649411789792573 9.1746721361624566
12.7829285701255895 9.7616667969144473 9.2355314918451512
12.7266083431085928 9.9544614204099400 9.2770844824798502
12.6515013313319873 10.1393299484153641 9.2946711610468711
12.5574890126101248 10.3127350512279836 9.2858491835100594
12.4468859989504992 10.4736213468604884 9.2516727515122774
12.3239911340817780 10.6240521117753701 9.1966334591527144
12.1938589940846178 10.7681093269818042 9.1271011782632669
12.0610646776616992 10.9102290438525209 9.0494398789674921
11.9290582096977182 11.0542162037591662 8.9690587234530064
11.8000607264371435 11.2029689182682013 8.8903647379123072
11.6752815959959282 11.3583704545867974 8.8169021378323258
11.5553395220517618 11.5212577902772750 8.7513813948065575
11.4405817238191361 11.6917886933887285 8.6955842481028629
11.3312568026647416 11.8698968915523047 8.6503712219074345
11.2277133122947976 12.0552607505034768 8.6159777448161137
11.1303717907211439 12.2469937580345736 8.5923299058942675
11.0394703407327164 12.4434357143176317 8.5791566156800325
10.9550062438418738 12.6424444679859711 8.5760713295241722
10.8768762011951505 12.8425635832209046 8.5827533444320476
10.8049733343922512 13.0440404507415408 8.5990763391331839
10.7392867996601140 13.2482249332405555 8.6249993069379087
10.6801015493268299 13.4556686136882586 8.6602646273773605
10.6280811913600868 13.6652017821246154 8.7042169646706125
10.5840444341348565 13.8755602811594656 8.7560262784147618
10.5486647942039422 14.0883433150545123 8.8152077902640951
10.5222628207354525 14.3097119971162101 8.8818958283049287
10.5044701490527359 14.5480018198178023 8.9559468171974359
10.4935654542145897 14.8061300498187283 9.0344919580986716
10.4857699832924780 15.0747217132366451 9.1100856322766504
10.4751932699419221 15.3363831248380347 9.1729779173036690
10.4547013994051774 15.5786640023662901 9.2163468799183992
10.4172609930745939 15.7996047610841988 9.2386356100215039
10.3573496382870083 16.0027531593500143 9.2418837559201279
10.2723281218977647 16.1911440244630427 9.2293687770438062
10.1632414962207704 16.3657937363692412 9.2043355875653017
10.0341793443529959 16.5272327886647972 9.1696011391714300
9.8903204822468709 16.6769444820106578 9.1277435153208017
9.7361729282393412 16.8174601888275177 9.0814200117801693
9.5750742383948371 16.9517725409021338 9.0332321074755058
9.4094904525875869 17.0830917479155495 8.9851024231054097
9.2415387208825575 17.2147299879045583 8.9379113119633740
9.0735208319252045 17.3494708293990030 8.8919541011083609
8.9078233075171802 17.4890645392553381 8.8476456400305992
8.7460232428202787 17.6346367429318214 8.8056890720362446
8.5884106682676631 17.7872720929455745 8.7668412132335156
8.4348796396767991 17.9476340953599021 8.7318459388443124
8.2861772505482776 18.1151420016060456 8.7016373826740381
8.1440200937601439 18.2881596400194866 8.6775820532015651
8.0101162866515914 18.4653829596285561 8.6616536363072267
7.8855669205885635 18.6467716915493256 8.6565010004984799
7.7714460732291251 18.8328613659000510 8.6653088719347373
7.6694773712823796 19.0238120772235177 8.6913614104242711
7.5819692548449886 19.2195908190493938 8.7373848003992478
7.5115522234798933 19.4206579477034325 8.8049453202361736
7.4609127945306852 19.6283347211680557 8.8941566211445906
7.4320157931924058 19.8442008412374591 9.0032717592182898
7.4248316336447271 20.0675995113115739 9.1273656811324759
7.4361962466724334 20.2932742406077722 9.2573635078994094
7.4596516691369548 20.5136230328745235 9.3823892601983587
7.4864958867099363 20.7240714811730058 9.4944020971611174
7.5068603919286643 20.9240650538737114 9.5897233032606408
7.5099545479489809 21.1129580285636180 9.6668201286497748
7.4844670820586154 21.2859266991595426 9.7242222885671552
7.4208555025278482 21.4329221789125803 9.7602765417646449
7.3154775551112330 21.5411065039628724 9.7736691648380898
7.1732949089679598 21.6005225394591314 9.7640919671637025
7.0056969490993932 21.6103969607568906 9.7332262905619551
6.8243708126254861 21.5806613786373411 9.6853072883415035
6.6363516315161011 21.5272752143804524 9.6265491173350757
6.4436778082718735 21.4663751454299252 9.5638530261518664
6.2462568064741735 21.4116215113941877 9.5035746716027703
6.0446782309350606 21.3741087341103047 9.4510643787082138
5.8414053209948085 21.3622359008126494 9.4112393678630610
5.6406234183682153 21.3806974284409357 9.3890807119346462
5.4471763691545041 21.4297478820461258 9.3885586695566605
5.2647342426853667 21.5058581944651195 9.4104300146876643
5.0940577613180533 21.6033336582364122 9.4513111228659703
4.9328021300308933 21.7156354469273865 9.5052405673089648
4.7769750902248767 21.8359576719189548 9.5660483743003297
4.6224130715037139 21.9573675338206726 9.6285753679841424
4.4651015176877369 22.0726490293316822 9.6887360076675950
4.3013202691628418 22.1737450414833894 9.7431598380425015
4.1287322143312473 22.2511746737395910 9.7887075413712488
3.9479019776968265 22.2948014061520148 9.8223180343186201
3.7627781929891242 22.2967950342028658 9.8413870177738652
3.5792253925502546 22.2553261840927661 9.8442314128219106
3.4022618660111643 22.1761001383778193 9.8302306267398052
3.2338755124250307 22.0703375191410913 9.7997785979991896
3.0727879293576410 21.9506814233258751 9.7544048650349175
2.9153795985546385 21.8274563268167299 9.6970295271805327
2.7566393817611998 21.7069681482919421 9.6320508446633202
2.5913983678896599 21.5924308742352302 9.5649592996513704
2.4159322519422934 21.4867693879973345 9.5012270203109956
2.2289727041731928 21.3951766112612063 9.4448663213164394
2.0315932107515486 21.3251299790379889 9.3979607255579474
1.8266616628244141 21.2837614577497050 9.3617315205470977
1.6183706820637715 21.2746958374769797 9.3380403385823669
1.4116565236016234 21.2965485154368750 9.3299997050298487
1.2115212274738703 21.3441046700539232 9.3412324614204039
1.0224450869654449 21.4115228021465533 9.3741851377282543
0.8477747937179978 21.4951305046927388 9.4286217019195728
0.6891875737991717 21.5936079766903433 9.5013371048022446
0.5462657383044360 21.7060336558597555 9.5868633726879118
0.4160321396949676 21.8296972831044940 9.6782290918188387
0.2925644884729777 21.9585859024949315 9.7673650457568257
0.1676436120247624 22.0822366666398509 9.8452591947421126
0.0334439529430544 22.1854021678000208 9.9023182123442570
-0.1136294248683876 22.2510879565434259 9.9299959265372326
-0.2713369689534351 22.2682025584445746 9.9240265541422392
-0.4347447519970178 22.2392121930940903 9.8873885407642312
-0.6013291711136572 22.1806451825541728 9.8304651094309907
-0.7724412042516224 22.1155663099382593 9.7681517055851614
-0.9502497795552336 22.0644972841590175 9.7157695082883571
-1.1341496173813708 22.0403967218353891 9.6852443974785114
-1.3200872409338631 22.0482664693448243 9.6822893860992973
-1.5028841453494826 22.0869346682974168 9.7054498396714166
-1.6794047571605977 22.1502837875780401 9.7472676194628391
-1.8503333156833657 22.2268520792919517 9.7964366969266514
-2.0193228693642427 22.2994488699163327 9.8398134783242490
-2.1897601396034334 22.3477208138219190 9.8646224431791651
-2.3613051949805222 22.3545982033102746 9.8616455397294907
-2.5293253857139932 22.3131482500877532 9.8282663940060111
-2.6879141071749775 22.2281643722382256 9.7685290555333815
-2.8335070724017379 22.1112724025000560 9.6896758514664771
-2.9663198726879640 21.9744655836976790 9.5981019170107729
-3.0894439252715680 21.8266676701871631 9.4975099815515982
-3.2068375768428643 21.6737232631740397 9.3894243658662315
-3.3219455631772350 21.5198496219998674 9.2745497943359556
-3.4380183990034272 21.3690714554039687 9.1540511518113110
-3.5590976954295224 21.2260583469980446 9.0306197783221034
-3.6898770123627394 21.0958340851484323 8.9088073807965138
-3.8340338010160817 20.9823822392920931 8.7940804336601310
-3.9928386829674603 20.8873993515295346 8.6911358659735498
-4.1655937793291198 20.8102351290094276 8.6029090597845723
-4.3505305722370666 20.7488281669924746 8.5307557233091877
-4.5449092914849896 20.7008456225928086 8.4751835969944764
-4.7452666889433353 20.6643816882587963 8.4363392500485599
-4.9486138374467661 20.6382353151093767 8.4139754253426560
-5.1534214616903062 20.6222341662606610 8.4071501666233033
-5.3590931695583581 20.6175554400089212 8.4139998464039500
-5.5647579887702783 20.6262587237283697 8.4319296882440469
-5.7689871546690838 20.6498463442961686 8.4583849049381570
-5.9707419352670605 20.6879660511927703 8.4915538134016071
-6.1701797581763014 20.7381412122704134 8.5300613925959823
-6.3682852935190848 20.7959274302164197 8.5717906179442185
-6.5658264045886945 20.8544591407509117 8.6131282764855506
-6.7623437294134927 20.9035981556802071 8.6494450833124112
-6.9550211720318167 20.9301368054893793 8.6761123612325832
-7.1376853985749840 20.9203468884205712 8.6891337941589821
-7.3014034602003637 20.8646291380335356 8.6855340151017852
-7.4378923601201770 20.7617694091594380 8.6640462140628962
-7.5441076573395822 20.6195564866431873 8.6257392915759574
-7.6244605235242666 20.4510625778289388 8.5737909154310312
-7.6890208496499746 20.2692897142558976 8.5124812439447481
-7.7497533209378773 20.0836162278296335 8.4463254699568289
-7.8175107204171770 19.8994829582446258 8.3799496597708902
-7.9002456591083554 19.7200895629875035 8.3182677637391578
