BEGIN_0
-26.2796350132955325 -2.7580413308184415 10.3033272053619278
-26.1962658873583223 -2.5731184047719342 10.2234654118885047
-26.1347193845468695 -2.3861316801120029 10.1398658717535000
-26.0929655542895098 -2.2018119450222198 10.0546746009864076
-26.0681766193258859 -2.0201978981554110 9.9673600730868941
-26.0572343900663057 -1.8377367104754505 9.8752880661679523
-26.0571681540525013 -1.6508014843036900 9.7755098141869183
-26.0650037130518868 -1.4576623914550400 9.6659135352939796
-26.0773422775146564 -1.2581743835613768 9.5455650581997968
-26.0904857401963497 -1.0527856794280375 9.4148586129022220
-26.1011285119431662 -0.8419223583289543 9.2755174382915939
-26.1069579564157266 -0.6263951617052506 9.1305765633975682
-26.1068656901650513 -0.4088202808811197 8.9845319935562742
-26.1007924027230622 -0.1940733962877506 8.8428836658058287
-26.0891742843659991 0.0134565090218768 8.7101390639950615
-26.0722464077654941 0.2134961153204049 8.5876845551735421
-26.0498298492086882 0.4096827665834155 8.4742255425233814
-26.0216879808996921 0.6064709669903863 8.3679137321947152
-25.9878620744957729 0.8070318434295025 8.2676404700173833
-25.9486519690440218 1.0131358901104370 8.1730767424081954
-25.9044477511436178 1.2257908972295173 8.0842928731677048
-25.8556277575333020 1.4457003255744070 8.0014465085493427
-25.8025095605177128 1.6733797427271497 7.9246911540192402
-25.7452956040664738 1.9090029036575622 7.8543006456940878
-25.6840927917793280 2.1519276421487614 7.7908574324999629
-25.6191555018110151 2.3998989447377603 7.7353119028695634
-25.5512466826670099 2.6485299881675051 7.6888165264615802
-25.4816004663650517 2.8923241640229236 7.6523944591660911
-25.4111174327863445 3.1276294692670703 7.6266099829283664
-25.3393288551746068 3.3552043791748645 7.6114580122804041
-25.2642588450973484 3.5791130085862868 7.6065723395541252
-25.1835359676069288 3.8024671906104501 7.6115159870254328
-25.0957697660560939 4.0245083495817813 7.6258700015029950
-25.0010702445895454 4.2417508550928131 7.6491515633231622
-24.9007027795540203 4.4509143874081545 7.6807509720959768
-24.7963893050740793 4.6505418381310788 7.7199519396517502
-24.6895289615038642 4.8408396868291064 7.7660028405593291
-24.5805809523624816 5.0229823040419275 7.8182349737459580
-24.4688110151684093 5.1987726007457429 7.8761517923576472
-24.3526715125044646 5.3705670889679835 7.9393598278685564
-24.2309041528153486 5.5408421075652008 8.0072624032359698
-24.1036790047721503 5.7112242973226213 8.0785850554450960
-23.9726613047896286 5.8819593538937074 8.1510705400199210
-23.8400491529211358 6.0527442645272869 8.2217099346878797
-23.7080825029355182 6.2241146067607449 8.2874092863825997
-23.5797447877679751 6.3978214191741776 8.3455310960864963
-23.4596481084172375 6.5755502239607209 8.3937535487066164
-23.3538857107647999 6.7570746779933009 8.4293953664576868
-23.2689720830051137 6.9399111532746902 8.4491061781428627
-23.2106063148198167 7.1212362046064994 8.4492844257519479
-23.1822078610544828 7.3001266515602472 8.4267029177060842
-23.1835084490506773 7.4772173706893934 8.3791490763153025
-23.2104066907285826 7.6525369964799443 8.3063707122772605
-23.2563846353640002 7.8251279774133948 8.2108377626040365
-23.3142907642844790 7.9941293160351989 8.0974386010704755
-23.3773423914153113 8.1592504711190692 7.9721781777472911
-23.4395418237101296 8.3209325985118792 7.8406539237467126
-23.4960325485658394 8.4807618737508328 7.7069687942065830
-23.5433714476459457 8.6415828957591962 7.5736419088525233
-23.5796227582161890 8.8070844303927629 7.4424856268169286
-23.6043246082425924 8.9817152156974949 7.3152586403954221
-23.6180670205942675 9.1709859183526241 7.1935129370931978
-23.6217380604183589 9.3802762083958697 7.0786976320536175
-23.6160201488300423 9.6107125652749392 6.9733613475776668
-23.6014454195528494 9.8554048810457431 6.8820549882775639
-23.5785834918177315 10.1024649963091377 6.8097436870243202
-23.5480208286472354 10.3435465851649901 6.7588107344354773
-23.5104171160950131 10.5775694790685524 6.7283535813088751
-23.4666701112853850 10.8067706650520048 6.7160602895252541
-23.4177012978039407 11.0320501362663812 6.7199763998105020
-23.3638852157595842 11.2523118204202088 6.7388219929850077
-23.3046886012225691 11.4660695294367567 6.7715304908027836
-23.2387811884261701 11.6725613979143912 6.8169839060849542
-23.1644539863017478 11.8719280708058630 6.8741526099686805
-23.0802060984096862 12.0649957708217048 6.9423254293569840
-22.9853919918518912 12.2526695771262624 7.0211874217041732
-22.8805752242487550 12.4349440284918362 7.1104145540751755
-22.7672263286952550 12.6105548521690398 7.2086888081988940
-22.6469706994046156 12.7780088545506487 7.3130240672302351
-22.5210398009153145 12.9370541470439608 7.4192498184225606
-22.3903542218522844 13.0893963764200443 7.5229901020424217
-22.2561936045792486 13.2384333239759471 7.6200674948091187
-22.1207727281429527 13.3883345542172396 7.7064226411290644
-21.9871518400753487 13.5430148907228691 7.7778848074021543
-21.8589060809033917 13.7053192432802753 7.8299344868238316
-21.7402496517524710 13.8760616206357970 7.8579557619746350
-21.6360385534930479 14.0530950076573333 7.8584248830538108
-21.5507616489737224 14.2314812483512565 7.8304165876184468
-21.4869691350896836 14.4054645999345947 7.7759687975271614
-21.4443227248980470 14.5716289293159917 7.6985665382124298
-21.4198786136494448 14.7308836566480288 7.6010485536727757
-21.4092754322561660 14.8870571314030631 7.4851558889543499
-21.4080072236531862 15.0436592036729699 7.3525146321748354
-21.4120033658394391 15.2027717445240498 7.2047802367470206
-21.4174656110317621 15.3658799686489136 7.0433334373599239
-21.4207169392922516 15.5339563996225039 6.8702890292177452
-21.4186500616425377 15.7060494685352978 6.6903991123937203
-21.4093365611563549 15.8784630958813686 6.5113533664717504
-21.3919774336181980 16.0470168941889035 6.3408204246433559
-21.3661762156197561 16.2108225153048409 6.1827924535506558
-21.3312577000657946 16.3731162216066330 6.0376374134758066
-21.2860829045301614 16.5388422858830921 5.9047505905326307
-21.2293067302613956 16.7118709826380893 5.7841081913057870
-21.1600330716646603 16.8936237943240641 5.6761677424943748
-21.0786196301164850 17.0832272978028712 5.5815032895483867
-20.9870127329538789 17.2783349417423189 5.5008275296671894
-20.8882853620050604 17.4757346211702398 5.4350791898477979
-20.7854575666666577 17.6721688676305533 5.3850743001884158
-20.6799475719336208 17.8660282970546476 5.3509338795944501
-20.5708099822051977 18.0584833849379365 5.3320207196049179
-20.4559220593821394 18.2520124976258700 5.3274785189559797
-20.3342898731072275 18.4474125122641439 5.3366574326522596
-20.2071390476151187 18.6424142954004175 5.3590227980258298
-20.0767773480458125 18.8330396651062699 5.3938840899085587
-19.9449676449761917 19.0157736059257694 5.4402805533427614
-19.8126589520650676 19.1888727498309422 5.4970467092024862
-19.6807294475824222 19.3528289732880197 5.5631580744911524
-19.5501678793375469 19.5101814094610830 5.6382409381463425
-19.4213433786139156 19.6644935385719357 5.7226379285775852
-19.2938225993929535 19.8187825552127421 5.8166581556874295
-19.1674464495109405 19.9742475445895593 5.9195087489606824
-19.0430662701070865 20.1302285042593780 6.0288775218287416
-18.9213553412757385 20.2854813265124392 6.1414551656038725
-18.8008620578844940 20.4394737808282692 6.2533859250762802
-18.6779820939415444 20.5926988904660249 6.3598743263966249
-18.5497441506286407 20.7463742836565537 6.4548482766130508
-18.4167098723458906 20.9020876353825464 6.5317910852682957
-18.2830815466250876 21.0614613002284301 6.5850551822411827
-18.1549405093749598 21.2258101840764155 6.6104495571208002
-18.0389612887427511 21.3955548786640755 6.6056204272145909
-17.9416351022390579 21.5691709930589752 6.5706992605488246
-17.8681672371944344 21.7426259199446932 6.5079729428861626
-17.8211911286376505 21.9108905713464850 6.4194482271437998
-17.7995144566362953 22.0709144715018155 6.3041110378439988
-17.7971478679828579 22.2230959408159059 6.1585357718534635
-17.8040265912512581 22.3701890486010058 5.9808311296313335
-17.8095198106290624 22.5152026198634694 5.7733435037222840
-17.8064566862534228 22.6592226428746528 5.5419564338533398
-17.7920680154855759 22.8011735294525977 5.2940818720114731
-17.7659359128170102 22.9397725703820541 5.0384673528088797
-17.7280206639040898 23.0745991355282740 4.7867144127280188
-17.6782771019056142 23.2061397472899529 4.5506732367814493
-17.6168813989838391 23.3361069150650309 4.3363508126952706
-17.5441796088414712 23.4673566744862612 4.1429326931676336
-17.4604268578959463 23.6032738712161319 3.9674289590301459
-17.3656721078649880 23.7470057872708651 3.8084107171262414
-17.2600168990480221 23.9003609408040845 3.6662340721875513
-17.1441700430515205 24.0627604171496507 3.5419648619847468
-17.0198324879330691 24.2313174077467650 3.4367142351040272
-16.8890506437057866 24.4026228640430922 3.3511314531377216
-16.7523840682415148 24.5753363414307202 3.2848292192626758
-16.6076372081461301 24.7512121097580930 3.2363638477237888
-16.4511730265983083 24.9329912240900740 3.2040362604978405
-16.2809737021258485 25.1209246243662960 3.1867203174739931
-16.0984758154918275 25.3111486459100803 3.1840298152201125
-15.9076370733676242 25.4972063710767927 3.1959509452401882
-15.7127296506231744 25.6730428162340658 3.2223834330152332
-15.5168995643662697 25.8349501970047193 3.2628891700431044
-15.3219512955155395 25.9816601465803316 3.3166894261286792
-15.1287512485143729 26.1134647976296463 3.3827914399520207
-14.9376638237229962 26.2313321743789487 3.4601499775392561
-14.7488085303587297 26.3363320330574808 3.5478057200044137
-14.5621373311318187 26.4293143267626789 3.6449157078235057
-14.3774954961268335 26.5109329436088359 3.7506588141473660
-14.1948164172917934 26.5821221697526511 3.8641524099586491
-14.0143169063754094 26.6446118229620801 3.9844804742658209
-13.8363525251818622 26.7005783602367970 4.1107567737101594
-13.6610366800356609 26.7515440385964141 4.2421107952252708
-13.4881151734239850 26.7978146853379897 4.3776220033954569
-13.3172454498931749 26.8391097091647453 4.5162981575370793
-13.1483242880804969 26.8756013574764765 4.6571245835962980
-12.9815205466762453 26.9082669896111994 4.7991233005805523
-12.8170610170414996 26.9384607324134393 4.9413694368611889
-12.6549858186310118 26.9673900178968751 5.0830273284712071
-12.4949208511578203 26.9958611517846521 5.2235201099759365
-12.3357714122264461 27.0241595508202543 5.3627832547087024
-12.1753707988500341 27.0520759932853636 5.5013079653747017
-12.0105135240688750 27.0793399797578438 5.6396489802506444
-11.8379964739120425 27.1062986504866714 5.7773694345180999
-11.6564008639593570 27.1341267953357246 5.9119899790768304
-11.4669307608627058 27.1642317671112536 6.0389020217251677
-11.2723247168130829 27.1975969841027627 6.1523896465370509
-11.0752566532746997 27.2350209347407812 6.2466787922828075
-10.8776519979785355 27.2779902206758749 6.3165689304000203
-10.6808156481326080 27.3287256919439088 6.3582550346351123
-10.4857425467973187 27.3887895170731142 6.3704286254697937
-10.2930929838372673 27.4577469892674380 6.3548239673234423
-10.1028040782435209 27.5333457588624313 6.3157267983017746
-9.9140480711696455 27.6127073477636742 6.2590242480339811
-9.7257419629439621 27.6934578451409052 6.1914412037904967
-9.5369989832547422 27.7745110172334044 6.1196508409308308
-9.3471303585655026 27.8562815055452617 6.0491243108081054
-9.1553675188514489 27.9399203504946847 5.9836801767637695
-8.9608557119582350 28.0260255072824833 5.9260504756332129
-8.7630633762884944 28.1141121043194602 5.8785586936322112
-8.5623529139505692 28.2031311340173652 5.8432952550830031
-8.3602007414650785 28.2920141884649503 5.8220637335456864
-8.1584694679081409 28.3798110312452323 5.8163792777731409
-7.9582374572084920 28.4657292650870879 5.8273803832638151
-7.7596414339664648 28.5490988536650150 5.8555491434828095
-7.5629772519050231 28.6291685971687073 5.9003947540658235
-7.3694797175997344 28.7051382545577667 5.9604043683491277
-7.1805306474677746 28.7766187359774328 6.0333856724614741
-6.9962968899342730 28.8438787037550561 6.1168599681430695
-6.8154189038413602 28.9074848424724813 6.2080139659535316
-6.6358362078045037 28.9678772187430482 6.3031290650146694
-6.4555269844345489 29.0255306055120776 6.3969553395301038
-6.2725869020707012 29.0813255826368504 6.4823904885889956
-6.0855916642856069 29.1361685149090803 6.5504250750586159
-5.8947390506971811 29.1899557878065536 6.5908599430860448
-5.7027692428749903 29.2409582308815423 6.5945591321916091
-5.5145995757174617 29.2862812539406505 6.5564939184701441
-5.3354554911087666 29.3230353222285238 6.4773959855986369
-5.1684499412698708 29.3494151943644255 6.3628444266729787
-5.0136206387377431 29.3651930761442976 6.2209571439694908
-4.8690863414308456 29.3716021111101782 6.0604477315799858
-4.7324970299567992 29.3708391515005331 5.8892633197973137
-4.6011949136531918 29.3653955149891068 5.7133517920676038
-4.4717850302255924 29.3575102236214711 5.5361615000121187
-4.3403872896946591 29.3489351302513590 5.3595124203495548
-4.2033638074163724 29.3408957335598650 5.1849935917256129
-4.0577450063998644 29.3340771524352313 5.0147742749878095
-3.9012902125443460 29.3286700424879143 4.8517047493749370
-3.7326171358557723 29.3245790039735894 4.6991358425549752
-3.5516098536344334 29.3216530083222011 4.5606980144665119
-3.3596920642367252 29.3197069922461893 4.4399354748629580
-3.1591567096473137 29.3184385445151179 4.3396451156193638
-2.9515223936596531 29.3174620270342672 4.2612143886214646
-2.7365586576318774 29.3164367410544813 4.2046630638917826
-2.5134899675148219 29.3151538587676548 4.1695033591365132
-2.2833207673158489 29.3135126819377092 4.1554855907347132
-2.0500335142902140 29.3114236889777438 4.1625375656355459
-1.8195845515245583 29.3087443814927511 4.1902994485429534
-1.5975325059625254 29.3053413850880382 4.2380112659428857
-1.3871261390116034 29.3012359918981460 4.3048921314198711
-1.1888219815508299 29.2966764889874085 4.3906251197839357
-1.0010683854916635 29.2921008939233936 4.4954225895185846
-0.8219072504526919 29.2880788471843836 4.6193238196099990
-0.6505462426455453 29.2852423221879441 4.7611861779424292
-0.4874900929769517 29.2841491625729020 4.9186475792060396
-0.3331021560264213 29.2851408473599442 5.0892668166404906
-0.1866861120451668 29.2882849489200794 5.2710099143953997
-0.0470631576248746 29.2933368439850810 5.4613571033809016
0.0868371120413842 29.2997017544160059 5.6567225030186936
0.2162303223542597 29.3064959656357722 5.8529655668554792
0.3430182858350965 29.3127370316509790 6.0461615884357762
0.4701200850729190 29.3176383803057377 6.2329128844729471
0.6014627720952674 29.3209546496984608 6.4100496119780175
0.7413862874773653 29.3232236190664359 6.5736723426959500
0.8934018811807629 29.3257687873464263 6.7179546335619467
1.0590290414793913 29.3303995347812823 6.8351445049877109
1.2375790768485517 29.3386887965180456 6.9178080485152433
1.4267344055702218 29.3509783858567808 6.9621986822644581
1.6232969291779851 29.3657674570575224 6.9703887234811432
1.8239204025947642 29.3800707610657845 6.9495237860273145
2.0260199903540528 29.3905139470530088 6.9089234156990953
2.2285994404356764 29.3942745839201827 6.8573082523313831
2.4320615697552306 29.3892067792565967 6.8016259641479131
2.6369907316451204 29.3735582463291820 6.7472113522729682
2.8432744235032459 29.3463729482126396 6.6982488528075592
3.0503109128405907 29.3085808482565113 6.6579882455417874
3.2573763812400949 29.2632943406691730 6.6289377874116191
3.4633779852608360 29.2144354486737328 6.6132992217952395
3.6667562877691848 29.1648555447497415 6.6133205382651159
3.8660216962322882 29.1156716312515513 6.6310923709526612
4.0603039892609729 29.0668041493608449 6.6677978692265345
4.2495622709345593 29.0176352505180368 6.7228986482585853
4.4344721371499087 28.9673659680659696 6.7937644179400118
4.6161816218368035 28.9152716218931936 6.8757077187708955
4.7961970317825378 28.8611106682519036 6.9620085262987299
4.9764161987463638 28.8056580811829761 7.0440581414401002
5.1589637893356173 28.7509231329800947 7.1118933278115133
5.3454511521292485 28.6996813807203992 7.1550819822898024
5.5360472214967960 28.6543923947917527 7.1644806062840392
5.7290830699711304 28.6160492495946741 7.1349410434693761
5.9213801457143216 28.5835741538951922 7.0671982459040379
6.1093343615511984 28.5541061842030039 6.9671770785439691
6.2905743259071301 28.5242987055304056 6.8432545525440549
6.4649831394244641 28.4922739047663320 6.7035647796229725
6.6339990997269034 28.4589405908160593 6.5548624467940506
6.7989922446365831 28.4272589530556878 6.4027053875306059
6.9604469105613527 28.3997671292486018 6.2516034933639713
7.1186271251405424 28.3764638058104914 6.1044725111965761
7.2745910286379871 28.3547651182939262 5.9622690737084181
7.4301505907070053 28.3310445415148529 5.8247475231152404
7.5870802092792262 28.3020490609746922 5.6916847111978992
7.7466008925568417 28.2653479308377840 5.5635229267626052
7.9094024781214571 28.2191311756908334 5.4413252838505475
8.0758779879713920 28.1619036968162817 5.3264968624717213
8.2463139191501007 28.0923269238727968 5.2205739283667167
8.4210060774707571 28.0092664599673782 5.1251193617104818
8.6003607646212945 27.9121288720674556 5.0416644237042085
8.7849937712642117 27.8016221284322391 4.9716491540138090
8.9756772824045754 27.6808406266242173 4.9163659747659736
9.1728306997519837 27.5558899322867319 4.8769731248456054
9.3755206725965987 27.4347625115175227 4.8546314653936129
9.5808084900296446 27.3242176680707303 4.8506471910295517
9.7846121178522001 27.2267811566471174 4.8663714653789238
9.9837233359577091 27.1404955821601455 4.9028462877568764
10.1770257977597502 27.0612898298713915 4.9604622097605624
10.3649029638695342 26.9855807121596669 5.0386521384850500
10.5476729311299824 26.9115022238401878 5.1355390673895958
10.7246996407610187 26.8387260293896119 5.2479411719116520
10.8950269762988263 26.7674948312435745 5.3720804769553752
11.0586629738818427 26.6976773445440045 5.5042889336945304
11.2172955722129704 26.6284404116381452 5.6410051000881509
11.3740428807349758 26.5586118097705643 5.7781826708019874
11.5325966417416979 26.4873374514259083 5.9104809318424714
11.6963830352002329 26.4144839171956178 6.0306922693043070
11.8679081460803015 26.3405992862425080 6.1300965471686553
12.0480527736432173 26.2667344491160364 6.2000058237412183
12.2356185122855781 26.1942930483743019 6.2340549416289921
12.4277325015361466 26.1247307914769777 6.2301001023380422
12.6210961453032535 26.0590241694628872 6.1905283268181268
12.8128973256244585 25.9973220362935358 6.1209465006480652
13.0007015896596148 25.9391134685315521 6.0284383850538319
13.1824302844610628 25.8836401565727243 5.9200663913062748
13.3573564159757190 25.8301722367053515 5.8015305005273721
13.5269849136835401 25.7781590590654304 5.6763947084289459
13.6943515124304707 25.7273163493723658 5.5464799207115458
13.8624028823345888 25.6773926550523726 5.4128997724095846
14.0329228660005043 25.6275802540338304 5.2768005941553504
14.2064350681788856 25.5760925105153305 5.1395605908766147
14.3826760172894232 25.5203765569478378 5.0027341460424033
14.5611305029572424 25.4577329886979271 4.8679812905542548
14.7413435794601835 25.3857795252112055 4.7370301514885789
14.9229871623234196 25.3025495466746619 4.6116534250179928
15.1057799691994763 25.2064218597157570 4.4936527639392718
15.2893119087789096 25.0961680468536663 4.3848551746158186
15.4727536019026335 24.9713231328225262 4.2871119035270677
15.6545378943110887 24.8328861752046599 4.2022460951824616
15.8324467182851905 24.6838831071294038 4.1318404582064794
16.0046437351601547 24.5288709856970542 4.0768162229454301
16.1711979371047434 24.3720908399055247 4.0370570066765481
16.3342417309907404 24.2156989141601358 4.0115729569268712
16.4959134668212570 24.0597514692810392 3.9992690143673766
16.6562405696544076 23.9034549043477966 3.9996581959538275
16.8131625245839729 23.7461052949648384 4.0130306240899234
16.9641758377122045 23.5870682010584645 4.0402477589951271
17.1078351961038528 23.4252897698875593 4.0824218463290798
17.2442384453807236 23.2591421872587745 4.1404653665050883
17.3743701917637630 23.0872860338702850 4.2146281020211767
17.4987854252091992 22.9103407682708635 4.3043469368242064
17.6167940070017544 22.7314969864688052 4.4085830150112795
17.7268473688294534 22.5548727332233803 4.5263584562926908
17.8273156245198408 22.3832966192563418 4.6568354733487141
17.9168855655548143 22.2175398650971090 4.7987412452744049
17.9947979612083486 22.0569830464604095 4.9496816593770596
18.0612320839531861 21.9006149573872051 5.1060228498525504
18.1175908108410759 21.7475756577363413 5.2637654893952170
18.1662335680085931 21.5970187749351084 5.4201104797826467
18.2097393894938584 21.4475685539973711 5.5744234615722430
18.2503755785254924 21.2970595302467700 5.7276333250247848
18.2901740612935626 21.1431649260246353 5.8804058067761815
18.3313251657994556 20.9846392568541766 6.0313358422481773
18.3764691098915094 20.8218549762166418 6.1766188809784861
18.4287423847752869 20.6558159837047448 6.3114766366237021
18.4915091098130091 20.4869164635948948 6.4316015193984519
18.5676860085405693 20.3152062122407742 6.5333022114166646
18.6588360084156868 20.1419207602626109 6.6130325550302267
18.7646970996066180 19.9701245955800708 6.6675876693891389
18.8835866280175857 19.8033173147418893 6.6950249249176075
19.0130456950292768 19.6436069203252224 6.6952434001550571
19.1499791981889125 19.4911645024568649 6.6698122742597921
19.2907290320748785 19.3445644656032556 6.6215952828994666
19.4318374537383001 19.2010979727994524 6.5544259127417881
19.5710192994436554 19.0572481731371042 6.4726819384106662
19.7071913003292103 18.9097642951751475 6.3809223161984558
19.8396091495301725 18.7568497719788958 6.2837510176905038
19.9671195067735709 18.5986554385751788 6.1856064238331001
20.0882869268958153 18.4366714469863453 6.0903525724665926
20.2024327121438212 18.2722452976296950 6.0006942871417603
20.3105550720442452 18.1052910802616509 5.9177917666385564
20.4149568196092694 17.9342055055277072 5.8416267347990800
20.5179383712982037 17.7567204850229032 5.7720705106336823
20.6208340178866081 17.5708399829733786 5.7098394490453632
20.7239531900580118 17.3755057595836178 5.6565453923720561
20.8269841041533468 17.1709948698895332 5.6139214115482385
20.9291500274721578 16.9590551525196140 5.5830640441063082
21.0290611746351956 16.7427253171474568 5.5642376307430954
21.1249642816318008 16.5255372977747292 5.5571179554121386
21.2155079621964262 16.3101894693237881 5.5611302963621636
21.3000601035325339 16.0979359019272508 5.5756449287311849
21.3783359029659188 15.8891695030153031 5.6000664288006448
21.4503274134740529 15.6836529876976947 5.6340280687643620
21.5164817335178142 15.4801148616742612 5.6776196557353167
21.5772987203095852 15.2766500762796582 5.7312236702924064
21.6325717014346957 15.0723064084065985 5.7948197597554536
21.6813247841581536 14.8681125833255834 5.8674256099470110
21.7227099138451294 14.6661120855151470 5.9473825165586085
21.7569280948666481 14.4675113645472599 6.0331654458442934
21.7853572528349524 14.2717875162066736 6.1238085473171395
21.8099947478299399 14.0773466618186198 6.2184815784606950
21.8329023206933250 13.8829735032404216 6.3155993190890083
21.8562616094807538 13.6885819999334704 6.4123900799280324
21.8828977324907932 13.4946188789164836 6.5052740399019786
21.9164891393067585 13.3013808890935703 6.5902345757767993
21.9610601846671685 13.1093188172707560 6.6626525483383414
22.0198986519750513 12.9195021760481481 6.7172503557273817
22.0943235410058456 12.7332252861898958 6.7488408603425754
22.1830582232637745 12.5513094587395777 6.7535576317141262
22.2828213360146705 12.3739238523242214 6.7297867824268032
22.3897229368531292 12.2009985035647439 6.6784603039545765
22.5004787637795722 12.0328181679907722 6.6029197149623755
22.6128816327437399 11.8700619745205174 6.5083973995105282
22.7257251777865505 11.7129612230702431 6.4008132001591012
22.8385934226336786 11.5601013387668257 6.2851825435318478
22.9514463537467570 11.4081716506799502 6.1649077748298158
23.0639248313705387 11.2533670204133625 6.0425909824696191
23.1748876104150163 11.0933275018954980 5.9212218727903103
23.2825648796517122 10.9279899905620983 5.8044826436093668
23.3852905848989217 10.7587525615756654 5.6960604238803825
23.4824660947970045 10.5865911735889959 5.5984899831303334
23.5749145442596131 10.4106383214777019 5.5125281746265973
23.6640962722706512 10.2284249977091442 5.4377535785104314
23.7509934571676347 10.0372244564835995 5.3736927711836966
23.8356989079194967 9.8351545692331062 5.3204592782188893
23.9177040114678725 9.6215225313199930 5.2787523103934682
23.9962008795902726 9.3967945148877501 5.2495609660521509
24.0700071486840770 9.1627125104876743 5.2338068538531193
24.1374154531250262 8.9225685311045257 5.2320211972585504
24.1964645072267004 8.6809931537787417 5.2441311939025042
24.2455933266275991 8.4428677568450397 5.2694529182088718
24.2841556610816873 8.2120726197618357 5.3068743992276755
24.3124549368199396 7.9911261844049353 5.3549854388392202
24.3314556826518391 7.7818981564889862 5.4119633287438802
24.3424667887657655 7.5864754592124584 5.4754345462053600
24.3468169847477007 7.4065914345601946 5.5429869438909698
24.3454245295214697 7.2408232187183286 5.6137670133884630
24.3383931115903351 7.0820884820580652 5.6899833018287982
24.3250217504782142 6.9200513612801435 5.7759479619130225
24.3043344177913490 6.7476322340482620 5.8748011875365371
24.2756918726559192 6.5645705930356621 5.9863470125598894
24.2390588654028853 6.3755326138350377 6.1075322977202653
24.1949135615743138 6.1861180201078891 6.2341442216313041
24.1441050353696376 6.0001922980466809 6.3619435657316608
24.0879421763688342 5.8190052507914922 6.4869078369084487
24.0285598112462289 5.6407604007572347 6.6052929586765288
23.9695055249235445 5.4598496193288240 6.7139603879050327
23.9164928902916571 5.2668499270299538 6.8108369200146530
23.8778170118742246 5.0519048865707479 6.8952199544146904
23.8629899421232814 4.8123859037758274 6.9677159215976845
23.8787715048126294 4.5590279609721991 7.0299681705548220
23.9251444908565034 4.3112876560041231 7.0842541244874031
23.9956217375114278 4.0838148102268104 7.1329636092461097
24.0818334583795028 3.8787449252468207 7.1781975883632390
24.1775671970125536 3.6896335885319811 7.2215368832691942
24.2795963930498928 3.5089371899734036 7.2639696650343790
24.3866011935719200 3.3317422449021610 7.3059923641500646
24.4980518107828402 3.1557020775841025 7.3478002570093572
24.6136476740226833 2.9798435663673057 7.3894496705345629
24.7331347394329555 2.8037118387593161 7.4309475116707198
24.8562649042299668 2.6270011599159666 7.4722868780611034
24.9827902488570963 2.4494397492005042 7.5134577953323394
25.1124627399008844 2.2707620636741055 7.5544497410848379
25.2450343130602768 2.0907034949987278 7.5952521144667191
25.3802568995138280 1.9089995495870831 7.6358543056836048
25.5178824300194869 1.7253857453971797 7.6762457041471253
25.6576628353145573 1.5395976013346040 7.7164156992169310
25.7993500461369649 1.3513706363677667 7.7563536802505713
25.9426959932248344 1.1604403694684073 7.7960490366055968
26.0874526073163224 0.9665423196083900 7.8354911576395700
26.2333718191495890 0.7694120057595963 7.8746694327100508
26.3802055594627767 0.5687849468938904 7.9135732511746015
26.5277057589940455 0.3643966619831520 7.9521920023907811
26.6756243484815485 0.1559826699992488 7.9905150757161518
26.8237132586634424 -0.0567215100859428 8.0285318605082736
26.9717244202778872 -0.2739803593005572 8.0662317461247106
27.1194097640630396 -0.4960583586727179 8.1036041219230199
27.2665212207570669 -0.7232199892305538 8.1406383772607640
27.4128107210981149 -0.9557297320021902 8.1773239014955053
27.5580301958243439 -1.1938520680157527 8.2136500839847990
27.7019315756739317 -1.4378514782993630 8.2496063140862201
27.8442667913855324 -1.6879924438809013 8.2851819811574359
27.9847877737051469 -1.9445394457848320 8.3203664745577548
28.1232464534729303 -2.2077569649917717 8.3551491836672280
28.2593947625430211 -2.4779094820117731 8.3895194980877257
28.3929846419739071 -2.7552614730850244 8.4234668094196969
28.5237681034050787 -3.0400773815582323 8.4569805244789116
28.6514976155488874 -3.3326214349885408 8.4900501479513473
28.7759281394745052 -3.6331566525812367 8.5226657151385545
28.8968260104183692 -3.9419402659613585 8.5548196737882112
29.0140005586553329 -4.2592057492565125 8.5865135923073499
29.1273934707766067 -4.5851028788517851 8.6177773431547013
29.2372687858549050 -4.9195286403468579 8.6487114742982225
29.3444778119371250 -5.2617305815045441 8.6795540676343226
29.4505645202466901 -5.6095678991901430 8.7107403010164788
29.5572769771539541 -5.9585487331571301 8.7428892246529628
29.6653477723250383 -6.3013677152359584 8.7766904799336274
29.7733897206813047 -6.6291902741560378 8.8127903226001365
29.8782708248487019 -6.9350324274203885 8.8518168923495715
29.9769874096918265 -7.2170158597101270 8.8944888515025688
30.0682467186563649 -7.4783678256672630 8.9415936283720665
30.1524742183363550 -7.7243582296749693 8.9938203837714656
30.2308096517574718 -7.9594078500571399 9.0516528428676573
30.3042221534681637 -8.1862495219712770 9.1154041638832961
30.3732128592276780 -8.4064541537674451 9.1852867755814636
30.4378632852821021 -8.6210723739225266 9.2614373412320266
30.4979004933550257 -8.8308504382273689 9.3439292550551087
30.5528099954879693 -9.0361069859116334 9.4327977562580578
30.6021052209601905 -9.2366227284884239 9.5280328361780882
30.6456369583054880 -9.4318011843660585 9.6295268466478223
30.6836794190646565 -9.6210508484326951 9.7370427733252978
30.7167209389804441 -9.8041076279983237 9.8502876464596838
30.7452077350385160 -9.9811054427332841 9.9690980409495413
30.7693982642576884 -10.1524584400387781 10.0935527433304699
30.7892948260839283 -10.3186467063947305 10.2237308916680938
30.8047349563402548 -10.4799182638397568 10.3591478585270771
30.8156999948355157 -10.6360016640458284 10.4983858562761281
30.8225483089583925 -10.7859687625855045 10.6393518108238840
30.8258432156746771 -10.9283535666005989 10.7799640960827112
30.8259452620568553 -11.0618289614926546 10.9189791302819046
30.8227718827510415 -11.1866674484797279 11.0570694407507997
30.8158319587766414 -11.3058563064752917 11.1974664099846493
30.8043762794301230 -11.4238057625049763 11.3444670753397752
30.7874710243619809 -11.5432845313978234 11.5005424417234039
30.7639223511736084 -11.6641099822168748 11.6654888890385067
30.7322595213912990 -11.7844836128302077 11.8378212634307349
30.6910281749733613 -11.9030086426843873 12.0158120423743995
30.6393393318786771 -12.0198254171191508 12.1971890696053045
30.5772347961638111 -12.1364556951807394 12.3786938044832215
30.5054632005428736 -12.2548205473624030 12.5566326286843335
30.4248716543969202 -12.3766855437763610 12.7281607665150691
30.3359229573251952 -12.5041928223101095 12.8922481502662016
30.2387150606520443 -12.6402962373774770 13.0495420851665216
30.1340209935445884 -12.7876667079523969 13.2010567165108625
30.0251333704137586 -12.9468049016443771 13.3466281843931860
29.9184843239651457 -13.1156465619085090 13.4848545114787459
29.8216244235800900 -13.2912752434611825 13.6150861949847801
29.7403249945654586 -13.4718689777910576 13.7395017854518198
29.6773753980126749 -13.6573779249207625 13.8631774543926038
29.6336259954255006 -13.8483810825741465 13.9918391342801982
29.6099230853077628 -14.0432509234075233 14.1282855099088014
29.6084028695988017 -14.2359937700124419 14.2699081249249016
29.6320837718476682 -14.4185129604044597 14.4102239154659628
29.6826075682364774 -14.5861832179483315 14.5434638235598097
29.7577276622533944 -14.7405093283238955 14.6673063237769874
29.8508315238728521 -14.8872793477583656 14.7821714852626780
29.9528280848535182 -15.0335357568983063 14.8893690554876610
30.0546640035548975 -15.1855383650293447 14.9902417540578305
30.1489246073141395 -15.3475536306935965 15.0867494592736406
30.2300448422340331 -15.5211665967427201 15.1820889513365120
30.2934482661287312 -15.7055329169204896 15.2795064286855080
30.3346224946988059 -15.8984787256216791 15.3795824716450635
30.3492352254060691 -16.0975202417676044 15.4784548936754067
30.3342884891905094 -16.3002668643300055 15.5690373509683706
30.2898157267723533 -16.5048514290966573 15.6453709318726357
30.2210896795494968 -16.7099356259383960 15.7074779200772046
30.1399211905122932 -16.9131858657402923 15.7629547997114390
30.0624385981578151 -17.1111605237262800 15.8253208053036474
30.0038849873209585 -17.3003409797126331 15.9099508261680267
29.9734567164352832 -17.4772375480773690 16.0277101812559799
29.9718462349924692 -17.6391609625890027 16.1802912091064286
29.9929108308583494 -17.7859056118443988 16.3616339843964802
30.0273886352295776 -17.9195129879099184 16.5623555138485692
30.0652105252781325 -18.0422428472559915 16.7718307670188622
30.0965686125050382 -18.1555820728202626 16.9789071732607084
30.1136667178757484 -18.2616289822169442 17.1756333205353506
30.1124792395113161 -18.3644536728202006 17.3614274199333316
30.0926794462716636 -18.4686061321048776 17.5412144611909468
30.0558840290119349 -18.5766468382545895 17.7196014943538955
30.0038605321765601 -18.6894249987604262 17.8989016055168548
29.9382560713430337 -18.8074147702971217 18.0803332571251971
29.8617318971450345 -18.9300134012499512 18.2637833420250502
29.7781079046420807 -19.0544980278229303 18.4473148352041463
29.6901880452935849 -19.1778306203133688 18.6293331344051936
29.5979943966720143 -19.2992548354818965 18.8103802889028557
29.4997900458036995 -19.4199843809326502 18.9914814206964486
29.3945081649730007 -19.5409991262214646 19.1715663713748761
29.2827233551822843 -19.6621822112824951 19.3478331624838269
29.1659788561975084 -19.7825999563782737 19.5176692463332628
29.0457639844096462 -19.9008908867983472 19.6795400548834536
28.9225264946969212 -20.0163474021997772 19.8332782980956530
28.7957227064600971 -20.1296292130120804 19.9798974034500922
28.6653575827214837 -20.2419892358238798 20.1205691972445209
28.5327468730344016 -20.3544958805775948 20.2560870055506221
28.3989603354287148 -20.4685376587020187 20.3873677246543750
28.2636482912114708 -20.5859272519260728 20.5147444159930359
28.1251215858574852 -20.7080822911355611 20.6364582553288578
27.9799850854062804 -20.8356600088286754 20.7486981916170201
27.8235864664864003 -20.9684607555276799 20.8465617262284937
27.6527238155316937 -21.1051576602955322 20.9249522035074165
27.4681427302670151 -21.2437348511586137 20.9798260290798453
27.2736674877934107 -21.3828818436822843 21.0093348615722277
27.0732528834457291 -21.5224887847269954 21.0137603777199118
26.8694129977206693 -21.6625248774996848 20.9946605159747648
26.6638997162041811 -21.8018794406896887 20.9542840793086391
26.4586082779727398 -21.9385713907339905 20.8953680945114542
26.2554373275659181 -22.0707374780883825 20.8212208384442157
26.0563525933726510 -22.1971508113075373 20.7356425472115724
25.8634329017157398 -22.3172497139469783 20.6417441215270046
25.6784901227480233 -22.4310321523228495 20.5404470265540127
25.5028337738081348 -22.5393539228391759 20.4310016045898948
25.3357342102766658 -22.6449887126945910 20.3137556508890320
25.1720698898197739 -22.7528441376606096 20.1924532973019488
25.0037910653565518 -22.8674725706418585 20.0750229683001571
24.8250207331865411 -22.9900584958723613 19.9725047461593519
24.6349535959814219 -23.1188232520925041 19.8949679044053624
24.4365153766978302 -23.2521067817952698 19.8465169622772777
24.2335697436909143 -23.3901885493182817 19.8234178946023150
24.0297436616940523 -23.5335418289124476 19.8170679085196149
23.8287438658662047 -23.6797384390599532 19.8195879178341059
23.6334984328210282 -23.8238021941701703 19.8276466188607898
23.4443155851745004 -23.9623740693663123 19.8419072184616851
23.2595612495738386 -24.0960277734173189 19.8634357500276053
23.0785885513949971 -24.2269205864773127 19.8902163540622645
22.9019468532149304 -24.3561150849275450 19.9158054244926497
22.7289063067835997 -24.4834429647609184 19.9303388189858026
22.5574247964768695 -24.6083488701353659 19.9231791998947472
22.3878201777420855 -24.7297453860708032 19.8860285070815586
22.2245282207264552 -24.8455255216494493 19.8149666357884868
22.0725291806798687 -24.9532888451118069 19.7106805793248014
21.9340675067857553 -25.0511471049196786 19.5776734118180968
21.8097291752121158 -25.1375039003495999 19.4229210025808463
21.7003516776974870 -25.2106436499282083 19.2534102300338965
21.6064738768122275 -25.2694373265347281 19.0732518517035174
21.5269669683744027 -25.3146096236601394 18.8831112785065187
21.4594234432697668 -25.3485363456248152 18.6831838385877482
21.4013073347262406 -25.3736336016865565 18.4755164293953378
21.3505708837128374 -25.3910541130985763 18.2628366937035729
21.3059968602025975 -25.4005058484866737 18.0454749064836868
21.2674297980044962 -25.4006828610203996 17.8195127482390205
21.2353903708387399 -25.3899396244677504 17.5788836107995046
21.2102202811489065 -25.3670449654600034 17.3210514922349361
21.1916957758054600 -25.3314264812436463 17.0506095485906251
21.1793420155033232 -25.2829546083939789 16.7757344642891901
21.1722755695791029 -25.2225186472026266 16.5026830574773165
21.1683295386504469 -25.1535626593526871 16.2369684628322553
21.1640740850839393 -25.0818752131444072 15.9857270435869960
21.1562391010370625 -25.0122386925690208 15.7534528273763232
21.1431576482396935 -24.9455777042512068 15.5376744927067918
21.1250354324630010 -24.8797524661677372 15.3319772888594539
21.1029550799298526 -24.8121396872438282 15.1316063758372099
21.0772916898820100 -24.7410490373484819 14.9343322024272318
21.0465563090912440 -24.6658522762970804 14.7381369299025309
21.0074151235872684 -24.5867516535825317 14.5406644330263433
20.9562932122962131 -24.5042053010758707 14.3405927038437291
20.8917154553388364 -24.4179269786494260 14.1383598948774214
20.8154551615765548 -24.3264321940936981 13.9357530204014939
20.7316076140182659 -24.2278511184051837 13.7356421060804585
20.6444992719882272 -24.1209677812936150 13.5415587253480343
20.5569645835399584 -24.0054553028200885 13.3566681960835378
20.4699490256401155 -23.8813313436032786 13.1828062115673124
20.3833084651089180 -23.7481901582945554 13.0202820462304469
20.2969907924554782 -23.6050300278991045 12.8690836477041639
20.2114360839810452 -23.4502350182263228 12.7305922942740271
20.1272783465367446 -23.2813305987493848 12.6087565214547883
20.0450917187471838 -23.0950223054749557 12.5094178398174343
19.9654351187767247 -22.8885341694205735 12.4369448623634362
19.8890656738676626 -22.6621472344499750 12.3906240640452392
19.8171702029570191 -22.4203982162290245 12.3646488628512508
19.7513166649811467 -22.1700420776533136 12.3515960584831710
19.6930644341063683 -21.9170052625164473 12.3457972329046122
19.6435722650204454 -21.6650144935152866 12.3443868096965073
19.6035198229026584 -21.4159551320174728 12.3464925896341420
19.5731662012352636 -21.1708373354680148 12.3518163456671282
19.5521049322285840 -20.9303296235334599 12.3595165343349969
19.5390273390478271 -20.6940850754693102 12.3680044424683278
19.5322590608132813 -20.4593072617254137 12.3757940636137675
19.5307778691796017 -20.2205574897833031 12.3824909678302237
19.5346014550327780 -19.9723598158845626 12.3885965361623924
19.5441269787964487 -19.7132062106683357 12.3943300947847650
19.5591270788289222 -19.4475480048336919 12.3989939561888818
19.5781903730909015 -19.1847369972604298 12.4014202720488385
19.5988479054144129 -18.9359775783489326 12.4006260911162229
19.6183431736385323 -18.7093548675809380 12.3961608385501805
19.6345860915011983 -18.5057092105180345 12.3880527096795170
19.6467126505357541 -18.3178631427592862 12.3763201729393089
19.6547540978236377 -18.1342469937711108 12.3605881891670339
19.6585675169362233 -17.9450632535529202 12.3402018564645903
19.6570072375937990 -17.7456810833230847 12.3144683266876012
19.6480642709521582 -17.5357096442701561 12.2828462565479484
19.6296501094084732 -17.3172488390880694 12.2452356723225897
19.6002015349675069 -17.0941514749636490 12.2020587823464055
19.5587789755043673 -16.8711928334517864 12.1538427887728240
19.5048974130720225 -16.6527705840467704 12.1006568670453944
19.4383738213256336 -16.4416839696399748 12.0418962206790727
19.3592982784669765 -16.2385441845687204 11.9765214835618075
19.2681341777626756 -16.0422267754071939 11.9034216367880248
19.1658550291424241 -15.8510582479027065 11.8216111906020309
19.0541085799188501 -15.6639853552676271 11.7304527848162294
18.9355083059921085 -15.4812150598823628 11.6301478755686958
18.8138491767933473 -15.3040665383341512 11.5222248592205716
18.6935594920751740 -15.1338436589284839 11.4092726047260946
18.5781520996335416 -14.9703382449524121 11.2935788406844608
18.4689154321487798 -14.8114332942656617 11.1758796908972045
18.3652903372170861 -14.6542255370242138 11.0557210339750345
18.2661947772775761 -14.4962169731505384 10.9327961204695150
18.1708140695822351 -14.3354843809557480 10.8075780237231562
18.0787126803789704 -14.1703058493154117 10.6809395467375801
17.9897963283601499 -13.9991036432618259 10.5536480268862629
17.9042759698878911 -13.8207281897668466 10.4263229615222244
17.8225481274477673 -13.6345522424549905 10.2997167626404860
17.7450263174565457 -13.4402051721559843 10.1749097172938558
17.6719991801147032 -13.2372607685201409 10.0531387585553595
17.6036308847853604 -13.0251752851865668 9.9354685638862748
17.5400962893325207 -12.8034833710733693 9.8228625106371403
17.4815850616726678 -12.5720677873939231 9.7165668515641972
17.4280664788641744 -12.3313912286605500 9.6180522646785302
17.3792505187135689 -12.0828899951329056 9.5284600645570983
17.3350425961520607 -11.8297683707109549 9.4484057697996402
17.2959369194720338 -11.5775069975443898 9.3782746844383631
17.2626527596476222 -11.3323324762561946 9.3182192655830605
17.2352666736218580 -11.0973509561998540 9.2676249050740651
17.2128011581972871 -10.8699211377212208 9.2248306155474076
17.1936266087880902 -10.6440428679564505 9.1877227233925254
17.1760533704714327 -10.4159370345024236 9.1547118526871660
17.1585402833395761 -10.1872667475206633 9.1252239444592220
17.1395907247473929 -9.9622434889262799 9.0993142136915068
17.1176343376423006 -9.7410996632766995 9.0768392119624224
17.0910154215610177 -9.5164186610137769 9.0570273265880061
17.0581500122957266 -9.2748014889266663 9.0386547238200237
17.0180954024071482 -9.0029128119729016 9.0205407402456075
16.9714389734155944 -8.6953013742483449 9.0020693464708206
16.9205530605395964 -8.3578972927142203 8.9833809381912442
16.8685841459531218 -8.0033139757826994 8.9650577576793911
16.8181176374606025 -7.6433290797182316 8.9476598518109736
16.7706210386116155 -7.2851753249365174 8.9315035100687457
16.7266593771828695 -6.9320591845916013 8.9166900225418733
16.6863186457136337 -6.5850080573070002 8.9032078021521137
16.6494971777498186 -6.2442009420491971 8.8910032576928089
16.6160361699282895 -5.9095638747602166 8.8800110215558909
16.5857628975602047 -5.5809632438112047 8.8701631733206412
16.5585018716547125 -5.2582541087247492 8.8613913621097318
16.5340771505447179 -4.9412897776922193 8.8536271814215244
16.5123127309589535 -4.6299233374533877 8.8468022195530658
16.4930326026271885 -4.3240078518341782 8.8408480645217509
16.4760607546139468 -4.0233963827278707 8.8356963043521723
16.4612211759308593 -3.7279419918960155 8.8312785270724916
16.4483378555860433 -3.4374977410930061 8.8275263207113213
16.4372347825874279 -3.1519166920729429 8.8243712732973236
16.4277359459429313 -2.8710519065899049 8.8217449728591539
16.4196653346604791 -2.5947564463979855 8.8195790074254656
16.4128469377479824 -2.3228833732512655 8.8178049650249228
16.4071047442133633 -2.0552857489038239 8.8163544336861825
16.4022627430645294 -1.7918166351097540 8.8151590014378982
16.3981449233094096 -1.5323290936231420 8.8141502563087339
16.3945752739559225 -1.2766761861980598 8.8132597863273432
16.3913777840119863 -1.0247109745886096 8.8124191795223865
16.3883764424855194 -0.7762865205488652 8.8115600239225209
16.3853952383844259 -0.5312558858329126 8.8106139075564016
16.3822581607166029 -0.2894721321948612 8.8095124184527140
16.3787891984893434 -0.0507883213891525 8.8081871446404971
16.3748123407010127 0.1849424848247185 8.8065696741542148
16.3701515762390457 0.4178672246242492 8.8045915950959674
16.3646308928314212 0.6481328355279121 8.8021844962751459
16.3580742679981235 0.8758862492414554 8.7992799727359490
16.3503056033746503 1.1012743541294263 8.7958096659456650
16.3411483244320443 1.3244437652496881 8.7917055092737826
16.3304233412723967 1.5455396424264958 8.7869009819031874
16.3179404368515009 1.7647006277827799 8.7813364181606950
16.3034685248547682 1.9820409682643430 8.7749773599989389
16.2866534722358978 2.1975993932843565 8.7678649394664809
16.2668432227727706 2.4112245350661805 8.7602196490735800
16.2428225064083804 2.6223874232154429 8.7525776755332441
16.2125857865748841 2.8300031967960351 8.7458119686444942
16.1733923212553243 3.0324807827308096 8.7407416219220657
16.1222389476891195 3.2282055312905698 8.7371349943585273
16.0565951943579819 3.4162608002318073 8.7325268836165932
15.9751921736336282 3.5967040769637872 8.7220123792222299
15.8787444791722994 3.7701286533239422 8.6998874626908318
15.7700857157674932 3.9374677025305331 8.6622932280055931
15.6532081316335905 4.1005908818089942 8.6088202075441700
15.5319812529487535 4.2623164315024491 8.5421908145248864
15.4095476555589883 4.4253346474135817 8.4669301099507557
15.2882436227555818 4.5914675798228428 8.3880378025694533
15.1695182352452473 4.7619746620116015 8.3098461000976620
15.0540360935961868 4.9378478028282462 8.2353422878650751
14.9422329642277383 5.1194047894269783 8.1663288015337514
14.8346465433747916 5.3061579553018188 8.1039703955437581
14.7315080229535873 5.4976766012423299 8.0490658485695157
14.6323388544156980 5.6942939462738726 8.0021199419024374
14.5364528568314153 5.8963308937209149 7.9635531552169985
14.4438544815347250 6.1026343170279631 7.9339551840872593
14.3554604267866335 6.3103713656527738 7.9141254018661522
14.2724700190180620 6.5166709233460880 7.9049234171569287
14.1956303406531781 6.7205367072387974 7.9071590078317016
14.1250819751243810 6.9231412125576863 7.9215863023856157
14.0607431233746354 7.1263601444224642 7.9488077435270759
14.0028105813547121 7.3307427006734303 7.9889862024397962
13.9519026130603674 7.5347247046739643 8.0416113271270788
13.9087068083022523 7.7359564669817100 8.1056282145316132
13.8735624319458175 7.9332629086556086 8.1798461301285315
13.8463078274588369 8.1273450810380528 8.2632098816482351
13.8262820705302243 8.3198230462450393 8.3545454074389554
13.8122999242184328 8.5116522009583342 8.4519045468821226
13.8026093569529937 8.7025397855437259 8.5522308564386726
13.7948890322336482 8.8919705157591924 8.6518118573935361
13.7862436318410477 9.0805152597202792 8.7469274423497048
13.7731559113272510 9.2699192019907102 8.8338768582799219
13.7516700649722345 9.4618431941992789 8.9084218419929169
13.7180403966456179 9.6563497217850127 8.9655183333742272
13.6696090780703141 9.8514382622745789 9.0001444637592130
13.6054961236436771 10.0440254374814053 9.0089114706925812
13.5268771155836642 10.2315198321125838 8.9913284255845056
13.4367201087716719 10.4127504283796206 8.9499307647358499
13.3389155005531279 10.5881632565482313 8.8893913958891879
13.2372188357275373 10.7596272611399648 8.8152728040285613
13.1346176786164150 10.9297774971378363 8.7330310253344940
13.0332588208291167 11.1010720645516727 8.6474544804142823
12.9347041552959698 11.2751019400404289 8.5624604238872202
12.8401240472563902 11.4525855744757497 8.4810465907577655
12.7503391979578975 11.6337690485313523 8.4053338125247201
12.6658880094683770 11.8188152011766228 8.3368058631783377
12.5869214778702325 12.0083597353708864 8.2765036933827183
12.5129245498843282 12.2038862191826532 8.2249947057451678
12.4427450199711469 12.4071173141912396 8.1823694373035032
