BEGIN_0
-28.2100439992277074 -4.3200302154756507 10.5386368274217830
-28.0438070007376687 -4.1485651301028632 10.5572050212812840
-27.8715544717107768 -3.9889563315281116 10.5736050051789601
-27.6930458783656128 -3.8425730691025048 10.5847990231323887
-27.5096096864534090 -3.7076813713510610 10.5887740668808306
-27.3236184212015836 -3.5804482632794059 10.5846964763294817
-27.1377709897191117 -3.4561964232911588 10.5722304558226678
-26.9550582512100405 -3.3300440997623237 10.5506753738645713
-26.7797394607946480 -3.1974662181806810 10.5187016555900570
-26.6175742655303935 -3.0547739979674375 10.4749101156611975
-26.4741022073989782 -2.8993163621179789 10.4187438423645808
-26.3527203726783696 -2.7301503115145813 10.3510754290966531
-26.2543868929359157 -2.5497032696380337 10.2744592877289520
-26.1785178315475839 -2.3648628869276020 10.1930921055925481
-26.1236490047810541 -2.1845937171635352 10.1115722899817904
-26.0874061705744431 -2.0139278602772492 10.0321445811489625
-26.0665226832917583 -1.8494690181011197 9.9526456782759603
-26.0575702686493962 -1.6822336102275219 9.8679250582624078
-26.0577447432506233 -1.5051939145967825 9.7734791776326553
-26.0646360925890583 -1.3167687961134913 9.6672866244482272
-26.0754362815633165 -1.1187302324454471 9.5492892267690763
-26.0868771074016799 -0.9131997335614379 9.4205114074691316
-26.0959624927033893 -0.7014679463968765 9.2827709141565080
-26.1005588133223760 -0.4847088379283520 9.1390027100974187
-26.0995369271217328 -0.2657353317375133 8.9937850014887424
-26.0926941431009780 -0.0495678258400485 8.8528583743627074
-26.0803541990882763 0.1593170054845601 8.7208980285315008
-26.0627164980044839 0.3606223798905930 8.5993086598384512
-26.0395946953679882 0.5580023883576963 8.4867412054464957
-26.0107416817180308 0.7559377878892448 8.3812943274798286
-25.9761953023992369 0.9576183284122504 8.2818310355870057
-25.9362648041497046 1.1648184979300584 8.1880150626232151
-25.8913558479492849 1.3785384385935213 8.0999267820458041
-25.8418667631050525 1.5994808713360325 8.0177517273157530
-25.7881380274011285 1.8281913764015663 7.9416759343691004
-25.7303913892934872 2.0649016269100766 7.8719726090855158
-25.6687459199835075 2.3090031245145646 7.8091577920551511
-25.6034627167010136 2.5581858798883541 7.7540777296197172
-25.5353090633215452 2.8079155340473676 7.7078262948500891
-25.4655266282114887 3.0525286135007583 7.6714575277898334
-25.3950233211121237 3.2882867545919314 7.6456155366865479
-25.3233143291041998 3.5159921143472594 7.6303668314707824
-25.2483709756414392 3.7398346005888836 7.6253821973173395
-25.1677559340235852 3.9630386330191207 7.6302246406846335
-25.0800387498275654 4.1848884030556901 7.6444481162290971
-24.9853327403060632 4.4018853107269313 7.6675371460173523
-24.8849327820300381 4.6107382890383777 7.6988749756187920
-24.7805841791212558 4.8100190012320745 7.7377793125210825
-24.6736870659501975 4.9999787375477371 7.7835494126004390
-24.5646790707319944 5.1818084355593594 7.8355379932368470
-24.4527928775106567 5.3572883820097079 7.8932061647467515
-24.3364788189083541 5.5287487008536624 7.9560746855879270
-24.2145320943668807 5.6986702875158466 8.0234950498010864
-24.0871765596336616 5.8686983342610883 8.0942190490170738
-23.9560691751298833 6.0390722715904026 8.1660468975313307
-23.8233694536164258 6.2094641400274266 8.2360230059188808
-23.6913139606393557 6.3803864733136360 8.3011291842921437
-23.5629073878064901 6.5535130661241174 8.3588246312557715
-23.4427506649331328 6.7302656798042602 8.4068694210515797
-23.3368869886346673 6.9098921225323169 8.4426846841822965
-23.2517470932961920 7.0893155609447840 8.4631474354398790
-23.1928583706247871 7.2656189922089069 8.4650091834531764
-23.1634323386482102 7.4387728175980437 8.4452752553891308
-23.1632431608448606 7.6108821123659460 8.4015328305450865
-23.1886118340052327 7.7828910038477002 8.3329156241101288
-23.2334852596943868 7.9536925943597589 8.2412659249399862
-23.2908935386482518 8.1217088638214499 8.1311694376914403
-23.3540615940045662 8.2860205377426368 8.0085762201717827
-23.4170091602477406 8.4467501877792657 7.8790523302580775
-23.4749106218016053 8.6054067985137639 7.7466594575021448
-23.5242637238144425 8.7648797643925569 7.6139170214346192
-23.5629013398469631 8.9288924236333695 7.4826523240843770
-23.5900145574242970 9.1018215953154176 7.3546583299918913
-23.6059515548914298 9.2890238556650040 7.2315484060601811
-23.6116155315009415 9.4957405009409257 7.1148216317936646
-23.6078619151219655 9.7230820561884634 7.0070635430940440
-23.5953583289881905 9.9643413814272677 6.9129184474110339
-23.5746797570700259 10.2079978393310924 6.8375043640598578
-23.5462915697474102 10.4461585464544022 6.7833038161966615
-23.5106640301648540 10.6782013770118844 6.7494081796738348
-23.4685399331141760 10.9067421525408843 6.7334873272131244
-23.4208310385255949 11.1328088683342372 6.7336566149627171
-23.3680648286140489 11.3550597257050079 6.7487890301198874
-23.3099058148379150 11.5715534246732794 6.7780016987715248
-23.2451240296164343 11.7811463443045472 6.8203341713404724
-23.1720279003639327 11.9837180410920041 6.8747500283586280
-23.0892619501290888 12.1797335687677641 6.9401509770582406
-22.9966393211671587 12.3694416629782609 7.0154593685893953
-22.8953305776150735 12.5520502649116423 7.0997286623757656
-22.7870164401843773 12.7260161817507402 7.1918657104987798
-22.6727176226485696 12.8906118311477638 7.2900794865963121
-22.5526648312360898 13.0467685993811511 7.3916158005124863
-22.4272505598918670 13.1964538041190647 7.4928241245745681
-22.2977320069946288 13.3422516121830768 7.5895288768909506
-22.1661230757479188 13.4875230741380712 7.6776860982572117
-22.0348590033304141 13.6360156569473219 7.7536484908348413
-21.9067716545727222 13.7909123117602146 7.8136209039602509
-21.7853418024746226 13.9540691094217308 7.8531946818284171
-21.6748894859375412 14.1254661342789891 7.8678272805336089
-21.5800725526076072 14.3030305832576499 7.8540626849819439
-21.5045446981855477 14.4833002125279968 7.8107532440400576
-21.4497303900863372 14.6624031227935987 7.7396582700534768
-21.4145518996298989 14.8368163570411937 7.6450045978457561
-21.3959241889730976 15.0045171199900409 7.5317784786662241
-21.3895816065705695 15.1664935483059811 7.4033876719302762
-21.3909283163798207 15.3268614260663618 7.2604799976110810
-21.3955159803446868 15.4907777762387315 7.1021023833608998
-21.3991498821363599 15.6617054922367860 6.9284936927762839
-21.3982350825939882 15.8391240296565972 6.7440622553142342
-21.3904228687601332 16.0179746863920691 6.5580140515505487
-21.3747186210704747 16.1920139496511872 6.3803731537784234
-21.3507185836246549 16.3591061126556454 6.2165733658860454
-21.3176767762093888 16.5225986956135174 6.0670155630016520
-21.2742122557231212 16.6882358235748178 5.9305725640766855
-21.2187828026811438 16.8605413870831740 5.8068214872624004
-21.1505350818437243 17.0411857752330747 5.6959422516481730
-21.0700259169486444 17.2293591302377962 5.5982268077285564
-20.9793539584842179 17.4228333091084266 5.5141543967515378
-20.8815886917879823 17.6186215480403412 5.4446153004377464
-20.7796242364169466 17.8137541689275878 5.3905888675551825
-20.6747284689858439 18.0069136231095008 5.3524190972692143
-20.5658667330656471 18.1994805078897528 5.3296143613311475
-20.4509250526913533 18.3939704288546366 5.3214037660102562
-20.3289938729167723 18.5910231667413512 5.3272430013418770
-20.2014120758273492 18.7881012899298767 5.3467427530448646
-20.0706184551065085 18.9809697184847792 5.3793320786142331
-19.9385395027496415 19.1659157613765956 5.4240863734655225
-19.8063254710461258 19.3409646976726961 5.4797639229840716
-19.6751410468268162 19.5061643636727879 5.5450604234037986
-19.5464261977855820 19.6633227904600361 5.6190554183616293
-19.4210237119358133 19.8152652144430093 5.7015024970284802
-19.2984412462037227 19.9649471307705682 5.7926355768594622
-19.1774757574233270 20.1146909287889741 5.8925299706906102
-19.0575034912881698 20.2655260135455926 6.0002981585906152
-18.9385555323864665 20.4170432389805043 6.1136279994444962
-18.8197755902353201 20.5681322806517635 6.2287972535862224
-18.6984774574543309 20.7179642539983320 6.3406073102661882
-18.5717198204342715 20.8667294384551560 6.4425479910320416
-18.4388682924712235 21.0159777728782444 6.5280059360880323
-18.3025563413545882 21.1681428149666786 6.5915314326466969
-18.1680400625928549 21.3255096148135159 6.6288145598945878
-18.0420613728954642 21.4895686442825529 6.6366136517621825
-17.9314633512508195 21.6604816157045192 6.6136910398177875
-17.8419588182060558 21.8361269033692622 6.5614496703284999
-17.7776885301809138 22.0117554925583896 6.4828813010161515
-17.7408915750549951 22.1813733315144397 6.3802766596594083
-17.7303621727660463 22.3401788090134339 6.2534859654842077
-17.7394210052584071 22.4868460471199185 6.1002294593443818
-17.7565653389812113 22.6243915618489169 5.9185894825082510
-17.7700860104892762 22.7576707771159761 5.7104300079434349
-17.7728736119336688 22.8889225056718359 5.4827914581771324
-17.7630369871378129 23.0170305448126200 5.2449194616450008
-17.7408948300143408 23.1410695578255847 5.0046685271608933
-17.7064268844870654 23.2622880952947853 4.7692569246791638
-17.6591707974462970 23.3830471479683446 4.5459230916935525
-17.5990967522673998 23.5056378818511043 4.3389781644427821
-17.5267816671647836 23.6321079642544163 4.1486420115653022
-17.4428442900922356 23.7646457264394684 3.9737151128456389
-17.3474327436400806 23.9057425975480378 3.8140951842572139
-17.2402947553262962 24.0574578881925802 3.6708276884782816
-17.1213774530330767 24.2202086782919999 3.5451433416999212
-16.9916800177850718 24.3920919860590786 3.4380492575622217
-16.8537632845294425 24.5691485309868725 3.3503109032752914
-16.7110615209560471 24.7466007970149739 3.2821981474649800
-16.5659142886753834 24.9209162263254385 3.2330447254058985
-16.4177686170232882 25.0915703657981695 3.2011921982581484
-16.2631636234034573 25.2609398920729298 3.1846204385362071
-16.0977252991203912 25.4319209610566155 3.1818391685552552
-15.9192301481439600 25.6046171865378795 3.1923661142435158
-15.7293908660020207 25.7751212677813584 3.2164309613251874
-15.5326096132520100 25.9377687060603392 3.2542694658996965
-15.3333157386567933 26.0881827539346602 3.3056614362177754
-15.1344053012461508 26.2244095383326439 3.3699168217345061
-14.9372501995185729 26.3463141013480282 3.4461008431973106
-14.7423390546188884 26.4546119196419696 3.5332622070522959
-14.5497613058868680 26.5502102352965501 3.6305258777547884
-14.3594213534886137 26.6339436759282222 3.7370313613879205
-14.1712291527771335 26.7067897144726558 3.8518553509666074
-13.9853124940930513 26.7703719237440794 3.9740378993115382
-13.8019470400158895 26.8268234152697183 4.1026583730049229
-13.6212230141107078 26.8777707950976890 4.2368416319035997
-13.4429071500492814 26.9236465878707136 4.3756937110110883
-13.2666821514839697 26.9641978014757697 4.5182474303685716
-13.0924421992037896 26.9995429144700338 4.6634664695333861
-12.9203233707119587 27.0306216820799889 4.8102999135748181
-12.7505191177256965 27.0588127136137047 4.9577438518915340
-12.5830927006142730 27.0853482657240150 5.1048963793954947
-12.4178711934202610 27.1109636894436861 5.2510559942892066
-12.2543439988505707 27.1357571269344788 5.3958469919384839
-12.0914106443089384 27.1592703022696966 5.5392124164661301
-11.9269664379558105 27.1809678148024005 5.6811804621819277
-11.7578002703653155 27.2009784176409752 5.8215015781106452
-11.5805677237726936 27.2204418150961232 5.9591625292392880
-11.3936983298663943 27.2409504877605713 6.0917091321896848
-11.1985497354634695 27.2636769037218762 6.2148374616470310
-10.9985236750434456 27.2893866237839902 6.3228152240552600
-10.7972203880969548 27.3193945628826995 6.4094042482666396
-10.5972499619747289 27.3560019221798996 6.4690818063823983
-10.4001215885794540 27.4013517538177211 6.4986269053101537
-10.2066636296985482 27.4557530799424754 6.4983201776766872
-10.0171517111285695 27.5173057880411562 6.4718546276089803
-9.8308920949665364 27.5830540730720060 6.4251724099153051
-9.6461045948750854 27.6504706751809337 6.3651353975341820
-9.4607800443956993 27.7183245019938482 6.2983776169438848
-9.2737158050555841 27.7867740520398812 6.2303655115977801
-9.0844928164217080 27.8568646758701703 6.1651690184868784
-8.8928074011549878 27.9296407285311545 6.1060604841424961
-8.6984265331499646 28.0053360246042260 6.0561893064853525
-8.5015906815855580 28.0833460118535001 6.0184763445446876
-8.3030084548446546 28.1629006847096335 5.9949961839063572
-8.1034954722429742 28.2435414197516472 5.9868650044129232
-7.9036183097438713 28.3250162112084816 5.9947224922799940
-7.7038161069482118 28.4068585832909157 6.0189589217394097
-7.5050942698947480 28.4880652805515098 6.0593561028073637
-7.3092945378098069 28.5672578106420900 6.1147321191227046
-7.1181210105221666 28.6433566123437622 6.1831024358382400
-6.9319024482801854 28.7161126680349206 6.2620816621226023
-6.7494517389660036 28.7859677466019122 6.3489167427115021
-6.5689376161644955 28.8535473303073395 6.4399927717372449
-6.3885551184102347 28.9194346065623620 6.5302444453705029
-6.2065706415943236 28.9843168420593180 6.6128079446953940
-6.0217183328420312 29.0488261470314981 6.6788736113016238
-5.8342394346906055 29.1127112735853615 6.7182637042690665
-5.6465627627928683 29.1740833975976273 6.7215724620392781
-5.4629171006978581 29.2296106445472006 6.6832432689507204
-5.2878917128731411 29.2756755674290261 6.6034247437805611
-5.1245153464680415 29.3098185051140305 6.4872688696394665
-4.9732699834286125 29.3316840147058571 6.3427235329646745
-4.8327586426620899 29.3431108487912340 6.1785524412596029
-4.7008198928321434 29.3475040781061729 6.0028259558424928
-4.5747867489183598 29.3487239472764720 5.8215448339931708
-4.4512787440641315 29.3498560741372749 5.6381222962169346
-4.3264600153711559 29.3523589669582918 5.4543840966559394
-4.1966329233809017 29.3559995057658689 5.2720763679215796
-4.0586351981198838 29.3595891804930815 5.0936283472237047
-3.9100013195420047 29.3619982527187986 4.9221207418266744
-3.7491742366659881 29.3628636035022481 4.7610459644458327
-3.5758954491025108 29.3627586801855252 4.6141442744793117
-3.3914065875971371 29.3628036673462276 4.4851269735429256
-3.1977461848392261 29.3638701712523122 4.3770217541968499
-2.9961494912795992 29.3659635094842635 4.2913960460870264
-2.7861067065766640 29.3683935962051876 4.2282782446946481
-2.5665093839761877 29.3704749302440753 4.1870456307915109
-2.3379573076579145 29.3719364260989479 4.1673300914335787
-2.1041480648452291 29.3727871391346014 4.1691073610091323
-1.8711701538482703 29.3730154518449567 4.1922022601564528
-1.6452470589916914 29.3724776856349834 4.2359159521020917
-1.4306963724177582 29.3710320134635268 4.2991396136023425
-1.2292071785266931 29.3687404737481508 4.3808554503956643
-1.0401819822983480 29.3659395983088665 4.4806465274289771
-0.8616254914627990 29.3631882099336110 4.5987126464763506
-0.6914431545786286 29.3611962152016055 4.7350738553289595
-0.5286622076789111 29.3607037745270496 4.8884757355880293
-0.3734259387541714 29.3622458777104747 5.0563456249229528
-0.2257290723320629 29.3659258926169429 5.2360486317041683
-0.0847545944882788 29.3713705828620419 5.4254807685026432
0.0505603462679511 29.3778291713619737 5.6221049646593801
0.1811841082814887 29.3842955258634824 5.8222336722430157
0.3083743053797430 29.3896457260548694 6.0215001935747861
0.4341542702016272 29.3929039767250089 6.2156316500521189
0.5615733564976164 29.3936584092469353 6.4007716744509864
0.6946906731735125 29.3923886452468430 6.5732072772714929
0.8379395818813933 29.3904856245379129 6.7284375655587461
0.9947144064157196 29.3899788153894974 6.8601867236395719
1.1660175947878175 29.3928919167047518 6.9609218559451911
1.3503437030694112 29.4002292164636359 7.0245799834967402
1.5447305028041054 29.4111100257626816 7.0498137238826528
1.7459662333336778 29.4227707326321024 7.0411324668927042
1.9512023498437214 29.4315749768796309 7.0071589520804718
2.1580438993619859 29.4342752953273283 6.9577360546431253
2.3646315443469463 29.4285876687143286 6.9017654767496612
2.5698920793974538 29.4129997570300254 6.8462677048344407
2.7738333879317834 29.3867668908150641 6.7963028869580979
2.9775754845690110 29.3506141644328480 6.7553901949390367
3.1827029883020281 29.3071013861919916 6.7262072485480786
3.3899288307612387 29.2596502520594761 6.7113216613399569
3.5981914568024553 29.2109810103369263 6.7134697036402127
3.8051025081798180 29.1624407843216460 6.7350052919626133
4.0081544700434861 29.1143659448840495 6.7767789215691741
4.2057518209575431 29.0665930506336778 6.8372925847891857
4.3978057714939682 29.0186571816641568 6.9127345881391511
4.5856492937264539 28.9700334762997862 6.9973912285704092
4.7714841503311867 28.9207561532015411 7.0836433104742733
4.9578936798443030 28.8719805110168579 7.1618977147770586
5.1472293713119939 28.8258055731859919 7.2212380592965530
5.3405796129062271 28.7843749088593803 7.2511580346074949
5.5368322678008459 28.7489070636285007 7.2442737830091835
5.7328249279710786 28.7190764541125212 7.1987058650675335
5.9247663381984195 28.6928623846195023 7.1181169138900255
6.1100929879586303 28.6671331539226131 7.0092944327820144
6.2885352713794846 28.6391000953242312 6.8795711880838013
6.4616865784318254 28.6080179374901675 6.7357436380828766
6.6315539526321112 28.5757931486844043 6.5839621937005059
6.7991400539952469 28.5456461535125783 6.4297132260434289
6.9641669239083264 28.5195929080341166 6.2775137757478543
7.1262215872953112 28.4968394892399779 6.1302363231245920
7.2860182202262909 28.4743313474321020 5.9887805006416936
7.4453230668678376 28.4484384397620040 5.8528542255638989
7.6059919560408664 28.4161311208322900 5.7221999779305914
7.7693272500308321 28.3751866207877690 5.5972357865732043
7.9360637130262797 28.3239128304144749 5.4790079098147544
8.1066140627486902 28.2608763417822502 5.3689082014275158
8.2812775258571545 28.1848176061033371 5.2684589050516113
8.4603623945317388 28.0948220480219177 5.1792016983858584
8.6442524005038734 27.9908721519011472 5.1026298079655028
8.8333648896363748 27.8748467405247666 5.0401202131541663
9.0278354592018957 27.7515297381097028 4.9928834279362917
9.2268827871603882 27.6284106359582040 4.9619996275562670
9.4283150110120602 27.5132576569316640 4.9485564229779069
9.6289113739594754 27.4106012923659392 4.9537245980259161
9.8256114975017042 27.3201549873831482 4.9785651926624865
10.0165480494323056 27.2384265747146159 5.0236599798112298
10.2013458722335990 27.1614628828985936 5.0888417505172541
10.3805888264834252 27.0865508471738110 5.1730091198211916
10.5547341004096573 27.0125914561121014 5.2739623169899570
10.7234225504683884 26.9396201813178422 5.3885612166324837
10.8859703354660056 26.8678993712969501 5.5131988720959644
11.0425162950535949 26.7972233161572291 5.6441272113272962
11.1947404309819731 26.7268568175728234 5.7775241151950478
11.3457082873071400 26.6559845007934371 5.9092241566559327
11.4991370422078596 26.5842388981093336 6.0339949450805310
11.6585485733259233 26.5118995079442819 6.1449564378416710
11.8264808168653897 26.4397574336456955 6.2338428138380255
12.0037534581190961 26.3689556785088897 6.2923259918748329
12.1891499668910033 26.3007887540571730 6.3143945470358229
12.3799126337799557 26.2362982193332783 6.2985620751484177
12.5728734934137147 26.1758784496960715 6.2480515705545798
12.7651664182377012 26.1192617885843426 6.1690072874472950
12.9541071491517492 26.0658061434215966 6.0685610821758864
13.1373335271408251 26.0147742103897066 5.9535488017561935
13.3139413965809403 25.9655172125846363 5.8294228069398883
13.4853906801495711 25.9176520126865100 5.6995652352519119
13.6547368653330157 25.8711022568936428 5.5656694776812223
13.8249143900684981 25.8256817720219018 5.4287542667995439
13.9976203210653338 25.7803897366715518 5.2898939627433279
14.1732662785700274 25.7331099473176792 5.1504196176407806
14.3515256235378441 25.6810435926030820 5.0118672460953402
14.5318822846456541 25.6214095701213722 4.8759026182609606
14.7138975202001010 25.5518459029579432 4.7442739910298979
14.8972084067142632 25.4704579805500693 4.6187866264881023
15.0813432721658067 25.3758178984311975 4.5013024921111153
15.2653773577001193 25.2672077755144286 4.3937646432371906
15.4475274892421961 25.1451565590475568 4.2981921135633385
15.6251502925352046 25.0118725147292764 4.2164980232180387
15.7958172196164242 24.8708272950623623 4.1500053282018925
15.9592146368965722 24.7253377315870395 4.0988856768545681
16.1179790743658984 24.5773366437288843 4.0621414599541961
16.2760190364255308 24.4274330246315969 4.0383796340266187
16.4357382626742812 24.2756182919229140 4.0267238626380983
16.5966061114206518 24.1217322973154964 4.0271708915795923
16.7558583290309748 23.9656237883091983 4.0403939112886107
16.9102864974259646 23.8069938819446918 4.0674246839880599
17.0577553859865176 23.6449526186089578 4.1094005734643311
17.1978003669807613 23.4779250626478415 4.1671885175688796
17.3311155038162426 23.3046255399698907 4.2409659672915545
17.4582062858678810 23.1257520486921138 4.3301434275821702
17.5783949096615899 22.9445639017791905 4.4337598726646235
17.6901088465474103 22.7652407376166970 4.5509648425053868
17.7917096064473199 22.5906784901120510 4.6809497709901535
17.8819820598894026 22.4217222144016652 4.8222511340237055
17.9604092542015721 22.2578378731118818 4.9720839823291776
18.0274957488514076 22.0981260067551872 5.1264631081443301
18.0848848135033080 21.9418695117525075 5.2814206390085339
18.1349423681513215 21.7883484981664139 5.4346371024219824
18.1800866551862939 21.6362135875449546 5.5860284399300486
18.2224630418903004 21.4831975065332976 5.7367373264395010
18.2641220648028337 21.3268250934868959 5.8872731075486726
18.3073273013854738 21.1657811739444384 6.0359958211541080
18.3546940864500634 21.0005012901456283 6.1790673549205639
18.4092041907218906 20.8321278263946965 6.3118731386026994
18.4740481954221032 20.6611803226485549 6.4302703465601390
18.5520286655894360 20.4877874338673607 6.5306163304654063
18.6446285529781797 20.3132378735309800 6.6093337886488328
18.7515225492961655 20.1406271664779979 6.6631842488766964
18.8710221881945230 19.9734247056102063 6.6902138010906125
19.0007430034097951 19.8136373756499111 6.6903091797110559
19.1377071666254785 19.6613203530411518 6.6650125805042268
19.2783692958392479 19.5149639576402123 6.6171745802167337
19.4193580611069407 19.3718051722929872 6.5506481129481546
19.5584441615049016 19.2283083617100985 6.4698117293542818
19.6945759543107606 19.0812571277146290 6.3791473233299012
19.8270348429634247 18.9289135159051760 6.2831391884829610
19.9547013555530803 18.7714403734069180 6.1861626475937115
20.0761641810447706 18.6102494072174913 6.0921234114924498
20.1907197631183308 18.4465681432140691 6.0038083078154862
20.2992931881809362 18.2802631125653896 5.9223830519627292
20.4041320317054087 18.1098032240060967 5.8477131874737616
20.5075445762593915 17.9330264124781351 5.7794780867042235
20.6109033869387623 17.7479539191921063 5.7182157053813842
20.7145274506203485 17.5534268923396652 5.6654842515751138
20.8180736780893625 17.3496014559356126 5.6231232625964438
20.9207360283084789 17.1381754490874627 5.5923740964531454
21.0211316213472053 16.9221676372798626 5.5735551546789228
21.1175246499883293 16.7050547346322560 5.5663419661948339
21.2085593848099521 16.4894723700909438 5.5702330692619046
21.2935948032851350 16.2766501504596057 5.5847431763382041
21.3723443784612250 16.0669872008355696 5.6093516546585036
21.4447812411595216 15.8602841075807781 5.6436533821143158
21.5113178736859467 15.6553440796914529 5.6876758398761851
21.5724250975110365 15.4503449896825984 5.7417822654997774
21.6278764369729295 15.2443970779937850 5.8059674971006352
21.6766853752573851 15.0385710170730462 5.8792692972702660
21.7180010735206359 14.8349358644970017 5.9600368870136737
21.7520122711298072 14.6347006882206667 6.0467348187212036
21.7800669857201008 14.4373219093890910 6.1383730358366559
21.8041313319913961 14.2411754371336645 6.2340931515263005
21.8262690590601345 14.0450271245717246 6.3322875876035756
21.8487274877896667 13.8487971162227215 6.4301795505850343
21.8744458352970916 13.6529585594884235 6.5242040503036947
21.9072183421289601 13.4578472803263711 6.6103646196490740
21.9511755125455075 13.2639714980643273 6.6840496328110799
22.0097089324743145 13.0724632905028013 6.7399529677604253
22.0842052171034204 12.8846371577959911 6.7728101295873051
22.1733578127305364 12.7012747804538542 6.7786654814666818
22.2737676889195377 12.5224967754422281 6.7558704818588424
22.3814311073156205 12.3482155094700090 6.7053996070520530
22.4930046664398589 12.1787143619598144 6.6307021583187318
22.6062575739614964 12.0146672527113214 6.5371516448226821
22.7199701893136741 11.8563381929190719 6.4307938231005863
22.8336975895227177 11.7024980633884006 6.3167195408708601
22.9472524594332619 11.5503145273509897 6.1983976010512141
23.0598686621392623 11.3968044295697233 6.0786272416595608
23.1698414889488262 11.2405017207512152 5.9607106569189963
23.2752003337845892 11.0815487807728914 5.8482880812756584
23.3748898755472183 10.9201696348252248 5.7441960223341777
23.4694023147910009 10.7553238685495920 5.6497424084764241
23.5602870730451919 10.5848202388564605 5.5650418506797070
23.6490475778185356 10.4062198637861592 5.4898669994765754
23.7363380560157111 10.2175867099427933 5.4242672817240880
23.8218749776957139 10.0179345802228728 5.3687347293581968
23.9047962262295464 9.8075279978664298 5.3241012205346294
23.9839545529122056 9.5880511821881296 5.2913393987146549
24.0579577569849299 9.3623742932595970 5.2713055260658344
24.1252571118460537 9.1335825822881862 5.2645095436745155
24.1845235262276717 8.9038240841269687 5.2710174444667608
24.2349144934931786 8.6744899465821135 5.2904714339623542
24.2759224669432250 8.4475793045062026 5.3221536420606874
24.3072957453265204 8.2259955318067668 5.3650526675111934
24.3292792753437155 8.0126567085830622 5.4178662659208729
24.3427527903003273 7.8099099625863886 5.4789557416266650
24.3489187276189902 7.6192804322382965 5.5465303328435756
24.3487412909401257 7.4404283513170597 5.6194361852509278
24.3424966590121805 7.2695291507513247 5.6982839051112109
24.3297005640528816 7.0995287980788335 5.7856094154622628
24.3095004439532580 6.9237432174882132 5.8841542512902976
24.2812537166188811 6.7399102435567579 5.9945779233401542
24.2448539499776032 6.5506944377599750 6.1147782099924335
24.2006750183663399 6.3607493473071415 6.2410217496416731
24.1493997968070602 6.1735786631628820 6.3692739138920160
24.0920849613002872 5.9899952539940564 6.4957505014402201
24.0306279312952533 5.8076593098285842 6.6169534581862539
23.9686213928116771 5.6209591084695436 6.7296062606067739
23.9123072906163650 5.4215959401427183 6.8307868789145081
23.8707590715120723 5.2014565598790066 6.9185783223535493
23.8539805039631148 4.9589594659849832 6.9928625210219586
23.8687059925308809 4.7046684451666696 7.0554366673321658
23.9145876381775935 4.4572347267487764 7.1092278447314632
23.9848169380662632 4.2305880321257350 7.1571995691767629
24.0708509229531344 4.0264846275099213 7.2017170188360078
24.1664223271721639 3.8383548322644572 7.2444023764060956
24.2682985518618715 3.6586375962239988 7.2862114843602068
24.3751629002980863 3.4824269859511574 7.3276110987277336
24.4864871039801564 3.3073829033725310 7.3687832049128001
24.6019702766492330 3.1325351435792754 7.4097806989625319
24.7213573474396036 2.9574299233483732 7.4506107660020433
24.8443990080562926 2.7817620107795946 7.4912678123918006
24.9708461015797418 2.6052599871781066 7.5317433966810867
25.1004493532225155 2.4276586447983579 7.5720285686646953
25.2329594570019324 2.2486937064029746 7.6121143053054983
25.3681271024148423 2.0681010089954146 7.6519915752860870
25.5057029785414926 1.8856164010725784 7.6916513465594747
25.6454377744421826 1.7009757320746495 7.7310845870318721
25.7870821791778972 1.5139148515043654 7.7702822646077285
25.9303868818098380 1.3241696088677539 7.8092353471915139
26.0751025713992277 1.1314758536709864 7.8479348026877034
26.2209799370072965 0.9355694354202289 7.8863715990007801
26.3677696676952742 0.7361862036216529 7.9245367040352184
26.5152224525243803 0.5330620077814245 7.9624210856955040
26.6630889805558482 0.3259326974057259 8.0000157118861104
26.8111199408509080 0.1145341220007232 8.0373115505115234
26.9590660224707861 -0.1013978689274069 8.0742995694762154
27.1066779144767089 -0.3221274258724947 8.1109707366846706
27.2537063059299101 -0.5479186993283669 8.1473160200413659
27.3999018858916159 -0.7790358397888575 8.1833263874507800
27.5450153434230565 -1.0157429977477914 8.2189928068173934
27.6887973675854724 -1.2583043236989937 8.2543062460456902
27.8309986474405200 -1.5069839681360779 8.2892576730402503
27.9713698720560515 -1.7620460815495296 8.3238380557071636
28.1096617305807115 -2.0237548143891626 8.3580383619719605
28.2456249130443524 -2.2923743166600374 8.3918495599707157
28.3790101175774012 -2.5681687342574211 8.4252626197602289
28.5095681052042380 -2.8514021808422942 8.4582685261963242
28.6370500493111528 -3.1423385549100988 8.4908583604386703
28.7612093999990854 -3.4412405305986500 8.5230237316825672
28.8818101302850820 -3.7483648373917173 8.5547586761789951
28.9986565214295844 -4.0639435697745512 8.5860665030930292
29.1116787350225898 -4.3881217510567545 8.6169795874201558
29.2211186614757565 -4.7207827430401821 8.6476035537703844
29.3277988307597219 -5.0611471853532208 8.6781876853375266
29.4332551027094240 -5.4070504288709564 8.7091880932256167
29.5393013379192340 -5.7540468000419160 8.7412528063306816
29.6468469447981740 -6.0950474583683807 8.7750976838662247
29.7547386956785118 -6.4216095274380010 8.8113809105102376
29.8599810920095017 -6.7270971887228939 8.8507316933764741
29.9594814238773601 -7.0096401033098417 8.8938715059000089
30.0516761586809693 -7.2721042459732388 8.9415846378467663
30.1367297929486782 -7.5193064295659546 8.9945208191691179
30.2156974343759472 -7.7553902019323786 9.0530770606581505
30.2896471696407481 -7.9830447121174508 9.1174701470028232
30.3592511224249861 -8.2039366684902220 9.1878621067784536
30.4247256581327719 -8.4192500226769411 9.2643921228058943
30.4858449793313007 -8.6298617581795263 9.3471396073226014
30.5420431466193563 -8.8361982213941950 9.4361175092123162
30.5927049033990492 -9.0380795457299890 9.5313003682427890
30.6375194920556275 -9.2348492524692603 9.6326384615046408
30.6766338128168208 -9.4257904091231950 9.7400586054467926
30.7104822848064991 -9.6105217915112711 9.8534899543929839
30.7395070180990828 -9.7890980747931096 9.9729290371939250
30.7639894468031869 -9.9618888993687733 10.0984254887786662
30.7840082875844132 -10.1294103491523906 10.2297925461214998
30.7995411404662853 -10.2920648642931098 10.3661408482479587
30.8107020011237971 -10.4497520961228041 10.5057461031364134
30.8178760510936058 -10.6015595023709466 10.6465173090555787
30.8215331405524857 -10.7458550271950379 10.7866511460348686
30.8219030895391199 -10.8811164203597812 10.9252156670517273
30.8188221599604155 -11.0075406040840100 11.0630357672938029
30.8117965064302091 -11.1281764978176270 11.2033357078836531
30.8001357625091181 -11.2475587032888633 11.3503467068643076
30.7829845922146816 -11.3685728239610526 11.5064857997035279
30.7591982426480683 -11.4911202093034959 11.6715169138803176
30.7272956740706391 -11.6134348366604137 11.8439285384945983
30.6857512630735378 -11.7340696761673584 12.0219698292542070
30.6335820060131816 -11.8530463125076650 12.2033798091580614
30.5707739329601438 -11.9717977369533095 12.3849813002668316
30.4980846502579439 -12.0922554884266908 12.5631808028029806
30.4164472540094657 -12.2161873636639413 12.7350952055158810
30.3265443012338451 -12.3455696491808986 12.8994202612457087
30.2288019320559727 -12.4831129662890881 13.0564403565788378
30.1242066952464675 -12.6314648394665383 13.2070385947846951
30.0159501311510191 -12.7914130328369708 13.3513060855669465
29.9101456381503468 -12.9612295328150253 13.4882746686883337
29.8140821704446211 -13.1381106744925091 13.6175957123056985
29.7334607535794682 -13.3201352049258368 13.7415243144857424
29.6711255264860121 -13.5071074089770136 13.8650864416053530
29.6279981297038226 -13.6994823858233801 13.9939140816164382
29.6049636372919451 -13.8954837521144441 14.1306581223724770
29.6041692987801319 -14.0889117102251511 14.2724796328107875
29.6286391204446495 -14.2714750268949260 14.4126316591921899
29.6800235516655704 -14.4384933741044179 14.5451745619670536
29.7560712429507674 -14.5916003326122770 14.6678001537000924
29.8501369671313199 -14.7367956773860733 14.7810973532457375
29.9530860869446585 -14.8812887497539847 14.8866039963687271
30.0558482086569931 -15.0314410961056630 14.9858641899070264
30.1510309356594561 -15.1916534888788313 15.0809727004375276
30.2330743344058206 -15.3637952046407342 15.1752454134607078
30.2972854259737865 -15.5474542894463070 15.2721514484843439
30.3389121964315720 -15.7408250817162845 15.3725758094754674
30.3534726451015615 -15.9414046095140414 15.4727370244793097
30.3380865095537899 -16.1462967277628060 15.5651661116834177
30.2930165467360837 -16.3529604249810312 15.6432839920857045
30.2236506703855987 -16.5596216281109569 15.7066566325648367
30.1418072950219482 -16.7638119891388584 15.7627232619597617
30.0636598283255942 -16.9620366897804082 15.8250166023928411
30.0045307677417838 -17.1508047087382636 15.9090072461953937
29.9736163424988717 -17.3268868223584818 16.0257932348630412
29.9715650599592180 -17.4879374180558855 16.1774195105623555
29.9922284633482761 -17.6339567647423259 16.3581243064070456
30.0263910530030778 -17.7670131754346379 16.5586109643887696
30.0640754961536807 -17.8892305929275395 16.7680523705436322
30.0956168321002835 -18.0017647834394481 16.9747387226591080
30.1133784056573752 -18.1062332384083504 17.1698917838279712
30.1133355345586686 -18.2064948233466133 17.3525129334836379
30.0947537422536939 -18.3078555200746749 17.5286479295572200
30.0585203539592420 -18.4145009145185483 17.7054294233602150
30.0060178995533882 -18.5282163251861078 17.8866674391436504
29.9393074271508723 -18.6485765484057957 18.0722600702992047
29.8617257743226787 -18.7733530913284881 18.2596996676714554
29.7773608154533953 -18.8989470335184073 18.4459290514021177
29.6888984777948437 -19.0222652575174820 18.6295974254377015
29.5962290235137715 -19.1428182796728166 18.8117441086070372
29.4976633016330929 -19.2623644893419161 18.9935396298718828
29.3922693501542973 -19.3826985988650371 19.1738424551509681
29.2806108903096352 -19.5041650672701259 19.3499591001037921
29.1639957671768819 -19.6254163809163025 19.5196962255559576
29.0437234106796858 -19.7443315870231295 19.6818403336543355
28.9203562853350498 -19.8599475693666321 19.8360641723179079
28.7936704224842153 -19.9732892495238374 19.9828813038572477
28.6638021204479791 -20.0860269785168768 20.1231799247982295
28.5318000465199901 -20.1992535647272575 20.2580186877857074
28.3983635127212146 -20.3141525785435348 20.3888017557653107
28.2630121591650401 -20.4324141585085428 20.5161257348034418
28.1241840075612934 -20.5554274347765613 20.6381715737046605
27.9787313319775066 -20.6837649266071537 20.7508727710139631
27.8222329994192989 -20.8170788837222602 20.8490561153897893
27.6515602715279591 -20.9539978784437864 20.9274950929986687
27.4673385885179044 -21.0926483606214248 20.9821887569512207
27.2732230102424893 -21.2319084488437539 21.0113946392422761
27.0730906036291827 -21.3717452604520091 21.0154661279427906
26.8694719802353283 -21.5120849379007382 20.9959910219597781
26.6641562352012542 -21.6517450701657026 20.9552326484811466
26.4590584325911067 -21.7887139453318710 20.8959465082960740
26.2560972927659293 -21.9211318739711558 20.8214746642006041
26.0572493465270796 -22.0477916843102477 20.7356572057236477
25.8645490567636074 -22.1681821962559980 20.6416282389984858
25.6797308939064131 -22.2823638380268036 20.5403210844439030
25.5040976448983017 -22.3911862167862878 20.4310129216820329
25.3370163567288529 -22.4973291594753988 20.3140666608779448
25.1734651374092273 -22.6056270877855852 20.1931535172903907
25.0054664516550780 -22.7206177459022172 20.0760553222235245
24.8272693634883517 -22.8434355382541199 19.9737146821584446
24.6381792850558234 -22.9722224508165240 19.8962106647706278
24.4409669566261734 -23.1053760084880153 19.8477087898761404
24.2390613767046510 -23.2434031406929904 19.8245280753304911
24.0358515436287945 -23.3868930872895220 19.8180573336088344
23.8354859132530663 -23.5331208153389539 19.8202843108802327
23.6417872880688051 -23.6765296514003225 19.8276558898429904
23.4554940687918574 -23.8134955511495292 19.8407478871552456
23.2739854833077544 -23.9453104413691378 19.8609728210042711
23.0945096554263287 -24.0756616365949654 19.8870666874955830
22.9165371198909611 -24.2064988040126607 19.9131394837526976
22.7407907663147633 -24.3368310253599631 19.9291358822243758
22.5674278190981674 -24.4646093498773354 19.9236020354991510
22.3970128289529065 -24.5881013902039243 19.8869449354304138
22.2320064901922727 -24.7056350120249988 19.8135314722216940
22.0755772798660388 -24.8155460732930777 19.7027397007742664
21.9306334434891035 -24.9161504546961936 19.5593211356316630
21.8003481432637720 -25.0053445459184829 19.3915082230946858
21.6872478867828526 -25.0808970800443447 19.2060652682959372
21.5910190646187132 -25.1416497800609520 19.0042075213093824
21.5085524075879988 -25.1881966377114495 18.7834716289318955
21.4364244294429938 -25.2221735997562462 18.5440072897216979
21.3730177626007745 -25.2449242304114776 18.2921613108084458
21.3186553704731594 -25.2567760584378007 18.0370654756170126
21.2743044885170818 -25.2573441409108952 17.7839905542776684
21.2402021904719902 -25.2462572275868240 17.5317839672235891
21.2154006969925959 -25.2234125371704891 17.2768324617500895
21.1983044166773844 -25.1885378174079477 17.0178237954439808
21.1875227416783076 -25.1410549882354672 16.7557433600295447
21.1817689812360008 -25.0813966929475924 16.4923841384436969
21.1787698624065577 -25.0129878169373328 16.2325709813149466
21.1750767119136007 -24.9417830995610430 15.9845591208421549
21.1674004439683010 -24.8723404979819023 15.7533495871313782
21.1539496416877597 -24.8046333925952993 15.5350498405387363
21.1345845699473998 -24.7351337762075048 15.3203602233663787
21.1098777045867969 -24.6603954415733853 15.1027466408546367
21.0796731369633044 -24.5795223459174466 14.8820139123189108
21.0419937144984068 -24.4940951823923356 14.6613442528265612
20.9933713685553798 -24.4062692863817219 14.4430015885529635
20.9311503618414072 -24.3167228846797130 14.2270913291528078
20.8560587881965098 -24.2242079761029103 14.0135478569958192
20.7725644785346333 -24.1272121446859771 13.8050897714809029
20.6866250957385596 -24.0253800170930560 13.6072848489928493
20.6023280255323975 -23.9185403156567560 13.4244073729246942
20.5200122128116647 -23.8049484677167627 13.2557349344545958
20.4376164320849938 -23.6815989136169591 13.0970399907000026
20.3534993291381809 -23.5460824051480770 12.9449710804679583
20.2679083128568074 -23.3976811845162516 12.7998323750370488
20.1825948681933163 -23.2367788162737980 12.6662940414361387
20.0994850934437146 -23.0628599721672316 12.5520987996764948
20.0197049977533545 -22.8733859981049079 12.4645557250072372
19.9434677313942785 -22.6653834663475919 12.4060068472921881
19.8707226613073829 -22.4386613064028637 12.3719938625437642
19.8020973100749451 -22.1973129268019846 12.3543703489984935
19.7391094105016904 -21.9477567644090001 12.3458974037825087
19.6835219896181854 -21.6957155737136489 12.3424112190361868
19.6366778351673830 -21.4448116729779201 12.3424240417267512
19.5993209438251910 -21.1969227273163980 12.3457437351911352
19.5715954176645077 -20.9531006091540064 12.3521285001300143
19.5528629879802587 -20.7136499225940298 12.3604876579567069
19.5417442956897389 -20.4765529788282095 12.3690899887918988
19.5369355443863277 -20.2353045064794657 12.3766798986529434
19.5381786250571494 -19.9794140622427676 12.3832673708361263
19.5461019905238764 -19.7006818531653671 12.3894721348257537
19.5607969166541587 -19.4026761393080029 12.3951575155123823
19.5805963964217327 -19.1031822466184842 12.3990386038522757
19.6023725985804234 -18.8237678969749425 12.3995837277608025
19.6228757827910272 -18.5768002625321138 12.3960012271913556
19.6398589097288152 -18.3619397788569430 12.3883735324452271
19.6524668004594574 -18.1698304341582038 12.3769682563897039
19.6607812821743480 -17.9869907835432379 12.3615799877511865
19.6647389816127642 -17.8010495107631392 12.3415352332160317
19.6632716783778179 -17.6048677265159021 12.3160501032489798
19.6544110477958256 -17.3969017583111274 12.2845489531147454
19.6360849545189851 -17.1793655552747992 12.2469656066426644
19.6067478968622417 -16.9566518034711926 12.2037828309672420
19.5654853799202257 -16.7339736499208094 12.1555864490110661
19.5118411551301776 -16.5159483753328189 12.1024874049838811
19.4456607293552537 -16.3054115013860290 12.0438970256667410
19.3670457741487070 -16.1029079394804171 11.9787653541170958
19.2764239290800639 -15.9072308965964062 11.9059548184392696
19.1746891816308320 -15.7166683922821626 11.8244525203645505
19.0634333625764114 -15.5301910013743409 11.7336090998913960
18.9452878185965119 -15.3480544429874755 11.6336418420927856
18.8240954401171123 -15.1715937320624477 11.5261117754127866
18.7042996716471031 -15.0020865012922826 11.4136434135671045
18.5894006115315165 -14.8392791817110421 11.2985647176593442
18.4806833702789000 -14.6810070028676911 11.1816413528139726
18.3775940634113830 -14.5243298901303000 11.0623875638769427
18.2790278215731092 -14.3667529511195724 10.9403766044685984
18.1841196119543014 -14.2064256090210499 10.8159475944078238
18.0924156709680659 -14.0417394134252760 10.6899651615639861
18.0038609225161004 -13.8711802558281434 10.5633458698657385
17.9187045990020621 -13.6935656210323344 10.4368666968255823
17.8373314049882339 -13.5081884417585982 10.3113146006761465
17.7601338636051125 -13.3146103434774865 10.1877488449619999
17.6874197014249468 -13.1123559835456831 10.0674635990238741
17.6193631520830678 -12.9008596713004096 9.9515680251120688
17.5560619437048260 -12.6797123937850884 9.8407689118834885
17.4975835403749400 -12.4489485361608700 9.7357361991284002
17.4438629845878452 -12.2091764135201259 9.6375289739528895
17.3947052132061692 -11.9618367980336835 9.5474812984730661
17.3501408333817047 -11.7100005937480844 9.4667969808553671
17.3107232258646846 -11.4589998891662042 9.3963050191176798
17.2771732154477746 -11.2149811237885579 9.3362367879652624
17.2495572697464681 -10.9810349573683865 9.2858546708949117
17.2268816477400755 -10.7545243118891527 9.2433799255858986
17.2074886930345130 -10.5294037602868258 9.2066394525810260
17.1896557049007868 -10.3016509431732253 9.1739887895030989
17.1717595350886540 -10.0721162134773827 9.1447506234221567
17.1520271659349177 -9.8429513394961994 9.1188111101404754
17.1283061249615649 -9.6106360478693240 9.0957961833191412
17.0982885498668757 -9.3636678361740984 9.0747248482121634
17.0603769692733351 -9.0883229411739030 9.0544116729517299
17.0148175279988791 -8.7781113914894853 9.0341393776269765
16.9640066102728859 -8.4382998686626820 9.0139500928239933
16.9113651320775489 -8.0812893418534983 8.9943386112865493
16.8598184021708661 -7.7188546964178997 8.9757833453129159
16.8111001211133413 -7.3582667952595067 8.9585358319386970
16.7659281446966020 -7.0027574227550211 8.9426580649419325
16.7244558490396145 -6.6533646666504467 8.9281207720413338
16.6866044598519139 -6.3102711480294182 8.9148650580367566
16.6522205288551035 -5.9734041354240439 8.9028254857916664
16.6211312285609267 -5.6426306219685145 8.8919357806329238
16.5931595932244846 -5.3178061382317239 8.8821296862164800
16.5681279203759786 -4.9987844398537540 8.8733409861170891
16.5458583972467039 -4.6854190575282679 8.8655034754613240
16.5261731971069707 -4.3775634985974108 8.8585509515337257
16.5088944917295493 -4.0750712684241712 8.8524172119214448
16.4938444527511585 -3.7777958722356058 8.8470360542450504
16.4808452517980655 -3.4855908152513049 8.8423412761280673
16.4697190604958728 -3.1983096026905304 8.8382666751942356
16.4602880504701332 -2.9158057397725354 8.8347460490673093
16.4523743933464104 -2.6379327317165711 8.8317131953710426
16.4458002607502749 -2.3645440837418938 8.8291019117291825
16.4403878243072867 -2.0954933010677390 8.8268459957654866
16.4359592556429988 -1.8306338889133684 8.8248792451037072
16.4323367263829709 -1.5698193524980315 8.8231354573675951
16.4293424081527775 -1.3129031970409741 8.8215484301809077
16.4267984725779712 -1.0597389277614511 8.8200519611673975
16.4245270912841121 -0.8101800498787117 8.8185798479508133
16.4223504358967674 -0.5640800686120091 8.8170658881549144
16.4200906780414897 -0.3212924891806015 8.8154438794034515
16.4175699893436828 -0.0816708168038254 8.8136476193202782
16.4146105414263808 0.1549314432976612 8.8116109055307028
16.4110345058801528 0.3886607858851043 8.8092675356800338
16.4066640539255673 0.6196637055137533 8.8065513076411612
16.4013213532338362 0.8480866947678134 8.8033960214670852
16.3948285427258327 1.0740762303521585 8.7997354948367601
16.3870075644114230 1.2977786812741545 8.7955036658208243
16.3776792208617046 1.5193398034767061 8.7906351662095883
16.3666587605519922 1.7389024420405139 8.7850679860749921
16.3537387516372483 1.9565980319635550 8.7787536696854573
16.3386348483794848 2.1725216610271154 8.7716887833136639
16.3208489888635455 2.3866765229923139 8.7639902231214819
16.2994068627738287 2.5988878882784441 8.7560224853103001
16.2725146065630533 2.8087307560735635 8.7485008877404944
16.2373748925010801 3.0155385706547566 8.7423345577963776
16.1905332917989639 3.2184614593824925 8.7379059648746562
16.1288704899376185 3.4164241520214809 8.7338460557794058
16.0507501239804817 3.6080850076320132 8.7261841667851385
15.9566036657343862 3.7923026805899891 8.7091543840571646
15.8488140798703849 3.9690771780428609 8.6777820137634656
15.7311986684858631 4.1399668782998447 8.6303717410242307
15.6081192491555534 4.3075364503840410 8.5689074096026445
15.4834537768085809 4.4744038169899367 8.4976421493906233
15.3599673812421482 4.6426910313122081 8.4214608499108721
15.2391551392453124 4.8141561532037604 8.3447401267804757
15.1215871993686726 4.9902556999720558 8.2707755822252693
15.0076324705895239 5.1716410659103866 8.2017378690423044
14.8978357583919578 5.3580308776329906 8.1389563138746404
14.7925182971235394 5.5490981060873814 8.0831612598489162
14.6913441570924679 5.7451683891068388 8.0346944172617523
14.5937111958647865 5.9464692147364078 7.9938516273356628
14.4995663297775845 6.1518051373402081 7.9611684826292688
14.4096171027507065 6.3585180355961581 7.9374386767858418
14.3247343546701789 6.5641638110203626 7.9235558647057687
14.2453423938361698 6.7682093477420429 7.9204006765192858
14.1714439634774489 6.9720108339119626 7.9288251399077794
14.1030589873451220 7.1772798735345047 7.9495567048809255
14.0406300593750260 7.3842411838125477 7.9829190652740749
13.9850218868526959 7.5910263549422039 8.0286073327170264
13.9370655462238915 7.7950701432890970 8.0857987769501865
13.8971344855540337 7.9950837228294960 8.1535099414150611
13.8650741575977445 8.1917467257499510 8.2308361928491180
13.8403065986604048 8.3867003670096594 8.3167242377788320
13.8218378147068002 8.5808716458028123 8.4093608904852246
13.8081650894392798 8.7738387862581781 8.5058531790789331
13.7972337454607956 8.9648920951941466 8.6026657049779978
13.7864535822817551 9.1543483442611091 8.6962607924312856
13.7726643943891034 9.3435764783415696 8.7831190685579497
13.7522070391848619 9.5339060863149214 8.8592021900100981
13.7213604079416633 9.7256804953438838 8.9196764293434292
13.6770497546715948 9.9181069745650170 8.9595143536116879
13.6175905806847855 10.1095090450046090 8.9747893694258281
13.5433021746424735 10.2977806896773512 8.9640089524638640
13.4566717166292573 10.4810733010558028 8.9288226899588263
