BEGIN_0
-27.0007962456300348 -4.4076431342434415 10.5296550578969903
-26.8173527415285946 -4.2766505493485045 10.5062670940953780
-26.6436446518039709 -4.1371669164122498 10.4727035650641032
-26.4851647732342528 -3.9858344495318327 10.4279384719378214
-26.3475169813809487 -3.8207643761135728 10.3715716257457728
-26.2343739345047666 -3.6417145548524896 10.3040622419688042
-26.1468873772947248 -3.4507433557311451 10.2267043788185372
-26.0843217419415332 -3.2526116614394862 10.1415526238095772
-26.0448154877282825 -3.0537539093498012 10.0509224854431416
-26.0256615541493055 -2.8594945423709746 9.9562231154683367
-26.0233202094087979 -2.6710311547975802 9.8567990416161706
-26.0336166522132224 -2.4852062277952047 9.7500081120045650
-26.0520452117889860 -2.2976857988441779 9.6328206239823970
-26.0740692773790705 -2.1058267013967349 9.5035371415863459
-26.0955684957380463 -1.9086659587406487 9.3623712191072990
-26.1132532995743176 -1.7053674147650693 9.2109423745827392
-26.1247828553896788 -1.4946849810437151 9.0516900550597761
-26.1287666744154627 -1.2764850707544273 8.8880544121726004
-26.1247806851998590 -1.0537599970533993 8.7250965143908985
-26.1132112044334548 -0.8321769067022267 8.5690429773830719
-26.0948328169832351 -0.6168485815337572 8.4251931311388475
-26.0704298403608696 -0.4093777272590220 8.2958646468143229
-26.0406125090028517 -0.2074201421313404 8.1800923173824511
-26.0057886069022963 -0.0066144621554400 8.0752335566372970
-25.9662009721673499 0.1971606346041863 7.9788401085980558
-25.9219460120708654 0.4067275267011556 7.8895078741397402
-25.8730080009526908 0.6236384864062110 7.8068815407468133
-25.8193663637979860 0.8485365006262793 7.7313347698168897
-25.7611477433968403 1.0812478972401625 7.6635812849168792
-25.6987806004499042 1.3203439860502453 7.6044124185065236
-25.6331388477045294 1.5624710116517022 7.5546126874008799
-25.5655214735976983 1.8024881780621822 7.5148989698367057
-25.4971726159384353 2.0354354075926189 7.4857503030451209
-25.4283891013240471 2.2595624001058550 7.4672204927845049
-25.3579271383495808 2.4775738971909611 7.4589838182141461
-25.2834424495476462 2.6942268838685024 7.4606232650964941
-25.2027867249546560 2.9121745348406467 7.4718186361751391
-25.1151324741450352 3.1299690402093514 7.4922638612441590
-25.0211062554598200 3.3437583248442078 7.5215049046013034
-24.9221798316040477 3.5501608934304629 7.5588804718383242
-24.8199284904465287 3.7476399327032563 7.6035504856898433
-24.7154532535650056 3.9362608237131491 7.6545817390267707
-24.6090681382613177 4.1170871959915214 7.7111427449385381
-24.5001900916030095 4.2919372020758617 7.7727407775865816
-24.3875180963328297 4.4632545516889008 7.8392006960755030
-24.2698284455405044 4.6335367431454291 7.9101314135880436
-24.1471169963918122 4.8043407565363676 7.9841359060551440
-24.0209498423664165 4.9758778158531616 8.0585649792246663
-23.8936222301373178 5.1479607804208092 8.1301608243098862
-23.7675160874734743 5.3213897867636133 8.1958188676111252
-23.6456921329944265 5.4982726585234110 8.2526751266648350
-23.5328576686206361 5.6807684800749971 8.2975941948682603
-23.4352249852654850 5.8691908302757589 8.3267790450946073
-23.3591064703216453 6.0609942035817790 8.3361395908932359
-23.3092836496184113 6.2515557259527936 8.3223583729968791
-23.2877369786239967 6.4366461922929181 8.2838237161728614
-23.2930602603032177 6.6148897162025140 8.2206827391774269
-23.3208971706285233 6.7876688380474199 8.1344914214578576
-23.3650078472099274 6.9567899934236310 8.0282993436502998
-23.4184140404884751 7.1231820389871316 7.9065822836096036
-23.4743663227940118 7.2873528916455692 7.7745328611370041
-23.5269862781191890 7.4501369376971622 7.6371354200016457
-23.5717416941012061 7.6134432163139643 7.4983977081183850
-23.6059099006871200 7.7811336075183650 7.3609175277186036
-23.6286911684617316 7.9592014794677226 7.2259571796137756
-23.6406420906653025 8.1540480699845297 7.0943828006712728
-23.6428489683125846 8.3683845553041021 6.9686063626431816
-23.6364442364462626 8.5975424859857306 6.8539614521104344
-23.6224214966039945 8.8314836469601694 6.7569919309130535
-23.6014743823227668 9.0619795266262244 6.6816750745002427
-23.5739737142596368 9.2869331794253398 6.6279623917517831
-23.5402292389789274 9.5085354740557744 6.5934996746252850
-23.5008831093588419 9.7289261179215654 6.5758879112324369
-23.4569622337315771 9.9477690229123876 6.5736596336255069
-23.4094029112908721 10.1628500881853547 6.5861503870131770
-23.3584167552983928 10.3719116261710784 6.6130164898205557
-23.3031833678593223 10.5737586967993646 6.6537643596465710
-23.2420531042329799 10.7682820809947284 6.7074922590792188
-23.1730831449459558 10.9560641733396675 6.7731091328406068
-23.0946853811140116 11.1379824642917669 6.8498827972381697
-23.0062458884141314 11.3147065370363364 6.9375632425339200
-22.9083916851563956 11.4860710143271731 7.0356721709955030
-22.8025604120200178 11.6509699767856603 7.1425329901547983
-22.6901204391153861 11.8082256438275834 7.2549130949228564
-22.5718351679831528 11.9578175520662544 7.3685732245211080
-22.4480628207457684 12.1016263709559055 7.4791047451990877
-22.3195726001700301 12.2433501948239858 7.5821111464842881
-22.1884326266743166 12.3876616497202203 7.6728790699144236
-22.0582720996754951 12.5389029825844496 7.7461657459873985
-21.9339184075445566 12.6998457461922989 7.7962262266453930
-21.8208634067502025 12.8708656217860771 7.8173815215367171
-21.7244252476943807 13.0495629584387061 7.8056666839560505
-21.6485183341954688 13.2306279885048994 7.7609844762024451
-21.5944895225050324 13.4065693207752723 7.6880965463186044
-21.5607171324717477 13.5704463959551624 7.5948798934412931
-21.5433765156156163 13.7200837705634395 7.4879029002847464
-21.5378179188103154 13.8604822488726320 7.3684011710449200
-21.5394609118538050 14.0011493086545400 7.2328492192780480
-21.5439364510107261 14.1504559233182654 7.0774692978072693
-21.5471337687371438 14.3125480942886352 6.9017340849635733
-21.5455629056350269 14.4865039089869434 6.7103853887264773
-21.5367643438403427 14.6660814415546330 6.5143847899131035
-21.5193859502638531 14.8427041612689994 6.3274065500981376
-21.4928769170451410 15.0114987615705573 6.1587018781461289
-21.4571792937724339 15.1740881139996873 6.0099688259784489
-21.4124794603580746 15.3359828080572846 5.8782613892523141
-21.3587273363678669 15.5026677237572024 5.7602993411989516
-21.2952327618712687 15.6776942818206777 5.6548333557227988
-21.2209722787577597 15.8625726857765201 5.5627652150382367
-21.1355296870721219 16.0571186124211813 5.4858721298531901
-21.0398252114990250 16.2596568360469789 5.4253944200440518
-20.9359721060419304 16.4673404033609572 5.3814583091632198
-20.8263052815939886 16.6771142914011392 5.3533291502151066
-20.7122666643988502 16.8868322087020957 5.3399165926033962
-20.5942836188361014 17.0950441586894648 5.3401209627424713
-20.4727761422273602 17.2997264061511586 5.3529122776209750
-20.3489390039100009 17.4982591310764874 5.3772014376091501
-20.2245416530650992 17.6887106691000113 5.4117771399724983
-20.1010973309548930 17.8706073331820363 5.4554785009832987
-19.9791740043877830 18.0447518902697439 5.5074373308370905
-19.8583168730001489 18.2129615873350588 5.5672043003173819
-19.7373699942554772 18.3778536525452090 5.6346792862189119
-19.6150036377878330 18.5419908324571097 5.7096745481789917
-19.4905043582323394 18.7065502801801102 5.7911791927872560
-19.3642904352350662 18.8709863152475208 5.8770030417509300
-19.2374941485785058 19.0344260334897655 5.9642780157709208
-19.1112531668941372 19.1973210607325058 6.0502046034964270
-18.9867043186471562 19.3615932867170848 6.1321509780526835
-18.8654231233923753 19.5292419838429936 6.2069952789973701
-18.7492709444725101 19.7009399658712212 6.2703722044383525
-18.6398215535226974 19.8759391307856710 6.3164806877088928
-18.5386569094212668 20.0529103883359454 6.3386626008233229
-18.4480007375256996 20.2304226154975879 6.3308116819260132
-18.3698791133036323 20.4065626491978982 6.2892379459976020
-18.3044872638932326 20.5787258760789094 6.2139348504769139
-18.2501236464595173 20.7443940245522995 6.1083747390585401
-18.2046969977842750 20.9019128075356804 5.9779971810959296
-18.1665703105831433 21.0502961978397920 5.8286088474991722
-18.1340178044315579 21.1888805005857961 5.6654570823954664
-18.1044903293672910 21.3178378468673060 5.4925947559955350
-18.0746646755776617 21.4389030067117119 5.3126946058335136
-18.0412177511859504 21.5551455450779272 5.1278135742390099
-18.0017133506872540 21.6699413575728492 4.9401442624843828
-17.9549434922919566 21.7860607070858237 4.7518936582920634
-17.9005474133520650 21.9054707384194032 4.5649414899204892
-17.8383498527529660 22.0296867215158052 4.3809903913229782
-17.7680546751687203 22.1601234881214637 4.2019522333494184
-17.6894036319855807 22.2981108424093435 4.0299206006853066
-17.6023829703092787 22.4447147795146762 3.8668162588112143
-17.5072312787896962 22.6006414884082787 3.7143073857225062
-17.4043415762109355 22.7660299514339712 3.5740925771155254
-17.2942996236178672 22.9397862825352838 3.4481827012125468
-17.1781233683172694 23.1190072699857900 3.3387962518702619
-17.0571539000866075 23.2997631354396724 3.2476662235571894
-16.9321508711213689 23.4793332223195677 3.1751424662969683
-16.8024592264998631 23.6577787191434012 3.1200431596770670
-16.6664696794033560 23.8369610253124264 3.0805850456587756
-16.5230601285309895 24.0180297247415453 3.0553963794746704
-16.3728056361924281 24.1997189767158503 3.0437333715760602
-16.2179028687160631 24.3785910472928506 3.0451612708775269
-16.0608638439039524 24.5506355362886524 3.0593067955510111
-15.9033697643905434 24.7128047391755423 3.0857797235317612
-15.7460348592320081 24.8636715175410288 3.1241954811300943
-15.5884661095891879 25.0033434100392142 3.1743700893354472
-15.4290974412470199 25.1331414632098671 3.2366628605134107
-15.2652293943411621 25.2551949889507057 3.3121407687435731
-15.0940282481751353 25.3715489701291581 3.4021122672470607
-14.9142964115451697 25.4827783944421071 3.5070629573988477
-14.7274072959374998 25.5873357071723575 3.6258806600008171
-14.5364110007613370 25.6828112056454607 3.7561375862669166
-14.3445198380612560 25.7680895995882757 3.8949789605000102
-14.1542266796983043 25.8442390066453740 4.0397855294297891
-13.9670056108074618 25.9134729531887871 4.1883077446824597
-13.7833411587607841 25.9776414125508488 4.3384742434605119
-13.6031423321094209 26.0379032322824457 4.4882430613389044
-13.4263284266646501 26.0955064005000992 4.6356449284637939
-13.2530898109482376 26.1524711401938106 4.7789015493085838
-13.0836125865600170 26.2116247557122506 4.9165070824809884
-12.9174801145771756 26.2762990383791077 5.0472158681204089
-12.7532482099055020 26.3498366283771510 5.1697197251575773
-12.5889427246970804 26.4348262843393194 5.2818052162937974
-12.4236572172352293 26.5323861248385882 5.3794218440588146
-12.2588056485610402 26.6420565356210162 5.4567745634959035
-12.0973867197963632 26.7623119299188303 5.5079433700209766
-11.9419208595548696 26.8910840119672372 5.5290352513462722
-11.7931085047073125 27.0261119638675709 5.5195492058152453
-11.6501126854143404 27.1653498129416100 5.4823736735693025
-11.5115261021083217 27.3072013324478142 5.4226688513279129
-11.3758497045144633 27.4503153672774403 5.3463484660800944
-11.2414056120106327 27.5933286422677106 5.2589083097425693
-11.1063816485939366 27.7348512446268991 5.1650523495931040
-10.9691721636355108 27.8737463361507274 5.0688813353275020
-10.8284013876409144 28.0098102677308489 4.9738668500647254
-10.6826615258913300 28.1442282518239821 4.8825380089396706
-10.5306776608758490 28.2788693068269730 4.7964702856198844
-10.3718621982566823 28.4147475415874311 4.7167415097786467
-10.2066039600156557 28.5509913980209404 4.6445550802894502
-10.0357344702492952 28.6851490231560717 4.5815202912079425
-9.8594993339629884 28.8145131135087205 4.5294036753687319
-9.6773512527635166 28.9373611748206265 4.4897189669039914
-9.4890197881549128 29.0531378001702763 4.4636619199759107
-9.2954251694703647 29.1617502975284921 4.4524278946818630
-9.0982963116517581 29.2629448194827830 4.4573577436035947
-8.8991226380608843 29.3563860698438077 4.4796516006475677
-8.6988339133688761 29.4419369750928368 4.5200879405167722
-8.4985465882626396 29.5191629532578439 4.5789188360587296
-8.3001712387491793 29.5865508867918834 4.6557352002853278
-8.1058822435314308 29.6419476301935561 4.7493455894825747
-7.9172033556956833 29.6840343959302011 4.8578103717244634
-7.7346967021833102 29.7133261253328733 4.9786380439039082
-7.5582066013930351 29.7319096741174391 5.1090580577574372
-7.3871638080017945 29.7422353067651599 5.2462653071546868
-7.2206940992821984 29.7458090026232682 5.3875421564898218
-7.0575048910748741 29.7426775584064949 5.5302071021982204
-6.8956227817669884 29.7320126357009435 5.6714260491974127
-6.7322468082938798 29.7133026807069562 5.8079533419366349
-6.5641052782097766 29.6873965799092936 5.9357403242622446
-6.3883619284389841 29.6567585076624312 6.0493287400849063
-6.2036574283062453 29.6246626885217843 6.1414627980763772
-6.0109139755884193 29.5939186322222163 6.2038717832219135
-5.8136002602326009 29.5659713407341798 6.2294899651791376
-5.6169455481376867 29.5406621548949211 6.2150061005195845
-5.4261888873467594 29.5166741965202455 6.1618906806385674
-5.2447139501003797 29.4925554856368564 6.0752714173658582
-5.0732007908746315 29.4675831369078765 5.9620199554679978
-4.9103315288141962 29.4416860288862274 5.8295384333353191
-4.7540334522833030 29.4147952324369868 5.6849806317696743
-4.6018953705783163 29.3864508625728114 5.5342045904411510
-4.4509875320292416 29.3558668018988307 5.3811085692326603
-4.2981028052281864 29.3221052014785251 5.2281865478425544
-4.1403507859746567 29.2840333761397638 5.0776606673796802
-3.9754942673970941 29.2405179396659349 4.9321214291303228
-3.8019433768969826 29.1920280244597876 4.7945848647746807
-3.6187061694435370 29.1432716947445662 4.6684322734560517
-3.4257470905585095 29.1025444358971299 4.5571200934389182
-3.2245905825379042 29.0749090555172103 4.4632902723338219
-3.0176337028927538 29.0569724950893296 4.3879039527397410
-2.8061387422232542 29.0416725849427522 4.3305688945492609
-2.5899673104800396 29.0252245426181048 4.2907989289814754
-2.3695044780539085 29.0080318520048230 4.2689072128796646
-2.1470173883972778 28.9919150489546062 4.2660651185488820
-1.9258342387858294 28.9781126239493076 4.2839603084283659
-1.7085793237418727 28.9669495990721977 4.3244297188839589
-1.4966850162721226 28.9582742249175347 4.3889841730854133
-1.2916461665999490 28.9519348070989970 4.4780817923544625
-1.0960607296357878 28.9480343383793937 4.5905764525705468
-0.9128043801830046 28.9468952700736892 4.7238943558332362
-0.7434419130416776 28.9487532335577527 4.8746822137482724
-0.5876262323297792 28.9533841908971219 5.0393713403822122
-0.4436364133064452 28.9599025960038254 5.2145258360563513
-0.3091891399397602 28.9667698330784269 5.3969605404631924
-0.1819518551887986 28.9720562903052858 5.5834945902552064
-0.0596962023352230 28.9740500224679494 5.7706123037228600
0.0599387301020755 28.9718476965893039 5.9546368399264527
0.1800437133117261 28.9653650709415871 6.1322253555134285
0.3049190336047753 28.9550028310623588 6.3002763384985183
0.4396560563105738 28.9417061685205930 6.4549622957882562
0.5885721791634557 28.9276856104382496 6.5906261862120274
0.7533746317475427 28.9171716443520950 6.6998109101360210
0.9322759031229164 28.9160763663721454 6.7751055964767755
1.1206513408581298 28.9300428933413869 6.8120832467664902
1.3129534098165834 28.9618666062044916 6.8115111787958345
1.5047544027349251 29.0102490517036422 6.7791089948279959
1.6939453545385739 29.0706876599242356 6.7229924065137521
1.8808837339906235 29.1373211184994432 6.6507833166216628
2.0677217710487366 29.2042948819548975 6.5682395350128271
2.2571300991244940 29.2663585591728435 6.4795811624667490
2.4511187524494824 29.3190965408847575 6.3883695468990958
2.6505848954178881 29.3589458619107084 6.2980231097938262
2.8553956668681084 29.3830384533081030 6.2118896160800716
3.0644928598007031 29.3891899443559836 6.1331506607731647
3.2760020894859743 29.3764694031013498 6.0646804270937285
3.4877854502836163 29.3460832562367600 6.0088340860817997
3.6983250480234058 29.3014731833311153 5.9673376044609476
3.9068816342764476 29.2470548016068612 5.9415968437507178
4.1126954499208974 29.1864487705091307 5.9332594683813564
4.3146480064790715 29.1214649870471654 5.9443009611699242
4.5116394488405360 29.0522679230288219 5.9763594275786289
4.7024352948854045 28.9783010276902857 6.0299226337667342
4.8852034690503805 28.8990986015463491 6.1040391755262426
5.0579143019146002 28.8144292369860651 6.1965267029402895
5.2193632596856574 28.7241145080523204 6.3043253176758327
5.3697471823249394 28.6280636390804162 6.4235798998186890
5.5106571309342360 28.5265744059354880 6.5492301183015904
5.6452199525413560 28.4204686323862852 6.6746215624127476
5.7783017863430519 28.3111376177906386 6.7915568584762918
5.9158732996170968 28.2010184431716624 6.8906039356239361
6.0632855908491994 28.0943292531124129 6.9615743014609253
6.2231649007215344 27.9971261006120606 6.9948870246040293
6.3941052848528495 27.9160056724625001 6.9841766563802024
6.5711867492134521 27.8558077132176898 6.9287756976703250
6.7481876852523044 27.8178641833967681 6.8340168583377512
6.9199749983597156 27.8001048012404830 6.7089986074362464
7.0836936371086683 27.7983239277668837 6.5634547905853022
7.2385120469141482 27.8071458699245646 6.4056736509261700
7.3847580273853364 27.8207048028427835 6.2420185195952094
7.5237286036562310 27.8340082039870929 6.0769905085204190
7.6579734446360881 27.8444658396956193 5.9132044558037897
7.7907550615715948 27.8518976763024746 5.7518229551485405
7.9248579148780323 27.8568697966324450 5.5934338473651248
8.0618797167933050 27.8588971938593097 5.4386936930143150
8.2023862775972702 27.8559794979609165 5.2885541856910905
8.3464595657598739 27.8453419345645763 5.1442886628369244
8.4941206443245871 27.8242778151040255 5.0074442491323019
8.6454891672993242 27.7904852401381639 4.8797518318131772
8.8008006419657256 27.7420673360397814 4.7630281596494353
8.9604268252180006 27.6775996984044426 4.6590857184753407
9.1249634023711934 27.5965663345406682 4.5696283392247743
9.2953158646688578 27.5002414902947443 4.4961100961828784
9.4725295801651193 27.3925954627231789 4.4396006929142704
9.6571028001258163 27.2801559086024596 4.4007814899418598
9.8480854628656562 27.1699639805428106 4.3801357413009434
10.0430174645762946 27.0665156290312083 4.3781483477622363
10.2392364883896327 26.9701180998457701 4.3952440487344084
10.4352824628195329 26.8779987799840896 4.4315530902136473
10.6307489795779659 26.7869991633780948 4.4868520254702755
10.8248588434987916 26.6956439521472220 4.5606245654398059
11.0155605800583327 26.6043215991171316 4.6518630098376708
11.2000463625257858 26.5141588427850863 4.7587398135625065
11.3758222893783625 26.4260719064992635 4.8785746458619528
11.5415581471607851 26.3404389808522552 5.0081595548221483
11.6975901582072161 26.2569308454599408 5.1442045875923057
11.8459282967359840 26.1743884589345832 5.2837062869940041
11.9897592536238022 26.0910036886767642 5.4239321144645274
12.1325897814892976 26.0049395733823765 5.5618786085939860
12.2773240879760159 25.9150592283201888 5.6937303860170605
12.4259686264468190 25.8210722126498382 5.8146625332368114
12.5800796478381738 25.7231213340140528 5.9187251959597553
12.7408454334183752 25.6216962779514894 5.9989441052692865
12.9084221017284904 25.5180287252291578 6.0482603232165140
13.0813430639949431 25.4142990848060251 6.0613548596438704
13.2566078581001747 25.3132860037806218 6.0364566004342102
13.4306644202262930 25.2174658735254837 5.9759537454551346
13.6010352296708206 25.1281114558916627 5.8852527947660978
13.7673301520527893 25.0452645387496062 5.7708565955432132
13.9304640984468868 24.9685226782309186 5.6392438655369350
14.0909663642374330 24.8975461215170881 5.4967619184287528
14.2483385782622562 24.8316883371724266 5.3493325367527298
14.4020159869413273 24.7692905768081175 5.2013515735110030
14.5525136279338536 24.7075976474730652 5.0549114736713339
14.7013186750477693 24.6434724880495395 4.9104827550827110
14.8499794528653180 24.5741596000134166 4.7682882532187882
14.9995156274329506 24.4975311754505825 4.6291075128686163
15.1504153723065862 24.4119285176543173 4.4943160741801691
15.3028659644191762 24.3159349638529818 4.3656318485647194
15.4569406677073378 24.2082593094223597 4.2449085502210622
15.6126915511662236 24.0877826509228896 4.1340348647445158
15.7701705068962141 23.9538410061670319 4.0348856583539980
15.9293544236139208 23.8068342938244548 3.9492655462755923
16.0899242381332890 23.6490011764438464 3.8787941450055552
16.2510108188738513 23.4845950018185761 3.8247016833770680
16.4112978242823004 23.3184895100767129 3.7875810909196517
16.5696293727688726 23.1536620066209728 3.7672691278447488
16.7253594006889799 22.9900292098878438 3.7630245975789016
16.8777666300603393 22.8260815511846786 3.7739080600895676
17.0254269935884324 22.6611796024608658 3.7990987237505038
17.1665282507641095 22.4959929424519487 3.8380968835698006
17.2997048511961822 22.3312524543136774 3.8908532864617111
17.4245959305480298 22.1665451418282267 3.9577763638438377
17.5420177021130463 22.0003225644860230 4.0395829556445833
17.6535680927954743 21.8311379586570808 4.1369570684511690
17.7604539093053617 21.6592419709915944 4.2500364800834483
17.8624636739051681 21.4870006773635396 4.3781425869605073
17.9580924047116355 21.3174174338146685 4.5200324783371677
18.0453382154763702 21.1523624018623195 4.6740833347822264
18.1223536781849930 20.9921782664056593 4.8380667502054280
18.1879588622328683 20.8364386473229608 5.0089135089031274
18.2422664481061787 20.6846186855929162 5.1829147901041317
18.2870162988018308 20.5360302655951443 5.3563904383417373
18.3250576302400425 20.3894908400191994 5.5265937691766567
18.3593984988456285 20.2432769218321518 5.6924310349978242
18.3927313877193193 20.0952536293469208 5.8542973573108945
18.4276447869714310 19.9432783097755717 6.0125884665357567
18.4669317232970975 19.7861139474776806 6.1656752092745286
18.5135024518678613 19.6241376386544886 6.3092714071853173
18.5700604931623303 19.4588964373153921 6.4379141119022698
18.6389602638367329 19.2920212315589126 6.5467748135369650
18.7221859193024578 19.1246905304597448 6.6322971366380443
18.8210245245981262 18.9579621141024468 6.6919883411998899
18.9353895970679567 18.7933100675892177 6.7242509828069501
19.0633162100134079 18.6325420601627627 6.7285793017932995
19.2010988098712581 18.4770106364773063 6.7058542314826273
19.3441170174581529 18.3267853974928236 6.6583852362751905
19.4881163300750089 18.1803107106045019 6.5896484287738275
19.6301415228553218 18.0348599686520394 6.5039255455821277
19.7683074922083790 17.8877858140465733 6.4061492402057496
19.9009802112253631 17.7377145582794711 6.3017857414882155
20.0265987048136793 17.5846810560031841 6.1960744869040116
20.1444192807599087 17.4290929376837092 6.0928138479782810
20.2552396025235417 17.2705808169706820 5.9938533024035863
20.3611413002332995 17.1077875810682478 5.8997186911486867
20.4644469971299756 16.9388553927421057 5.8106099222994434
20.5667728597275321 16.7620168375408767 5.7272300561792839
20.6687447011513328 16.5762030529994462 5.6511415949970889
20.7702408989107781 16.3816907610125817 5.5843885624309788
20.8706201984571109 16.1804885720755181 5.5287323609673962
20.9687105573579586 15.9760471395751189 5.4851802521790507
21.0630783207153733 15.7719704486265311 5.4539457928051274
21.1529570884795497 15.5700154382787268 5.4346074834385441
21.2388527710526311 15.3691361398282247 5.4264238214679601
21.3217269787336186 15.1670475447236726 5.4287957432850682
21.4017275128623687 14.9625755784792425 5.4416059244236124
21.4780831206046976 14.7560325222682263 5.4651929446603447
21.5499205291434350 14.5480934145412792 5.5000001244457444
21.6165874817153991 14.3397267952024734 5.5461191402018155
21.6773136257002328 14.1328160513368850 5.6030309578442274
21.7310960410185139 13.9294969428136390 5.6697403954398844
21.7771763648906536 13.7307091362592271 5.7451860280895239
21.8157145262576790 13.5356652515081670 5.8285597429576406
21.8480165769111672 13.3427091771100006 5.9191405425464314
21.8760693259651333 13.1506838340306018 6.0156539581621651
21.9019470255303084 12.9593877556325960 6.1158214696118094
21.9277926595582784 12.7686777514613468 6.2165730227146287
21.9563654072159586 12.5776621139744389 6.3143355030540906
21.9915169585974510 12.3851824833772888 6.4047482267410345
22.0378741285197783 12.1908999883577032 6.4821468964922673
22.0994549243699829 11.9958481343718741 6.5396498341625087
22.1778138986663649 11.8023819271853672 6.5703227496004963
22.2710203694709037 11.6136745642624799 6.5692489882246399
22.3744775964170017 11.4326505791815194 6.5353180240193982
22.4831515700412972 11.2607011838983464 6.4713993985626299
22.5934463096422853 11.0973620027250810 6.3830428450771581
22.7034606656955056 10.9412118154631699 6.2768921505566926
22.8122854084918636 10.7905485533776311 6.1593563100964346
22.9195930592009525 10.6430248530002416 6.0355346374984666
23.0255570182508293 10.4952685749036601 5.9088468095570299
23.1305130694896803 10.3435804580141095 5.7817729453424871
23.2345009328514571 10.1852302260863006 5.6568952014513645
23.3369961651808815 10.0193812883267270 5.5372433349281582
23.4368750327363777 9.8471577210543089 5.4259974766461276
23.5328262243710604 9.6705852384159616 5.3259545513340285
23.6241796123268628 9.4906978291735626 5.2389726840806539
23.7113589166976979 9.3063205809349174 5.1657460324037743
23.7953693583603041 9.1147344766260954 5.1062064190001681
23.8769086039123017 8.9132523100440473 5.0601903807197477
23.9559039566081822 8.7002895807186462 5.0278113907356801
24.0315336547363572 8.4757982926146340 5.0094006810491667
24.1024073373200522 8.2415281524923145 5.0052195794864964
24.1667855761736590 8.0011054100436265 5.0151726781387040
24.2229291545974768 7.7594417807491354 5.0386801808540227
24.2695616576503390 7.5213879359782485 5.0747701392663593
24.3062241678975397 7.2904534154289058 5.1223010308098527
24.3332965797132843 7.0684213396264317 5.1801411691058767
24.3516918742667059 6.8558101620147207 5.2471887834636330
24.3624553385271234 6.6526193585754685 5.3222421565093025
24.3664957956374479 6.4588403381396251 5.4038950584533687
24.3644441297030916 6.2742820301946578 5.4907563823499608
24.3565085185164882 6.0975570249303752 5.5821378629563974
24.3424075395404920 5.9251156551382724 5.6787383909022839
24.3215401594621667 5.7520019491745478 5.7823127076962884
24.2933689561722126 5.5744119682487669 5.8941440842761832
24.2577920264184428 5.3916411269157472 6.0136328016126779
24.2152576641994983 5.2056186799737389 6.1381216167181964
24.1666487996381285 5.0184193787384430 6.2638470656333460
24.1134094238247130 4.8296248966488795 6.3869365173239157
24.0583964780167605 4.6349663869685598 6.5037395138452112
24.0072473238437532 4.4267917596643143 6.6108511604229108
23.9690076597709698 4.1972758070200804 6.7056545303821640
23.9542557676382337 3.9450549972207387 6.7873284225989465
23.9704316804281170 3.6809937092272209 6.8571717258791374
24.0176311283637496 3.4241618295775513 6.9177275727020842
24.0891876385327066 3.1888066911471480 6.9717301201631194
24.1765406773217073 2.9766869428009972 7.0216098687819333
24.2733728333503791 2.7809941884202001 7.0692683130024072
24.3764209715281517 2.5939020887878268 7.1159437485624251
24.4843601341840760 2.4103327887653343 7.1622744343240470
24.5966653967340037 2.2278662096767281 7.2085118152547558
24.7130432394036532 2.0455023329021937 7.2547236985151233
24.8332469536154861 1.8627768112710985 7.3009114438525859
24.9570357686404947 1.6793794647326514 7.3470576052452650
25.0841690849555086 1.4950352193428973 7.3931404999916177
25.2144061858283166 1.3094754518667546 7.4391376775349256
25.3475063230734676 1.1224325058001039 7.4850265748657892
25.4832287439204457 0.9336388433620701 7.5307846156931912
25.6213326951735532 0.7428269387198601 7.5763892224737655
25.7615774236163944 0.5497292670215970 7.6218178175720830
25.9037221760331953 0.3540783034805024 7.6670478233477182
26.0475261992084128 0.1556065233132085 7.7120566621600828
26.1927487399265324 -0.0459535982634911 7.7568217563685806
26.3391490449720287 -0.2508695860328185 7.8013205283326181
26.4864863611293764 -0.4594089647779747 7.8455304004116098
26.6345199351830537 -0.6718392592821836 7.8894287949649549
26.7830090139175319 -0.8884279943286497 7.9329931343520697
26.9317128441173104 -1.1094426947005882 7.9762008409323570
27.0803906725668568 -1.3351508851812071 8.0190293370652235
27.2288017460506708 -1.5658200905537267 8.0614560451100790
27.3767053113532199 -1.8017178356013517 8.1034583874263326
27.5238606152589860 -2.0431116451072988 8.1450137863733900
27.6700269045524472 -2.2902690438547779 8.1860996643106603
27.8149634260181280 -2.5434575566269828 8.2266934435975578
27.9584294264413238 -2.8029447082067840 8.2667725465936606
28.1001841526188656 -3.0689980233723162 8.3063143956609249
28.2399868514904249 -3.3418850268425828 8.3452964131907112
28.3775967714790447 -3.6218732427169584 8.3836960218797199
28.5127731739803245 -3.9092301895855837 8.4214906470927868
28.6452754160537424 -4.2042233442267740 8.4586577338439959
28.7748634488494801 -4.5071199108306512 8.4951748489002803
28.9013003167253011 -4.8181855568909739 8.5310201906324661
29.0243624519714736 -5.1376784095036463 8.5661746749991785
29.1438737583747667 -5.4658242405789927 8.6006287637259078
29.2597926319413091 -5.8027275390315047 8.6343995629833117
29.3723679527196850 -6.1481001981763477 8.6675604070019290
29.4822773434914325 -6.5005857835142642 8.7002648775428746
29.5904701515919299 -6.8564993005048329 8.7327174520435360
29.6974466557543337 -7.2084367820690218 8.7650722604156464
29.8023540683167454 -7.5455552803368136 8.7973992784421515
29.9031005850368246 -7.8575845581392443 8.8299578306889757
29.9979306635270753 -8.1409089553047096 8.8636575492682823
30.0867037140732521 -8.4003522263113517 8.9000694861446483
30.1703185449608640 -8.6440998090438654 8.9407936222226922
30.2495407800520013 -8.8781545341672121 8.9869320992308133
30.3246099946166154 -9.1051821450694845 9.0390845583330606
30.3954322489762774 -9.3260847588457061 9.0975739701300675
30.4617517735061440 -9.5413468496670646 9.1626049480535308
30.5231771113833048 -9.7513443899469543 9.2343243321990265
30.5792536562884791 -9.9561688686621714 9.3128126839629566
30.6296546848348541 -10.1555554363688429 9.3980209206951066
30.6743840552049605 -10.3490734327371925 9.4897351395910956
30.7138070343394034 -10.5364239185040489 9.5876287585096502
30.7484558326963011 -10.7176164705495722 9.6913479209809097
30.7788144973923039 -10.8929474938141340 9.8005960733074069
30.8052376423178700 -11.0629376018314645 9.9152783711432910
30.8279035746685253 -11.2284051601797721 10.0357514664069178
30.8467305986584073 -11.3907013298560926 10.1631767064087750
30.8614023653816893 -11.5520098375967812 10.2999035226290765
30.8715842468721853 -11.7152580548356902 10.4493639646681018
30.8771201366199293 -11.8827317229826228 10.6144692707117265
30.8779771131394867 -12.0534537521040583 10.7946533553281991
30.8740142864495475 -12.2219105828085297 10.9844031428681177
30.8647999711064074 -12.3807260364345773 11.1759377726795321
30.8495666035321214 -12.5255518231893248 11.3641711906845959
30.8272295178820102 -12.6576136141361744 11.5494465709235570
30.7964290812386885 -12.7817169195020739 11.7358042882748048
30.7557559938533700 -12.9021678253526524 11.9266945228928183
30.7042641003038632 -13.0204037417947269 12.1215355953624773
30.6419373835156001 -13.1359999954336217 12.3157425427451024
30.5697977951649627 -13.2493249310321310 12.5037769953318083
30.4896850200263216 -13.3626231015208923 12.6817280713580836
30.4034849157655351 -13.4789966677466673 12.8479799856651482
30.3121345597813239 -13.6010945805693524 13.0030093427438587
30.2155519973109286 -13.7308516902393549 13.1489881874595014
30.1141028722798971 -13.8698010365610891 13.2887018129905865
30.0106212718744167 -14.0187131537051393 13.4237851060098539
29.9108708357272874 -14.1768356137595646 13.5540466582802104
29.8215382140383234 -14.3421981047655258 13.6791930287184336
29.7476454762931901 -14.5130156922713631 13.8010874098734284
29.6917156266121580 -14.6888245259725849 13.9240147120826325
29.6548984538559282 -14.8699207434640108 14.0526361967710400
29.6385938977726546 -15.0548253998282107 14.1888307826695286
29.6450630737362033 -15.2382142137604006 14.3296597462334852
29.6762533830519040 -15.4129609850319937 14.4690000203670355
29.7315429435206546 -15.5752162960236191 14.6018150413991457
29.8065059649345550 -15.7267357009120978 14.7263624764615351
29.8938984954201423 -15.8730548019619491 14.8429540766307202
29.9857579093921913 -16.0206139142356569 14.9519293775919841
30.0750513674816169 -16.1747086068926400 15.0533867882099699
30.1563240965340107 -16.3381093951696919 15.1485621556839440
30.2253143971190745 -16.5103761233294328 15.2403847809632325
30.2779706405644191 -16.6884518760156375 15.3315837106235389
30.3100183586591037 -16.8687658895140267 15.4220809506598293
30.3178332382145967 -17.0499432865988290 15.5086643231511729
30.2996522125836414 -17.2335791724157446 15.5869059682641051
30.2562093474177729 -17.4218974765616181 15.6535875456529165
30.1917407834124703 -17.6151510356260061 15.7093859941234317
30.1155671919528416 -17.8108286178203450 15.7607454113728824
30.0419420854679906 -18.0044148649362654 15.8194056425564451
29.9860869684263598 -18.1908056388467507 15.8990108075734664
29.9580144165946898 -18.3657450794463557 16.0095233044636096
29.9587613169721436 -18.5271444372252496 16.1534479354771250
29.9820290968492671 -18.6757902372206779 16.3271388950559242
30.0186498640102712 -18.8141943904416209 16.5239460682878949
30.0590168662254733 -18.9444358162293796 16.7351344493482088
30.0934494075247372 -19.0673199335543622 16.9499569698249317
30.1135216623932251 -19.1838768241401745 17.1588926067943994
30.1142670300690440 -19.2969594067013794 17.3581637801042845
30.0948304992392863 -19.4101580176210717 17.5495930481646703
30.0569902482420908 -19.5255528432292920 17.7362721996369608
30.0032212669348546 -19.6437756407629784 17.9204288004990424
29.9360176619770506 -19.7651509372993246 18.1037809575745534
29.8583895942412987 -19.8894289539664229 18.2873545107594460
29.7738228602894068 -20.0148827110389824 18.4709215449836321
29.6849434571429001 -20.1389491178426674 18.6535249617279391
29.5923308470845434 -20.2601770571168451 18.8343944443589635
29.4947802826462713 -20.3792155708937237 19.0131367305479735
29.3908230066535694 -20.4978345317123427 19.1891451556586823
29.2799037878282284 -20.6172619680433407 19.3614066114712919
29.1621777047513859 -20.7375214444378067 19.5292690333819365
29.0378831809677749 -20.8579773212422985 19.6927048851207473
28.9070321910656496 -20.9784365547479297 19.8517668114568409
28.7695306362785885 -21.0997402646647174 20.0064206855997213
28.6258254334607685 -21.2232205990578251 20.1569526239715984
28.4776366378034602 -21.3495861422015878 20.3036955306145757
28.3273520569565811 -21.4786332035738567 20.4457580244753743
28.1757417740358314 -21.6101053209540765 20.5803148413506918
28.0200955133190632 -21.7444082340925604 20.7031171773772797
27.8549809841980611 -21.8823016923403699 20.8094455639299447
27.6760545430034668 -22.0236798771251756 20.8947773002571751
27.4838822645996750 -22.1667268232455541 20.9554622822775727
27.2831421898322759 -22.3090482775375420 20.9897639779718830
27.0782760266940983 -22.4494227570308951 20.9982593992621389
26.8713368843152232 -22.5879305318388006 20.9829204355371530
26.6634840214771778 -22.7246561311348287 20.9460659942306506
26.4564106488784425 -22.8586946833026587 20.8902528477290730
26.2519771694641086 -22.9884266391941594 20.8187463887406672
26.0521913768895601 -23.1122014231494504 20.7355443956697378
25.8593192902943727 -23.2289088853167200 20.6438840364249145
25.6750479730808223 -23.3386059412197326 20.5441869479822117
25.4998896878920327 -23.4431365161545031 20.4345897787783173
25.3326444829005872 -23.5461370237835155 20.3149005632135875
25.1695094957038421 -23.6516579386549637 20.1898541794564679
25.0051246244930887 -23.7618494402237772 20.0688995073869165
24.8356421964868588 -23.8757329643523306 19.9636431181572043
24.6597424092599944 -23.9912480002693087 19.8838829226296880
24.4769687126014226 -24.1085103079017742 19.8337542270211067
24.2870260287148838 -24.2301779424527908 19.8100783251740467
24.0912139614057388 -24.3586956087687412 19.8044137208070730
23.8926099423475193 -24.4940458355786816 19.8079974475886615
23.6944703097542870 -24.6336605449939867 19.8161583119762952
23.4992498458565393 -24.7737120826357540 19.8290063190476324
23.3081319268846308 -24.9111211486525477 19.8483964319821098
23.1199232288215804 -25.0454075924412365 19.8738192933342432
22.9312176797355995 -25.1784484453968744 19.8997456450815911
22.7392025047135675 -25.3118762614133459 19.9155364884730517
22.5446227091398690 -25.4452889452634281 19.9082701306440271
22.3527133224078085 -25.5764567738454502 19.8674341748687304
22.1711426456916527 -25.7020412381339085 19.7886706217089987
22.0058742833702716 -25.8183719618972347 19.6740270909827260
21.8589091400077535 -25.9223355650180736 19.5293547063599355
21.7298527063588409 -26.0117516042357479 19.3613511752467033
21.6180966827070087 -26.0855301502044554 19.1758161756793655
21.5232098017216984 -26.1436972015269546 18.9778997772710376
21.4441057062574636 -26.1874775211988648 18.7724716965209879
21.3783764307454831 -26.2190794802457390 18.5633811566476403
21.3226803164347878 -26.2407736903518867 18.3529378578906091
21.2741080857408740 -26.2539062994326926 18.1422028846917378
21.2314407630061339 -26.2585503026985947 17.9309572747899466
21.1951744045045309 -26.2537325861908926 17.7161781413091859
21.1662094823981839 -26.2376271360781672 17.4899547711143022
21.1445473326845281 -26.2076872038019317 17.2406109660991262
21.1292148073834873 -26.1616707622894040 16.9603522288105353
21.1187590647901757 -26.0998045299696955 16.6548704466898663
21.1110639551416739 -26.0262176729060499 16.3435160038886735
21.1030114443920596 -25.9475795503716853 16.0475359039206893
21.0913611849766056 -25.8694272043962812 15.7776530375526924
21.0742930296759710 -25.7932901048540799 15.5311779621267121
21.0518763846020462 -25.7170360198336923 15.2988000774955744
21.0248740743274638 -25.6372775814911193 15.0723662565142842
20.9928810397331240 -25.5516060153569100 14.8471842021862788
20.9533755831949868 -25.4597989725032789 14.6211594569666037
20.9027060817128962 -25.3634229897844392 14.3940617786097427
20.8387872764573494 -25.2641780373582421 14.1677113382001973
20.7635827771307575 -25.1629492106239567 13.9468537208673808
20.6826013676408920 -25.0599632186801600 13.7380864047294864
20.6012476674730003 -24.9546508145722257 13.5459168174968294
20.5217754730009574 -24.8454642526650886 13.3701118266104118
20.4437886630153542 -24.7307051605188590 13.2076719617352740
20.3663988129676987 -24.6089947161334521 13.0560055634313628
20.2888762295102509 -24.4779833532564339 12.9131667385636568
20.2102188076729163 -24.3334583760881173 12.7776220102538467
20.1298328846273904 -24.1711128213311071 12.6510722608942512
20.0487054754312410 -23.9885650459535213 12.5408134015971697
19.9688729904555196 -23.7848828255038782 12.4557483160048186
19.8921356108625780 -23.5606655084796586 12.3992384421588469
19.8199488171394087 -23.3198450573711682 12.3668216610140576
19.7538653652231204 -23.0691225649966825 12.3502473695447463
19.6954386672981627 -22.8149938648108730 12.3424852018864488
19.6458244345235258 -22.5617576714220576 12.3397151935763159
19.6056623581053735 -22.3116446347555311 12.3405722859901328
19.5751201956910315 -22.0658637573387963 12.3444836007081555
19.5536703194296635 -21.8251034059081874 12.3504471140170811
19.5399367917041005 -21.5889131798924367 12.3568938143417011
19.5322775387732790 -21.3546585539261642 12.3625485162676014
19.5297188251959355 -21.1175010096979463 12.3672454431222416
19.5322516390164864 -20.8723409921903098 12.3715540881833483
19.5402023971600229 -20.6168132399126307 12.3756255043631143
19.5532929658528118 -20.3535906973572587 12.3787118278803003
19.5700745603266597 -20.0914140272316324 12.3796947273165650
19.5881059827485480 -19.8425349890096037 12.3776662604172856
19.6048665954166097 -19.6144101097420780 12.3720815154603425
19.6186465629796203 -19.4040377150495722 12.3626248733130808
19.6287529252080617 -19.2018319083253530 12.3490635990795390
19.6349684268938915 -18.9997866462966272 12.3312690876453210
19.6367860987771046 -18.7945448563505551 12.3091315643374557
19.6329893808872704 -18.5849877725019681 12.2822902191827037
19.6217622280576158 -18.3701138724578499 12.2501815732213952
19.6011562261398318 -18.1497127694310691 12.2125142516232756
19.5695495891929347 -17.9256551863671234 12.1694813744175878
19.5258273772914919 -17.7015476732325929 12.1213349605893548
19.4693493355638516 -17.4812303020265247 12.0678393786518257
19.3998907329757806 -17.2673697565745030 12.0081767000118749
19.3176295018725170 -17.0607796110417809 11.9412513907873024
19.2232374530649111 -16.8608463631889585 11.8660067932280402
19.1180970898851257 -16.6667584517195664 11.7816861679908769
19.0046046162944577 -16.4786278667277344 11.6882667843108976
18.8863327570727293 -16.2976909059834156 11.5869009828351412
18.7675325087567018 -16.1252163944566398 11.4796951629783734
18.6517682492676222 -15.9608103701115276 11.3685237967150456
18.5406811087225840 -15.8019463220054455 11.2538910474557259
18.4341343340428772 -15.6453274579955917 11.1351581163196300
18.3313722318648757 -15.4883419656798438 11.0118057880392843
18.2318766545924902 -15.3292339566861386 10.8842714119449990
18.1354654756074680 -15.1665105745998225 10.7536857556565479
18.0421392839692949 -14.9986642143266735 10.6211566206393577
17.9520701807171932 -14.8244248373930638 10.4874442482924515
17.8656294791030348 -14.6430060058952307 10.3531782578260394
17.7832823604254102 -14.4539895909948584 10.2191786395246620
17.7054046327084329 -14.2570104302971750 10.0865001440719197
17.6322289153129859 -14.0515626113436234 9.9562988925548161
17.5639848997105936 -13.8370896586785186 9.8299364262238544
17.5009174475385123 -13.6133003100960757 9.7092228344837714
17.4429805832848714 -13.3805276503251243 9.5962099441656115
17.3896947596564431 -13.1401266892866779 9.4926020059541720
17.3406546701051525 -12.8951368802707158 9.3995357558984480
17.2962061220333609 -12.6507554536214286 9.3178410899161435
17.2573711854267415 -12.4130771143788259 9.2480749727836962
17.2248884914597511 -12.1857309147274684 9.1899262663735790
17.1983881278240673 -11.9673417872106285 9.1416484195816157
17.1765924568512887 -11.7526122162331319 9.1004386385035509
17.1580259139049218 -11.5354527591478622 9.0635445863239745
17.1413205599894667 -11.3117337268218847 9.0292059604207147
17.1250915681067681 -11.0813911572446635 8.9969610069737058
17.1079318248866628 -10.8491101283776423 8.9673459706396077
17.0886526026097769 -10.6214745824963579 8.9411551736597605
17.0664524006046214 -10.4020512361328556 8.9186998021478221
17.0408969961451930 -10.1893334824777924 8.8996201680331044
17.0117263078618564 -9.9776971701914761 8.8831398692778123
16.9785089146799848 -9.7580744956294048 8.8683036440879697
16.9404343949850613 -9.5183651966494658 8.8541043468530560
16.8967527841008049 -9.2469177501203852 8.8397066907777244
16.8477922730864336 -8.9392642116583474 8.8247904159346611
16.7954524644010803 -8.6017107315945012 8.8096804048831174
16.7424031309777774 -8.2469689554521466 8.7950490606435032
16.6908712245869744 -7.8868296901223793 8.7814945198761478
16.6421136078625906 -7.5285214993771810 8.7693469584556354
16.5965999892193352 -7.1752454179563507 8.7587081978127586
16.5543870194494858 -6.8280242156225057 8.7495587290043471
16.5153728389747556 -6.4870327822529923 8.7418323929923414
16.4794086728712372 -6.1521932424962280 8.7354492626390154
16.4463347222302900 -5.8233681313132486 8.7303261946206199
16.4159890962737052 -5.5004086685357692 8.7263794404717991
16.3882095804826022 -5.1831643253379056 8.7235251591174450
16.3628339192796517 -4.8714843518730184 8.7216794979061554
16.3396998528178585 -4.5652179754381361 8.7207586030051605
16.3186451208874033 -4.2642144214040236 8.7206786204837741
16.2995074632534873 -3.9683229150102957 8.7213556964047978
16.2821246196799123 -3.6773926814894686 8.7227059768306869
16.2663343299304302 -3.3912729460737374 8.7246456078238808
16.2519743337687856 -3.1098129339952987 8.7270907354468221
16.2388823709587271 -2.8328618704863473 8.7299575057619556
16.2268961812640100 -2.5602689807790817 8.7331620648317188
16.2158535044483756 -2.2918834901057057 8.7366205587185544
16.2055920802755793 -2.0275546236984123 8.7402491334849017
16.1959496485093624 -1.7671316067893894 8.7439639351932072
16.1867639489134731 -1.5104636646108336 8.7476811099059120
16.1778727212516671 -1.2574000223949469 8.7513168036854534
16.1691137052876854 -1.0077899053739241 8.7547871625942744
16.1603246407852446 -0.7614825387799815 8.7580083326948390
16.1513432675075350 -0.5183271478456408 8.7608964600499686
16.1420073252097183 -0.2781729578080832 8.7633676907278613
16.1321545535464423 -0.0408691939628998 8.7653381708639913
16.1216226911153697 0.1937349177795511 8.7667240472997925
16.1102494671424736 0.4257901460554017 8.7674414731188186
16.0978725406279750 0.6554472186304494 8.7674066480055721
16.0843291257532570 0.8828566045140107 8.7665360652199560
16.0694540596310844 1.1081673919225477 8.7647477734787280
16.0530715070365453 1.3315224882999566 8.7619667050966559
16.0349656470231459 1.5530417726768224 8.7581429281664569
16.0147968830918082 1.7727745344636272 8.7533006235430655
15.9919136633674732 1.9905950672298207 8.7476331022144027
15.9650385835988828 2.2060357713063503 8.7416026284566097
15.9319342659330587 2.4181242044564062 8.7358534781883233
15.8893427609007212 2.6253674720778388 8.7306031498351544
15.8335447825912841 2.8259742911435346 8.7244009723801881
15.7616154024477346 3.0182076946482628 8.7130053692291760
15.6729297422685647 3.2007162084636240 8.6899104898314867
15.5699764738224289 3.3729412855787455 8.6491447622004252
15.4576150703405162 3.5356967702164681 8.5884826418421714
15.3411272865303854 3.6914883771300593 8.5104119656502988
15.2246220010872246 3.8440196129615245 8.4205931602752901
15.1106182513667449 3.9970600247050871 8.3255526957452979
15.0003393182625420 4.1534431087977994 8.2309930187635238
14.8941614648947329 4.3148739410778170 8.1410724319977632
14.7918338445912436 4.4826098839018282 8.0584210284259470
14.6925845690705579 4.6580670215102495 7.9846270543746316
14.5955608137498487 4.8424439737412719 7.9209322567703904
14.5004788036303260 5.0358192595856348 7.8686833187419154
14.4078765409256331 5.2368371276752583 7.8292821211494150
14.3188463455985708 5.4432420012360048 7.8038647727461710
14.2346932119859311 5.6525733797512450 7.7931693204279524
14.1566783344945382 5.8628325636584933 7.7977552145220308
14.0857091520124662 6.0732974470757473 7.8182441252252310
14.0222940165231265 6.2843767048300467 7.8552324115239500
13.9669096020326808 6.4961110040539252 7.9089300336787733
13.9202849766527788 6.7073815340788903 7.9790389311093124
13.8832611765892828 6.9175761395321018 8.0653590296859328
13.8565195046385554 7.1291674954008268 8.1687977250263017
13.8403728604308540 7.3479094436723535 8.2913334119545699
13.8344055803356625 7.5783760379855973 8.4331760062393819
13.8369259259031185 7.8168301426519236 8.5880186155945104
13.8447191435623242 8.0492873511216647 8.7418135431602764
13.8534921319957469 8.2604493331493671 8.8791478786583617
13.8586384481665359 8.4461783443292688 8.9918741679078362
13.8556924069749794 8.6165353105460234 9.0809788021834112
13.8404516028375451 8.7868180212410572 9.1507358377755832
13.8092409308617938 8.9661183667286029 9.2021575915494402
13.7596694949184748 9.1539447993994152 9.2321966881859083
