BEGIN_0
-23.3195031179147740 6.4568748014103443 8.3876262033128910
-23.2668991501453455 6.6510700411313648 8.3782903409133489
-23.2445555634502803 6.8421640178121059 8.3428520927437919
-23.2512623062736878 7.0273845577220131 8.2807038422257566
-23.2819189261789603 7.2061961642526322 8.1940048468880384
-23.3294363077864766 7.3793417035311668 8.0870123396336595
-23.3864641246111020 7.5478887140347597 7.9649707095266002
-23.4461499618808276 7.7129993112746860 7.8332164768350454
-23.5025133083435946 7.8760217334724612 7.6965579103524595
-23.5509187548263483 8.0389634048542042 7.5587675634809823
-23.5885558589255560 8.2052686845516547 7.4224492800076378
-23.6145202440233390 8.3803328655876648 7.2892633287852959
-23.6292139723914687 8.5711470203445863 7.1602116444660604
-23.6334693081479941 8.7837895139013717 7.0365850734969362
-23.6280918569198626 9.0184538215516064 6.9217456729964812
-23.6139209270367871 9.2663579910385696 6.8216786406015615
-23.5918545485934139 9.5143972425030778 6.7423643759027323
-23.5626480053267855 9.7543135981954556 6.6862323405799504
-23.5269361120530114 9.9858042977517343 6.6517825254843164
-23.4855441254628587 10.2118903251312094 6.6360503638569988
-23.4394771003774274 10.4339929298718364 6.6367187556176184
-23.3893996262225237 10.6512120416084741 6.6524809417277364
-23.3351311558704246 10.8620223891512175 6.6823999335022997
-23.2756153845351612 11.0655023510107462 6.7253500466367591
-23.2093150099978196 11.2614445939981476 6.7800517770054487
-23.1347216845561512 11.4500774408584878 6.8455290597606746
-23.0507956085663466 11.6319460424768408 6.9214547290863218
-22.9572650673882563 11.8077841187478914 7.0079366006281747
-22.8547035882091620 11.9779379597685942 7.1046054677497894
-22.7442697891102696 12.1418313190708851 7.2095389800159460
-22.6272590636513904 12.2984988840529947 7.3190396046702579
-22.5048127263489590 12.4478767530085488 7.4284844831730341
-22.3780416330999081 12.5916825188123234 7.5332592442161284
-22.2485500200031723 12.7333313243148112 7.6290464398440898
-22.1187999096816874 12.8770676896575669 7.7117453249592485
-21.9919425620218369 13.0269114893710913 7.7771711213712056
-21.8715734975882334 13.1857612876633610 7.8207262869846534
-21.7619137241487479 13.3543235190775942 7.8377402095757391
-21.6677157665205229 13.5301687078287820 7.8248499796056725
-21.5930639278038257 13.7081153463897341 7.7815546424645596
-21.5397188872243248 13.8824404092032072 7.7104547696745378
-21.5064002423111731 14.0497736444833290 7.6157377143887368
-21.4895137215373282 14.2105184785878560 7.5011894403494397
-21.4844882694520543 14.3677821952847360 7.3692779000372717
-21.4866441824307977 14.5254226962657516 7.2212194673133903
-21.4913847988651909 14.6873749743887103 7.0572111612093522
-21.4943627918604037 14.8569545889214716 6.8778761809804401
-21.4920322704565265 15.0342795661144955 6.6875088419607476
-21.4821389541289278 15.2142514421556569 6.4960074881277290
-21.4636103422612585 15.3896287824494387 6.3152023294165680
-21.4359874216954935 15.5572998570292800 6.1521415149004248
-21.3990594752341643 15.7202246033921380 6.0072462296520150
-21.3527316045242905 15.8841617125678827 5.8776704386070246
-21.2966646909976092 16.0540651758623660 5.7608265224019117
-21.2299767642400461 16.2328008481842687 5.6558782542951072
-21.1516222331880570 16.4214642522400389 5.5637070330422915
-21.0612332627749090 16.6200305761416764 5.4860168057338470
-20.9596203211973666 16.8276749535471453 5.4242491790032155
-20.8486268048601566 17.0425587808350976 5.3790351903910434
-20.7306022367638647 17.2614619753137326 5.3502864031727579
-20.6078607579219373 17.4799863874336623 5.3374279468515873
-20.4823723176935779 17.6936021249458619 5.3394761968329796
-20.3557714573543791 17.8989388343985780 5.3550708081579401
-20.2294312906986988 18.0944454248503419 5.3826348503634467
-20.1042432334309353 18.2801468117380423 5.4206971637166745
-19.9803051249083339 18.4570965471469428 5.4682053779717918
-19.8569783340510888 18.6272329824623881 5.5246530319640712
-19.7332845818323754 18.7933813759120092 5.5899849721660324
-19.6083685881067353 18.9584238650938524 5.6641362272258569
-19.4819968315616308 19.1237011512211659 5.7462232533892355
-19.3549008596760288 19.2883948904418148 5.8340798968866174
-19.2284734474938936 19.4509150505194697 5.9247327644692085
-19.1040692864787367 19.6109047474869342 6.0153135647497695
-18.9825407862748321 19.7700557463947106 6.1034713244944658
-18.8641433336445310 19.9312237163798613 6.1868172498910692
-18.7486832447432406 20.0966661181546868 6.2616952758821895
-18.6361038976693933 20.2671081505359822 6.3223476395212721
-18.5276696701361665 20.4424165854465301 6.3615002247462513
-18.4267667359899150 20.6221628143344518 6.3721322105004798
-18.3378000121690654 20.8045731221897903 6.3492748894652973
-18.2636335612266016 20.9856290668800192 6.2911259729572109
-18.2038673329991774 21.1605671626136811 6.1994697685144224
-18.1556106038715228 21.3263923705927141 6.0790538352574739
-18.1156497556155820 21.4825252889479685 5.9359599373989642
-18.0815061663789187 21.6294103649280878 5.7762021185357160
-18.0509436767995233 21.7673309859906894 5.6051026431446953
-18.0213519274325975 21.8967565189239153 5.4267744935073896
-17.9898963530762117 22.0192177861849210 5.2438009073897547
-17.9540824166232582 22.1373065653450851 5.0578301173503153
-17.9121573832898200 22.2539308239632589 4.8704378873504020
-17.8631458655374580 22.3716466295901171 4.6833103467511865
-17.8064923678882714 22.4924809125999907 4.4980637547899249
-17.7415714585885240 22.6181362693915986 4.3164508117920963
-17.6676061953429802 22.7502383776742043 4.1407793523963008
-17.5841104717059551 22.8902942791581481 3.9737315869118106
-17.4912600441091826 23.0393787926545883 3.8176820261525322
-17.3897586434292997 23.1977430225176491 3.6744696168118143
-17.2805816958759664 23.3642642585656901 3.5458162622817131
-17.1650239143944745 23.5360844421889475 3.4336167559590152
-17.0445589490736786 23.7095018002227178 3.3394469519256749
-16.9199061847380534 23.8822166269948752 3.2636229149276463
-16.7900775039330519 24.0548886051670294 3.2049338077602432
-16.6527234942696687 24.2301287825465721 3.1615277193344760
-16.5056876867399396 24.4098778349479772 3.1319964879235673
-16.3486283498067415 24.5933953065465580 3.1157203017705939
-16.1834515198666438 24.7770684081821528 3.1125757940672791
-16.0132217092018330 24.9558583494958768 3.1225341607994217
-15.8407455005547817 25.1252664376887864 3.1453962035125986
-15.6679557277524530 25.2825739791189790 3.1806896929788131
-15.4959862290092651 25.4268820936709545 3.2277051899663540
-15.3254180579126746 25.5584412164846917 3.2855909846657756
-15.1565060665870490 25.6780069285857095 3.3534298085915690
-14.9893572637972667 25.7864909649434075 3.4302976798692040
-14.8240293416053071 25.8848074359873692 3.5153267922121536
-14.6605389347397477 25.9738050480923661 3.6077373143096132
-14.4988116353723768 26.0542817255944641 3.7068223734148145
-14.3385296268166904 26.1270473082284980 3.8120052611780881
-14.1788511378992865 26.1931037744556257 3.9231120371585462
-14.0180025177436320 26.2537739354425774 4.0407714507300714
-13.8531494274709779 26.3105376757323839 4.1664872767046415
-13.6813527696258070 26.3646737360885339 4.3018059475112480
-13.5014908858930927 26.4169607965123205 4.4467432878306035
-13.3153618396968518 26.4677849766229940 4.5988940421596052
-13.1266548677837775 26.5177435004646327 4.7542801114548521
-12.9390220105975295 26.5681432284171208 4.9089087090420502
-12.7548798807100390 26.6207918031535691 5.0595906574212428
-12.5750760897309490 26.6772328143410391 5.2038324621538852
-12.3989252311379765 26.7382376337380272 5.3393928718257939
-12.2245024697874545 26.8042293739592310 5.4639564333649240
-12.0493211346303060 26.8762115374918267 5.5749629016272539
-11.8714161447908388 26.9558838081703271 5.6693957573317686
-11.6904954001049646 27.0445041705045597 5.7436351610872123
-11.5082599933997400 27.1418362925651877 5.7939660248029199
-11.3273615078186118 27.2464647988175734 5.8178157930905527
-11.1498789570993786 27.3568025020676799 5.8148193885247377
-10.9764940563760600 27.4713932691512603 5.7871302568511229
-10.8066973065898058 27.5884639712105226 5.7390545391864975
-10.6393191849976940 27.7058720787239352 5.6762088702765343
-10.4728210420640284 27.8218440756157115 5.6045263105506091
-10.3055385893692559 27.9357743622193802 5.5292947591627559
-10.1361219754973177 28.0482952624168718 5.4545389831074544
-9.9639843007996571 28.1605139843902670 5.3830726172860182
-9.7889881900141162 28.2731839406486642 5.3167553278418307
-9.6103159224295780 28.3864499328864710 5.2567222210479088
-9.4259821725297357 28.4999491773400706 5.2039270846443948
-9.2340909242269280 28.6127764865424936 5.1598100295664988
-9.0346810649534959 28.7233994769403900 5.1264435370891857
-8.8303044779518327 28.8297663065506313 5.1061796921186318
-8.6248467988892994 28.9296825636060149 5.1011837680341934
-8.4215448386383489 29.0214889508814444 5.1130055225246256
-8.2216869330586704 29.1046953957541454 5.1423775442707473
-8.0249786833164585 29.1799042753924880 5.1892515757529090
-7.8310780352552403 29.2478508492445286 5.2527333720144540
-7.6405923473027926 29.3085336670929664 5.3309650731826732
-7.4545084732230560 29.3614285071557113 5.4213465210643950
-7.2729644727131557 29.4063500610778412 5.5210245107267486
-7.0946619784419145 29.4438894995609566 5.6271582312698527
-6.9172629860378283 29.4751303442250325 5.7365657257598066
-6.7382589657468923 29.5010967040758594 5.8448818922611796
-6.5555050436075213 29.5224102015532921 5.9459111826755020
-6.3673803134917026 29.5393028436203018 6.0316408733915132
-6.1734511911350332 29.5518514661352185 6.0928510279771864
-5.9754370777480048 29.5601520092245096 6.1206373200763800
-5.7771607406584558 29.5642679437604201 6.1090408989546425
-5.5833119192173148 29.5640682631961127 6.0574296409791799
-5.3978819562474172 29.5592183529782169 5.9706875885129875
-5.2228908228824551 29.5493798604632829 5.8570306555188481
-5.0581393993900150 29.5345061915550779 5.7252596981960764
-4.9019518192041049 29.5150561901166988 5.5829403959992661
-4.7516687427736928 29.4919728950809095 5.4355479404910483
-4.6036580798436102 29.4664225899558865 5.2863868676716113
-4.4537763911161017 29.4394258228448571 5.1373709011965918
-4.2982512720519743 29.4115959759927215 4.9901184961227614
-4.1342783775907925 29.3831808963378229 4.8466009215560373
-3.9601289669695010 29.3544156317202187 4.7092300354777343
-3.7750938077488936 29.3258813723756333 4.5807319141284868
-3.5796421885743603 29.2985281011364584 4.4640224125831978
-3.3755783300370172 29.2733765029221296 4.3619839039927957
-3.1654007955622454 29.2511395831788761 4.2769631398212749
-2.9507683513416518 29.2319796987037499 4.2101899262933724
-2.7316787160628664 29.2155185193693754 4.1617597629515330
-2.5077469323642365 29.2011109793183650 4.1313793987057004
-2.2802668931888750 29.1882059680260575 4.1190902372157687
-2.0527820077067469 29.1765448832519070 4.1253146364444557
-1.8296091236936141 29.1660828360803244 4.1505618399460431
-1.6136811562210709 29.1568076248091756 4.1954311588594866
-1.4055357591101130 29.1487319677952321 4.2608104872542025
-1.2042609286335457 29.1420576836917959 4.3476437443194911
-1.0095343111664059 29.1372715508108300 4.4560616045057415
-0.8226705344586418 29.1350123603142634 4.5845889958339665
-0.6455967052181273 29.1357542276706170 4.7302356697715986
-0.4792492864271782 29.1394836762435148 4.8892487642397526
-0.3231579287135475 29.1455650728190747 5.0578609334442177
-0.1761561625528034 29.1529179035955011 5.2327239988175283
-0.0369572399597295 29.1604310979195418 5.4109887298283663
0.0961475353396088 29.1673066645415986 5.5901147188416669
0.2259696273868927 29.1731254636759978 5.7676760501064095
0.3565410626203367 29.1777664231883733 5.9411988786949976
0.4923776298459936 29.1814781304018602 6.1075660244740888
0.6373861480834790 29.1851739622780322 6.2620047865614392
0.7941424184595540 29.1905976651108894 6.3977588344026195
0.9636802848706985 29.2000465578061394 6.5071987810159548
1.1453316873728019 29.2157216991565996 6.5838569098974080
1.3368185220252067 29.2388246287890325 6.6245815704416842
1.5350022510120527 29.2686897479933918 6.6309006469304972
1.7367633673268457 29.3026442452730222 6.6086482880828186
1.9395572176361713 29.3369029756254704 6.5659910649529198
2.1418867726622048 29.3677431135852949 6.5111037371518155
2.3436481073059596 29.3919481143584242 6.4506746264159958
2.5458732432373368 29.4064385347012340 6.3895799598949488
2.7496482636663573 29.4080414298731370 6.3313926651075736
2.9550796044218468 29.3943743294410638 6.2789948372021271
3.1614123027783028 29.3653546471489797 6.2347808346981051
3.3680975778922351 29.3237940502817942 6.2006458182169979
3.5752825530912951 29.2741569517658000 6.1783156921900524
3.7829669777270798 29.2202457398007098 6.1699862718318954
3.9901243034338303 29.1637409198464894 6.1784028782401332
4.1948024305639775 29.1046198918888059 6.2058908661655483
4.3945220737846800 29.0424167270787237 6.2530559945129234
4.5866185146235745 28.9769655271547215 6.3181776779561911
4.7691885899672180 28.9083371201255730 6.3976158284998146
4.9423127249995069 28.8364607463100384 6.4866997575595740
5.1084692622341095 28.7610472359751519 6.5801017624326157
5.2718730681784045 28.6821202779981306 6.6713964299734947
5.4372866465822387 28.6009494017148960 6.7524725840686948
5.6087617182272655 28.5207276842654132 6.8136223650284977
5.7884575109750349 28.4461723125639594 6.8450363218459778
5.9758262635945334 28.3819184458436879 6.8394120019470188
6.1675307009596416 28.3307759394203167 6.7943006983538163
6.3585798815527745 28.2928249085143513 6.7125926569413963
6.5444789407502348 28.2654867795196800 6.6006857582830669
6.7229993270381003 28.2445205385525462 6.4658525787620782
6.8944348386636847 28.2257912436120186 6.3148260525167945
7.0603717465296896 28.2071045403300964 6.1540109848778606
7.2221641323664842 28.1887975935313264 5.9898160335826010
7.3803555410042669 28.1723281654522069 5.8278948902278085
7.5353487135432147 28.1580127475501172 5.6717773844235246
7.6882836449143381 28.1440299572487582 5.5223912501947865
7.8409418404979014 28.1272332922889099 5.3791704928146320
7.9950090349324778 28.1044510220407844 5.2416138554089713
8.1516245419023790 28.0731220078526746 5.1100422270107071
8.3114264043761636 28.0312571436834297 4.9855211001493629
8.4747814080805721 27.9772015722229064 4.8695186033949636
8.6419722839829554 27.9095155024058954 4.7636498790898472
8.8133265570262118 27.8271104792168238 4.6695404283375446
8.9893438996789801 27.7297645963118065 4.5887317324172425
9.1708089504321197 27.6190582843640122 4.5225865621592209
9.3587216322052935 27.4992911633121508 4.4722471670185975
9.5538173850370871 27.3772441852429438 4.4387706168568304
9.7557396617778025 27.2599422940976481 4.4234385301953711
9.9623837559685509 27.1516320134543889 4.4278986987565361
10.1699369323669195 27.0527070495833613 4.4537223216489537
10.3737478155039504 26.9613298036302780 4.5015271852673422
10.5697393714718473 26.8755697132340394 4.5703622223227676
10.7554642965794969 26.7942693608747788 4.6578496787495247
10.9301493801263963 26.7168439238091224 4.7609986780643183
11.0940649894786585 26.6428606804245369 4.8770618986855823
11.2480933991001031 26.5717085009406802 5.0037548968065906
11.3938449200197311 26.5023650258037300 5.1390317288424718
11.5337884089594755 26.4333667881636458 5.2809782296611552
11.6708757149769546 26.3630679453931691 5.4274763296123609
11.8079202938801338 26.2900648700529231 5.5752626002123602
11.9474903927154035 26.2134448819461561 5.7191949984032426
12.0924287602666691 26.1327489235658028 5.8523807132512786
12.2459664283194503 26.0480019750748859 5.9667005887955824
12.4107104461448916 25.9599438574991161 6.0536243529029132
12.5870086528890539 25.8701889763444086 6.1056927462045270
12.7719146468450759 25.7810442782987934 6.1185206855580869
12.9600426895468459 25.6947918726448634 6.0922837333862709
13.1460570538180797 25.6128337765355027 6.0314179698451635
13.3266029038747025 25.5355397359291203 5.9427874144670643
13.5002352414971227 25.4628379301005907 5.8339286513816120
13.6666599854418038 25.3946511657500764 5.7119417929386849
13.8268224877664707 25.3307734172172871 5.5824235152559272
13.9831328726603168 25.2705582722512645 5.4486953027402159
14.1385692301079509 25.2127133731103612 5.3122080098204130
14.2953252297094018 25.1552241588692382 5.1737114443082817
14.4542969260623089 25.0955453296756588 5.0341231359755252
14.6154905654057909 25.0310554898242756 4.8947653644590723
14.7786208820885925 24.9594452471550490 4.7572650583429130
14.9434333404423310 24.8788132303351084 4.6234085578601398
15.1097579086999669 24.7875655942105162 4.4950506879704424
15.2774379200612564 24.6843313828853255 4.3740763271604131
15.4461844273830700 24.5680636136940649 4.2623942789058393
15.6153285395418120 24.4384545143858887 4.1619393413345716
15.7835479207471945 24.2966478881471168 4.0746247870189514
15.9489569183381761 24.1457618478976137 4.0021351032099357
16.1100353207292351 23.9902721279222249 3.9455068323758979
16.2669729826274008 23.8339826871214058 3.9047452304737771
16.4217816593297705 23.6781665047185683 3.8789641474183227
16.5764466313682135 23.5217873663238564 3.8671035319272598
16.7309815504585373 23.3633606348537093 3.8685674828042984
16.8832535626432048 23.2025189026294072 3.8833299482224461
17.0303218877984648 23.0400894611287157 3.9117457851827293
17.1699725778770116 22.8769680131722595 3.9543834650097320
17.3015240318007955 22.7129093995767306 4.0118436480944304
17.4257227658435738 22.5463733338623626 4.0845708145537696
17.5439610646273678 22.3758610639238569 4.1727489620258051
17.6571174365342287 22.2017805625113596 4.2762004306828842
17.7647611534323886 22.0269032789328634 4.3943533859001764
17.8653805951001949 21.8547169011958822 4.5264054838128303
17.9571182483116374 21.6874655181285618 4.6712306800213241
18.0383618473784821 21.5255856697412931 4.8268484537804675
18.1082294889906592 21.3683908908417024 4.9900096829126266
18.1670573458666880 21.2149921315217824 5.1565244078344907
18.2165251377382056 21.0647361899860712 5.3223611863005651
18.2590795081576402 20.9170886951718842 5.4848030705438422
18.2971064895227649 20.7712927261703442 5.6428438616563401
18.3326512360320244 20.6260143227755606 5.7967435462672299
18.3678216730042898 20.4791670020889995 5.9471333516875582
18.4053056099095222 20.3283452205242909 6.0938290334647256
18.4484476986444150 20.1718697643999150 6.2347294462239873
18.5008342977392068 20.0094102714701521 6.3657521483103583
18.5657519069462325 19.8415834449085509 6.4819468622182264
18.6456621315053503 19.6696829676196430 6.5785545077440979
18.7415656070272370 19.4962396422172581 6.6514061671914977
18.8525905628023658 19.3251029484894765 6.6973407868489723
18.9762702630170743 19.1600360808737271 6.7149668081070981
19.1091710876569891 19.0030535199933865 6.7050343448531837
19.2474899113686355 18.8538019396988581 6.6699769068099570
19.3877980186352374 18.7098423141574166 6.6130899241248464
19.5277109561417817 18.5674988840996598 6.5380205646515481
19.6657876042922766 18.4231948966904895 6.4488127817536380
19.8007532417545598 18.2746968645371446 6.3502079888856890
19.9309370039067062 18.1216258396389414 6.2474775319198717
20.0545452406340594 17.9649541000599164 6.1454620969347236
20.1706707736021826 17.8056734185030479 6.0474944641377917
20.2801236187768481 17.6436115221081060 5.9550679106022617
20.3851181902381882 17.4773249241093076 5.8684084457645440
20.4880412004156867 17.3047730876944925 5.7875050118259317
20.5904178642485896 17.1240847747420268 5.7130329807033302
20.6927298448529520 16.9342192974795580 5.6465831442671703
20.7947823358121937 16.7355123607208434 5.5900690244082902
20.8959135089313826 16.5299063695524460 5.5449635533492838
20.9948862189596426 16.3206119826372245 5.5119806551882178
21.0901643444307290 16.1109418851286321 5.4911478368493682
21.1808481417701167 15.9026524591089640 5.4820080462036138
21.2670602427599391 15.6954955055346232 5.4839047824832079
21.3490181490576525 15.4887879657840202 5.4962984669910657
21.4263178695147936 15.2825955922099705 5.5189607789391300
21.4984704022773663 15.0769355814461683 5.5520022598959908
21.5654313896967409 14.8711638519832956 5.5957120529177828
21.6271389158673770 14.6650747505405068 5.6501468696698840
21.6828567595629984 14.4599457366524558 5.7146914257077430
21.7314259347785601 14.2577266890294876 5.7880814991357479
21.7722523503588050 14.0594066419476533 5.8689392795270070
21.8060288529132045 13.8643397880419368 5.9562751056469132
21.8345665955880115 13.6709702318064572 6.0493328512882094
21.8600581058568793 13.4781537005898429 6.1467952675452917
21.8846210208331300 13.2856653414252186 6.2462041453535857
21.9105993025275012 13.0933885334463938 6.3441920830913912
21.9412233641704759 12.9005875113298014 6.4369072192659935
21.9807152371380070 12.7064454326941210 6.5198437109301128
22.0333558046653692 12.5112014843435944 6.5874014009899611
22.1018740879012867 12.3166593656495529 6.6331963791022179
22.1860967286887458 12.1256951130078878 6.6515171982331296
22.2829535438136190 11.9409686045758292 6.6391738200676684
22.3880535748365546 11.7637149951996278 6.5963509642607701
22.4976305711765647 11.5936820758854644 6.5260423004587782
22.6093779377961219 11.4300682694258278 6.4330274400082903
22.7220061935166946 11.2721392778991785 6.3231274667172670
22.8345281465632226 11.1187657136893812 6.2024551336601519
22.9461122279822796 10.9675489162490205 6.0764110866572345
23.0562660923898335 10.8149092144393588 5.9489802644951144
23.1646826840499784 10.6574917216092278 5.8230642843151266
23.2708079704876454 10.4936750301238977 5.7014753268689660
23.3736555545369278 10.3240268397494361 5.5873799120631382
23.4721660600214399 10.1503464437327988 5.4836841211643552
23.5659322046009656 9.9737111245184593 5.3920784075413959
23.6555189786435101 9.7930824092776767 5.3128616417004135
23.7418924135353890 9.6058452526966889 5.2457832395018595
23.8256174063566490 9.4094997252814423 5.1908984308615587
23.9065325215733502 9.2029866999578971 5.1486373210082732
23.9838324725637690 8.9871580366077630 5.1194085966644103
24.0562795770696383 8.7644197776431092 5.1034005522389059
24.1225147959712416 8.5375436294249027 5.1006558882223025
24.1814200901674639 8.3084552606363573 5.1110963295940799
24.2322191649919176 8.0785167627812555 5.1343907478178092
24.2743075951553244 7.8498998003938203 5.1698620138187206
24.3073195581987207 7.6256696945887583 5.2165674699127571
24.3313929967183995 7.4085824026904659 5.2734231884277865
24.3471781216546432 7.2003543392034919 5.3392064510242729
24.3555613879563069 7.0018455454154802 5.4125159547850767
24.3573501025393071 6.8131668510685977 5.4919978782682168
24.3529890293709421 6.6329348108135369 5.5770160909219157
24.3423718167593357 6.4574331579311037 5.6683067940629197
24.3249418502081589 6.2814777804348987 5.7676450952781497
24.3000928847776372 6.1011168735009722 5.8763539850000335
24.2675982179161451 5.9157519690065765 5.9938973621594371
24.2277878431049629 5.7279070753371863 6.1176453979186718
24.1814443154942964 5.5410584724935816 6.2437524066232584
24.1297394240003911 5.3572556275010621 6.3681714069287612
24.0744930171546692 5.1754666594508336 6.4872005589865136
24.0188243842413165 4.9904790713991245 6.5977366938021706
23.9681686023948437 4.7930139932550215 6.6975011506497246
23.9309363261032217 4.5733160264697261 6.7853057183319008
23.9170366981468661 4.3288842958526317 6.8613636480413218
23.9335632478932929 4.0706133883494182 6.9271853620947725
23.9806329911183873 3.8181656638209187 6.9849216214594030
24.0517781242897826 3.5863462789581808 7.0367870223403095
24.1386213657636972 3.3772888128570049 7.0848343405422654
24.2349429442312463 3.1844250856934835 7.1307561109495659
24.3375118098244307 3.0000746953255373 7.1756928266718152
24.4450067437093850 2.8192356661912292 7.2202439433935925
24.5568994360626753 2.6395202504480491 7.2646495540976623
24.6728925750918897 2.4599400929068942 7.3089771575716700
24.7927361689883057 2.2800349901722630 7.3532315283880223
24.9161864329027978 2.0994967622319169 7.3973996691758899
25.0429998351082439 1.9180518470444259 7.4414645812730695
25.1729327448271718 1.7354330432794693 7.4854085421704974
25.3057415029670700 1.5513741027879515 7.5292137236800967
25.4411824462855698 1.3656088944714266 7.5728622851918557
25.5790119111642333 1.1778712990102669 7.6163363849333283
25.7189862339684510 0.9878951980517883 7.6596181810477475
25.8608617510645828 0.7954144733074475 7.7026898316738857
26.0043947988192343 0.6001630064920764 7.7455334949503829
26.1493417135990640 0.4018746793206596 7.7881313290158776
26.2954588317706737 0.2002833735081833 7.8304654920090107
26.4425024897006971 -0.0048770292303750 7.8725181420684196
26.5902290237557892 -0.2138726471800361 7.9142714373327445
26.7383947703025804 -0.4269695986258117 7.9557075359406255
26.8867560657077114 -0.6444340018527193 7.9968085960307027
27.0350692463378088 -0.8665319751457812 8.0375567757416153
27.1830906485594959 -1.0935296367900147 8.0779342332120034
27.3305766087394133 -1.3256931050704335 8.1179231265805036
27.4772834632442091 -1.5632884982720494 8.1575056139857622
27.6229675484405170 -1.8065819346798921 8.1966638535664131
27.7673852006950135 -2.0558395325789558 8.2353800034611062
27.9102927563750498 -2.3113274102539272 8.2736362218086370
28.0514465518583762 -2.5733116859848675 8.3114146667499860
28.1906029236523246 -2.8420584779942430 8.3486974964534042
28.3275182096218430 -3.1178339039019214 8.3854668693721557
28.4619487596175667 -3.4009040760002112 8.4217049464699389
28.5936510128276744 -3.6915350666068516 8.4573939073839064
28.7223819703558050 -3.9899926927257905 8.4925160490169098
28.8479016062837808 -4.2965413797716590 8.5270542883117457
28.9699830411872270 -4.6114390627089783 8.5609942875528304
29.0884474571816192 -4.9349176867734776 8.5943317968738100
29.2032587083365911 -5.2671195316965722 8.6270929032877639
29.3147139186847419 -5.6079199408954743 8.6593767493360048
29.4236851842846576 -5.9565124546679620 8.6914183665448519
29.5316574806800283 -6.3106284926765497 8.7236352397262458
29.6401510350003861 -6.6654975845021625 8.7565946022024530
29.7494886522516246 -7.0133069302845392 8.7908916819698621
29.8578465882338691 -7.3445336235226506 8.8270600820503944
29.9618886293798283 -7.6516052325760349 8.8656523591417375
30.0587891067440616 -7.9325109805233467 8.9074026828324779
30.1476989662776482 -8.1908900586648912 8.9532238882963053
30.2294418323671188 -8.4327282952642939 9.0040102180404986
30.3052989876298895 -8.6631657275623049 9.0604601476077491
30.3761874218077530 -8.8854793974455717 9.1230388593441880
30.4424695136380485 -9.1015149707974778 9.1920236481933006
30.5040102788086820 -9.3122416644033628 9.2675626399571591
30.5603535777502344 -9.5179713901637548 9.3497089209984239
30.6110450794336728 -9.7184771035444548 9.4384060570127950
30.6559669332940885 -9.9132663963159544 9.5334665608329150
30.6954378220915878 -10.1019581681876964 9.6345992910099714
30.7300084112377192 -10.2845157410249186 9.7414726565369278
30.7601984676021551 -10.4612260765881047 9.8538092993289048
30.7863721062821725 -10.6326051762408049 9.9715625496052915
30.8086660475570540 -10.7994405251501817 10.0951745694257795
30.8269180878281155 -10.9629905376753278 10.2258401902587188
30.8407629720217713 -11.1251940411001904 10.3656409535429521
30.8499348153878188 -11.2883796080197385 10.5170982617328228
30.8544636653655253 -11.4536867905329522 10.6814678209685905
30.8545151548454157 -11.6187981281883168 10.8564226437800695
30.8500853746646300 -11.7780066093764120 11.0360118522005450
30.8408874122488292 -11.9260728614431031 11.2142695243974480
30.8264429000300986 -12.0618635120007802 11.3887753809009329
30.8061319881733127 -12.1878284226963096 11.5606020817689092
30.7790528378097505 -12.3070936895673135 11.7321958062931273
30.7438637103083714 -12.4217983414430115 11.9058882233074641
30.6989537559303152 -12.5334713353898302 12.0831326927900520
30.6431037211235555 -12.6438849547650705 12.2635721440258454
30.5763009922219311 -12.7550437661337916 12.4443820346843452
30.4999824232935239 -12.8686721068343957 12.6210737287779722
30.4161834162225908 -12.9863218254554589 12.7896605664381759
30.3261771833734386 -13.1099789494473420 12.9486397277097307
30.2300287457251251 -13.2420940749482625 13.0992685906273536
30.1279629499418427 -13.3846897656532207 13.2438507154783451
30.0226172765110633 -13.5381943846827291 13.3834691573197464
29.9197519674859862 -13.7011057448712634 13.5174491627163178
29.8263797480750270 -13.8710079194699567 13.6452533670413079
29.7481351205730462 -14.0460926501243115 13.7686911313749771
29.6880260040299397 -14.2260428134115315 13.8922052893708692
29.6471873611175241 -14.4112687131886261 14.0208669952565703
29.6266729278502581 -14.6002743677064117 14.1570372624954768
29.6286613264064336 -14.7875785066009087 14.2980875155932079
29.6557831889059571 -14.9658768386321874 14.4379615428147314
29.7087002895760186 -15.1312250865801090 14.5714915837517172
29.7840020167231394 -15.2853047124191370 14.6966868531566170
29.8744813195078649 -15.4335601957364084 14.8137310133597602
29.9713648845346015 -15.5825427752478518 14.9232577509109063
30.0665181840008628 -15.7382931682931861 15.0260675984296412
30.1534254120022496 -15.9054103176797845 15.1242901130405230
30.2268435778832227 -16.0865598819599889 15.2219253578653486
30.2816308264535863 -16.2823190187251754 15.3226318985697745
30.3120380484759551 -16.4909947484992081 15.4258573011299909
30.3127549471660238 -16.7088141287470080 15.5255236437751609
30.2815685456857473 -16.9312118227841175 15.6138361542009001
30.2222457285593720 -17.1540475665046763 15.6876462539817521
30.1459667008711989 -17.3736968721935341 15.7525080888634239
30.0694874273697792 -17.5867987237946615 15.8219044910327220
30.0098069195831485 -17.7898014692816702 15.9119477900519612
29.9778429716178181 -17.9783970227302774 16.0335663374957278
29.9750557482276498 -18.1486615645752423 16.1874636811726980
29.9951836107573264 -18.2996963721796959 16.3663632279133502
30.0286052678047355 -18.4342667459826899 16.5611741773668975
30.0652753851665437 -18.5569700016095780 16.7645777036196755
30.0958498821983191 -18.6721257305186370 16.9704442557166750
30.1128479605473274 -18.7829092652338012 17.1728893198240833
30.1119534070435506 -18.8917444380757757 17.3677983084815430
30.0921457881500842 -19.0009479300740942 17.5550325440602037
30.0545090902580938 -19.1126024696591905 17.7376897216170484
30.0010306030612846 -19.2280057239427400 17.9191229696612879
29.9342499581944672 -19.3474181789675654 18.1009906023313114
29.8573412253384021 -19.4700576166102124 18.2833848808291748
29.7736403019053668 -19.5941173468227632 18.4657340762624820
29.6854935488745326 -19.7173377794538744 18.6473438105392333
29.5933778629204980 -19.8383570043253705 18.8276050450268073
29.4960968799675847 -19.9575229680805535 19.0061410379113340
29.3920858608075548 -20.0762596076392299 19.1825673388855513
29.2806491343764037 -20.1958089574193735 19.3561756762445256
29.1620191453489710 -20.3164723214226868 19.5261927871621204
29.0367506824263195 -20.4376818560388891 19.6920128247324762
28.9052437792276997 -20.5589639332039766 19.8530769033234620
28.7678706756563187 -20.6806602559453552 20.0088346134625965
28.6255836186321986 -20.8035688176139146 20.1590714443479300
28.4800777576686563 -20.9283293010292937 20.3040472297336798
28.3325828374527120 -21.0556893783929695 20.4439055027771843
28.1821862690835623 -21.1869259855741561 20.5776135977720429
28.0256391215276537 -21.3230488214805547 20.7017910953865538
27.8587281944523006 -21.4637691638167780 20.8106729902648091
27.6785025805559783 -21.6076375685062558 20.8981089492480585
27.4857501401276636 -21.7525289399134820 20.9597861327494037
27.2847066790068595 -21.8964105732153271 20.9941853273326515
27.0795720739491195 -22.0382820487818094 21.0022662984501842
26.8724741190826499 -22.1781413992664795 20.9862591278037485
26.6646979517888276 -22.3159407560477447 20.9486479872582088
26.4580082889327564 -22.4507816664495294 20.8921322986774989
26.2543993131111861 -22.5811577790961167 20.8201424137928512
26.0560613355763806 -22.7055648684407529 20.7368409418587056
25.8651684178439254 -22.8230617894828995 20.6455209716308588
25.6827271318094006 -22.9338198472809793 20.5464513461270961
25.5081690593768897 -23.0396312966004544 20.4374658104750608
25.3394551739505651 -23.1441094476738556 20.3181674639401209
25.1722440840806740 -23.2518965612804251 20.1933733828618358
25.0000734170992196 -23.3666747345597301 20.0728452546853973
24.8174668979405553 -23.4892900022710833 19.9685777934951467
24.6229149212041882 -23.6182426045889073 19.8904851064357260
24.4189266473239002 -23.7519665195435294 19.8421445250508199
24.2094820870089791 -23.8904850582973367 19.8194557791443984
23.9974383114921714 -24.0348078098858409 19.8138356691180597
23.7843501403040349 -24.1846696057633324 19.8179140246017980
23.5720403993745791 -24.3373149529396500 19.8290227706279474
23.3629365086499234 -24.4890191310654188 19.8477550497642419
23.1587530356647022 -24.6374307959276777 19.8734511375412808
22.9596100643921019 -24.7820804880505676 19.9006034425009126
22.7644764224798486 -24.9230908840035283 19.9186972978923471
22.5727973181678294 -25.0600364698840039 19.9152416529150429
22.3864951439287729 -25.1915004852066886 19.8798977413848199
22.2098006956134597 -25.3152497533505709 19.8071355093603714
22.0462105794645993 -25.4293095869137602 19.6964098572316786
21.8968924496428485 -25.5323894572095256 19.5514207766935115
21.7626291579149012 -25.6230526287505782 19.3795523518230901
21.6454153975706554 -25.6991792919124435 19.1904566001852075
21.5470842641787392 -25.7590406681333874 18.9932378872651100
21.4670806488039574 -25.8031236718522479 18.7932083220853841
21.4020144224527975 -25.8342882243652667 18.5907473643443950
21.3471668573002624 -25.8558898058141011 18.3837983764208666
21.2988594666067179 -25.8698234607563791 18.1719999660278759
21.2560911288411951 -25.8760937075024273 17.9573680900157377
21.2199778388887736 -25.8736047461388310 17.7398233769228284
21.1916077524907713 -25.8609942643135682 17.5142608102610637
21.1705320254918057 -25.8371632421439443 17.2748334420332554
21.1552509369054000 -25.8017434521407125 17.0222659335744630
21.1445979362174192 -25.7553362557280394 16.7647201860201029
21.1379135474720208 -25.6994978986430382 16.5116396192819366
21.1338127515959968 -25.6369022049414284 16.2691760195803710
21.1295676516950550 -25.5711943644707844 16.0398522016631340
21.1221987217552218 -25.5056315030255760 15.8230770305327386
21.1100941170593757 -25.4414634256252370 15.6155413753534749
21.0934498788363314 -25.3778766928995694 15.4138022209160432
21.0733214542536906 -25.3128601118022232 15.2159498351770370
21.0504051994352146 -25.2442052432145019 15.0205572199638926
21.0241127220026698 -25.1707174673985037 14.8261242828413522
20.9919116030196129 -25.0927347793374338 14.6315710041197775
20.9497062151833653 -25.0110561266609395 14.4354608116258252
20.8940075320736547 -24.9255527878413972 14.2358406771733268
20.8246205162881211 -24.8351440621314126 14.0326351560688263
20.7452847985952076 -24.7388099151392993 13.8295123526292034
20.6615830848627198 -24.6363250114128647 13.6325400946498476
20.5780667523100149 -24.5281548099100704 13.4472097656278216
20.4966250018532783 -24.4145434669034032 13.2761048639590058
20.4167092639437442 -24.2944393427386558 13.1181206148754423
20.3370138888996870 -24.1658076545555218 12.9701589423214152
20.2573122200557947 -24.0273967188633648 12.8307620363276964
20.1786444591669962 -23.8789625299987378 12.7024830941272704
20.1016854899467354 -23.7183898804485622 12.5905254588735165
20.0258366665004282 -23.5400798585682054 12.4997860128273679
19.9504168413013971 -23.3384707962346951 12.4327869976162564
19.8762311413961861 -23.1134241211672489 12.3885773044190834
19.8055159711514364 -22.8710385222240973 12.3627142387141475
19.7407904267725627 -22.6196342092939275 12.3491839473740370
19.6839843850061449 -22.3658342624189359 12.3430038249382150
19.6362367563773716 -22.1134556911255444 12.3414433118871365
19.5980774274745606 -21.8643593737027260 12.3435000894308828
19.5695263147056835 -21.6196879352442863 12.3485993102813509
19.5498754249469506 -21.3803459765555033 12.3556037167308048
19.5376242961785529 -21.1462853467996439 12.3628541052871519
19.5311326705597885 -20.9154686574036717 12.3691507499334516
19.5295109741111119 -20.6840440140489363 12.3744796093535108
19.5327943068114998 -20.4479904201085141 12.3794438367165895
19.5413014048780624 -20.2045921740416254 12.3840955665457351
19.5548637570645489 -19.9531103851438836 12.3875944398318119
19.5723527206306400 -19.6966017624249830 12.3887561637947563
19.5916387216425996 -19.4428343903541716 12.3865232955059081
19.6101684660066518 -19.1993072494353143 12.3801416601325709
19.6257672862530086 -18.9682426330675185 12.3692402078411536
19.6371119484326293 -18.7470188368776789 12.3537429761439554
19.6435160498481487 -18.5311308970731332 12.3336398398446434
19.6442022916657884 -18.3159992471518613 12.3087328594899876
19.6378209953151277 -18.0979843548446162 12.2785948882850207
19.6226717216066469 -17.8757831479353193 12.2429664148122139
19.5972630935629439 -17.6511767483970274 12.2021376897508134
19.5605819085850712 -17.4278688612887436 12.1566701147087866
19.5119523978171081 -17.2093809039864780 12.1066802859153704
19.4508430094516882 -16.9975952057448687 12.0514405289582722
19.3769247371694853 -16.7925718893117768 11.9896587750989543
19.2903256439933450 -16.5933266831335047 11.9200430984342365
19.1918360709505507 -16.3987933195467086 11.8415889486300223
19.0830411481473909 -16.2085309463800016 11.7536807979655684
18.9665289042100333 -16.0231065180058749 11.6564354242060197
18.8460234441966286 -15.8439653625188299 11.5511603331053134
18.7258593776415658 -15.6724154950872148 11.4401761826819452
18.6095948678965861 -15.5081695745725661 11.3256244983724557
18.4988279726056639 -15.3489724670514107 11.2083353429832808
18.3934343013672468 -15.1918056109260178 11.0880609009320885
18.2926141374771625 -15.0341419934236527 10.9645658344584866
18.1955690090294127 -14.8740949647002090 10.8381932287090468
18.1017302777861815 -14.7099766971319639 10.7096245517935706
18.0108805939049859 -14.5401923789735861 10.5795151846837978
17.9232020885215135 -14.3635430798341446 10.4484853044910402
17.8391576203074180 -14.1793884120945251 10.3173490073008800
17.7592589714536437 -13.9874136046399933 10.1872059974183458
17.6838640666405453 -13.7872734663016487 10.0592431716895057
17.6131624719437454 -13.5784517231618160 9.9345117171773136
17.5473346857949579 -13.3603981077256186 9.8141506970274257
17.4865866330059276 -13.1327883713437714 9.6998736298946113
17.4309117155196311 -12.8957911429625298 9.5938680608358737
17.3800140836802335 -12.6505402816676380 9.4979887375379768
17.3337313516252394 -12.4000976851599951 9.4131631960242146
17.2924667654852477 -12.1501532362739191 9.3394650492414950
17.2569349244561963 -11.9075179476185653 9.2763604898829168
17.2273494674686702 -11.6760886910285109 9.2226774256791160
17.2029653937568128 -11.4538408554843514 9.1765842924419374
17.1824343210136661 -11.2343227334915987 9.1360315353258219
17.1643436143887946 -11.0112263652376292 9.0994198448369588
17.1473426647643308 -10.7826417369712786 9.0660376550181088
17.1300512097259485 -10.5523402183547717 9.0360306828596375
17.1111119247390491 -10.3264099546200505 9.0098377705740820
17.0893438196745535 -10.1075342368283572 8.9874776660128486
17.0637813234865519 -9.8921008042017817 8.9683189135296608
17.0335031304212201 -9.6707203591836866 8.9513010633542027
16.9974982259198200 -9.4302819058890854 8.9352299463523615
16.9550717951127012 -9.1584345391593516 8.9190960802793988
16.9067625594974231 -8.8504215266863966 8.9024480883473522
16.8547261127549959 -8.5124798083705997 8.8855359077790279
16.8018532064898736 -8.1573260017320237 8.8690049149625594
16.7505202596087379 -7.7967679907606495 8.8534512996401276
16.7020643764896093 -7.4380464404059659 8.8392109491487290
16.6569883873736728 -7.0843687757642826 8.8263926424483401
16.6153576333754316 -6.7367610675478247 8.8149841192333582
16.5770689665594730 -6.3954003211870898 8.8049267830647615
16.5419690477906869 -6.0602104260479202 8.7961484878927312
16.5098926373707755 -5.7310555990051490 8.7885739660664619
16.4806722106108268 -5.4077887259463679 8.7821273737676915
16.4541398838081854 -5.0902609416127618 8.7767327812891853
16.4301277268381050 -4.7783231594030191 8.7723142485713659
16.4084678046260066 -4.4718262698251543 8.7687958345518471
16.3889921816626192 -4.1706211614579196 8.7661015980914065
16.3715329224073614 -3.8745587227486933 8.7641555980463295
16.3559220913178187 -3.5834898421377286 8.7628818932727057
16.3419917528514986 -3.2972654080649786 8.7622045426266304
16.3295739714658907 -3.0157363089703964 8.7620476049641880
16.3185008116184918 -2.7387534332939243 8.7623351391414808
16.3086043377668020 -2.4661676694755101 8.7629912040145932
16.2997166143683074 -2.1978299059550963 8.7639398584396204
16.2916697058805084 -1.9335910311726323 8.7651051612726505
16.2842956767608946 -1.6733019335680588 8.7664111713697785
16.2774265914669698 -1.4168135015813306 8.7677819475870962
16.2708945144562236 -1.1639766236523847 8.7691415487806950
16.2645315101861563 -0.9146421882211708 8.7704140338066665
16.2581696431142575 -0.6686610837276383 8.7715234615211060
16.2516409776978605 -0.4258841986118256 8.7723938907802079
16.2447775783917976 -0.1861624213151565 8.7729493804417835
16.2374115096170151 0.0506533597019949 8.7731139893855907
16.2293748354100202 0.2847122557644806 8.7728117767416194
16.2204996161418613 0.5161633761466771 8.7719668040375787
16.2106178827026284 0.7451558135925946 8.7705031521853982
16.1995614658216240 0.9718385481213065 8.7683450344154235
16.1871610508598884 1.1963599095800337 8.7654174253385477
16.1732418225680910 1.4188650609080362 8.7616489762745786
16.1576069578345454 1.6394861737672493 8.7569831181314672
16.1399871201911580 1.8583107013770057 8.7514120623081322
16.1199196933531610 2.0752975239886737 8.7450570874142741
16.0965369388697859 2.2900988550295871 8.7383006161548291
16.0683352643433182 2.5017692407497893 8.7318826503671580
16.0331360236660743 2.7084525500626420 8.7267078410827654
15.9884155868267239 2.9073629521812769 8.7230608427074117
15.9318265737082090 3.0955715536188642 8.7193312609232514
15.8615201051739803 3.2717336146757070 8.7111642542090806
15.7764288949462177 3.4375527493060645 8.6922761574838159
15.6770608082589433 3.5970707099681878 8.6570540441522112
15.5662264422876575 3.7541921092662989 8.6032689952053047
15.4484544110132784 3.9112299769513106 8.5329678577224168
15.3284937826454097 4.0692083420278067 8.4512949926888847
15.2100735200808277 4.2287936071841958 8.3644586644618233
15.0953449619334528 4.3910020053208667 8.2779407200138877
14.9848558343705687 4.5574639753926247 8.1954078132752919
14.8780673489839366 4.7301327207593404 8.1187334480620628
14.7743083920317027 4.9103363718763768 8.0489602564071490
14.6734935583991319 5.0978836789166184 7.9872401787317031
14.5760809805625833 5.2912501518253965 7.9349918076575463
14.4825606019921977 5.4887040721387272 7.8934714448040131
14.3931898254976005 5.6890361622560643 7.8634693209187718
14.3082639532866533 5.8912363624921511 7.8454517320075663
14.2283728699845202 6.0942096555579592 7.8398664507811606
14.1542280370575586 6.2973129470846549 7.8473268323172292
14.0863631006337240 6.5009075737523956 7.8686055181988781
14.0251288484644281 6.7058382303274007 7.9043835838126455
13.9709751993130311 6.9119330643278900 7.9548008580504828
13.9246002883011109 7.1171976511754380 8.0191183715260799
13.8867119757257402 7.3188810460993752 8.0958080993764341
13.8576827301766539 7.5152106070374050 8.1829954850779423
13.8373632989912227 7.7062418584168393 8.2789373478091228
13.8250043019502389 7.8936020840876973 8.3822002766378638
13.8192259474638544 8.0795198567990791 8.4912978685254963
13.8180735985341734 8.2656463458134368 8.6039599246916350
13.8190931923682072 8.4525922685720349 8.7167831715029926
13.8192610411339452 8.6406158796009436 8.8255990499043229
13.8147975836225427 8.8303434897332238 8.9257914282478872
13.8012586028624664 9.0224209394701838 9.0120991861106745
13.7742414553507277 9.2166014674755878 9.0787810837634080
13.7305576236996316 9.4113784117270853 9.1208737526904820
13.6692128659441536 9.6043453602157687 9.1356722096702718
13.5915920273675699 9.7930123653572210 9.1233090660666623
13.5008818555651064 9.9756994909674575 9.0863732235184358
13.4012291535090853 10.1519878476036993 9.0291243305600002
13.2968892642049621 10.3227881671634645 8.9566022338355928
13.1914229656618343 10.4902706693251062 8.8737742079032671
13.0871151532116858 10.6575853168860935 8.7849219726862700
12.9849648821939851 10.8281883193855268 8.6933989094102948
12.8854230259587492 11.0046870465739453 8.6019084342094221
12.7892430837206295 11.1879388437486185 8.5130038999492754
12.6976204893820466 11.3774028256040491 8.4291586082365093
12.6116414486736321 11.5725136317207884 8.3524240366833524
12.5317752460842282 11.7734681088891513 8.2842100901081501
12.4580126798590172 11.9803956026038030 8.2253886592940777
12.3903486504532747 12.1920704176084556 8.1765177379276555
12.3287509623642322 12.4061112890289280 8.1379282880536827
12.2726245950678425 12.6208170499735548 8.1095833038666427
12.2208641397305957 12.8362493079738478 8.0910018666166597
12.1729588536819957 13.0529527536830940 8.0814600951865465
12.1300140655990045 13.2704812831694561 8.0801977660435078
12.0943442325396990 13.4880954733682703 8.0865189450604440
12.0679121406390486 13.7064825389303273 8.1000155684465494
12.0511409840238279 13.9282894552704448 8.1208400867464636
12.0430307151373892 14.1570039539006132 8.1496132019452965
12.0421063648633346 14.3948379690534622 8.1866983347330056
12.0470225317555553 14.6399955035247409 8.2310493711006316
12.0562558065710146 14.8849007496749657 8.2795060914638530
12.0674048019284150 15.1189816006213249 8.3275786037246675
12.0765904714360932 15.3349992776988113 8.3712471333200540
12.0779580088886096 15.5323077720616940 8.4080009691294890
12.0636380466146402 15.7152868746210785 8.4368672924929271
12.0248405401861902 15.8890088598754815 8.4580446119177957
11.9543954785809365 16.0547052842784694 8.4722403893939902
11.8497890331721774 16.2091795134353589 8.4800369940181746
11.7145126921226446 16.3491271862908754 8.4817736023617485
11.5564618449053249 16.4753426139979098 8.4778693496869053
11.3846756074402595 16.5926615027060151 8.4692115865008031
11.2067702998936820 16.7071969985467277 8.4572086131042887
11.0281161420651479 16.8241704377293644 8.4434490605327017
10.8521888197390428 16.9472213032386385 8.4293589943666802
10.6811964126387888 17.0784292274547553 8.4161588982451896
10.5165255671784639 17.2184223281089288 8.4049871046323350
10.3587377304128605 17.3667738614318026 8.3970106064082479
10.2076128639926544 17.5226647168111462 8.3934980187200630
10.0627100845630331 17.6852603487124966 8.3957971270827887
9.9238594374365263 17.8537251608024086 8.4052421505917749
9.7912434824446350 18.0270916364691693 8.4230286136085084
9.6653078307195983 18.2042348639389147 8.4500318682046114
9.5465259488320129 18.3841360463685319 8.4865865298381706
9.4351716010173945 18.5659658125092797 8.5322877054742712
9.3310664376270793 18.7489668598759422 8.5859654400987804
9.2331956449018655 18.9325630638848175 8.6458631143534745
9.1394296289054431 19.1163385498911147 8.7096584300492754
9.0464626231841514 19.2995706898575285 8.7741680789809777
8.9499441757506428 19.4805323922916074 8.8351550360652595
8.8447455523433387 19.6556378672348337 8.8874976978562152
8.7254841359653526 19.8189865977624855 8.9258673477773289
8.5877482956655200 19.9633613569054589 8.9460965097445619
8.4297628235114335 20.0828864615421452 8.9468236351158410
8.2533441976342345 20.1760327063662999 8.9303753048055192
8.0632726890204367 20.2469253479841527 8.9022314293934919
7.8654392329711822 20.3040546262587220 8.8692483989997797
