BEGIN_0
3.4011129101133193 29.2566007965274473 6.5204575697715050
3.6057619625170596 29.2061292071132357 6.5106610325800833
3.8086290025342189 29.1546124224025185 6.5174273906508446
4.0091964053321565 29.1022624139643717 6.5430157184704729
4.2066245356724803 29.0486208038435727 6.5882406511097553
4.3996018718993817 28.9932620127943359 6.6517491673882567
4.5872201002602875 28.9358743048679301 6.7298749195528593
4.7701037055045745 28.8761814106504033 6.8167862145368945
4.9505373409383608 28.8142780529067082 6.9048623268601279
5.1314554008264199 28.7513279379156579 6.9851605019288368
5.3151757075138892 28.6899326219658590 7.0476940312821377
5.5024732318134912 28.6335695882295234 7.0823181742666721
5.6922597212391501 28.5852419461902834 7.0811874647893536
5.8818697180774695 28.5461310659509024 7.0415394182433202
6.0680469291596655 28.5149557546760555 6.9661804495478892
6.2485083913100663 28.4883377800285693 6.8613015085031481
6.4229786847743009 28.4622430812074185 6.7339594769642979
6.5927100048100860 28.4341207712872723 6.5909698890917738
6.7591467745769380 28.4043774771851503 6.4387502274116315
6.9229166763176506 28.3757047131403795 6.2832031257851817
7.0837985140350446 28.3505957490015916 6.1292242593359365
7.2416689363464144 28.3291512330794539 5.9798840029772204
7.3974327493760788 28.3089109075696896 5.8361112326455036
7.5528457880342525 28.2863091160100346 5.6975749813543253
7.7096548837858183 28.2580875728178711 5.5639867434536256
7.8690632203555646 28.2217780213605494 5.4357618027330190
8.0317486931499147 28.1755269761218763 5.3139636779151953
8.1980966551242282 28.1178023875337040 5.2000106079417350
8.3683903246619593 28.0472510530546089 5.0954547968512554
8.5429283169077213 27.9627902293614028 5.0018700156857356
8.7221219353356734 27.8640380696281440 4.9207831394436568
8.9065677098383329 27.7521864529314151 4.8536028830009617
9.0969444334097762 27.6310572165295447 4.8015630904039295
9.2935060506197757 27.5073391900822131 4.7657638285081934
9.4952418754577597 27.3888379087236657 4.7473497880321176
9.6993906350055390 27.2812022455322207 4.7476427566871333
9.9020414484399772 27.1857409420588603 4.7679271610403831
10.0995919558225999 27.1001809986798250 4.8089564640307252
10.2900627948021572 27.0210590959191173 4.8706678705772202
10.4734764934362374 26.9454616664833964 4.9522758166228478
10.6510458398706067 26.8715448071649341 5.0523602844065536
10.8236347563920106 26.7985019898552679 5.1686983288478778
10.9908860221164844 26.7262760033992564 5.2980692420467363
11.1519771797090481 26.6549678333809617 5.4363322780034835
11.3070774650320853 26.5843032187150570 5.5788688462981710
11.4581285565456401 26.5135273222781507 5.7210595769802826
11.6085798766093955 26.4416917375146205 5.8581639441044846
11.7624123767896052 26.3681236547495530 5.9845108185451714
11.9229757281133413 26.2928400012683987 6.0928033185873662
12.0920923923148571 26.2167147996901591 6.1745935449700138
12.2696095755333978 26.1412923670728503 6.2223116837387842
12.4536086938886079 26.0681847342026884 6.2319124865457241
12.6413290245391146 25.9983800612014626 6.2041272319579406
12.8301891987659840 25.9319740829822756 6.1434780746713624
13.0179444012960666 25.8684788751712453 6.0563438527137059
13.2022353532625072 25.8073587286520088 5.9496228609023021
13.3808626092394789 25.7483686965433733 5.8298974190097361
13.5531247025425454 25.6914952537731835 5.7024019779630635
13.7206665797067355 25.6366718127193707 5.5702806444870649
13.8865411509403298 25.5835403468787490 5.4349985029576331
14.0534616443158935 25.5311690392018313 5.2974211276029006
14.2228262080039247 25.4777821010548280 5.1585624895239626
14.3948491268894969 25.4208786756363807 5.0197621593013153
14.5691760167941151 25.3577549362501742 4.8825998349778406
14.7453728174743439 25.2859802232252200 4.7487917296302644
14.9231041431668174 25.2035456376751057 4.6201270539746613
15.1020899275773708 25.1088126001558827 4.4984371199962077
15.2819288178254453 25.0005441157937760 4.3855901712392242
15.4617936018717597 24.8782382192893081 4.2834994658826844
15.6400917244461155 24.7427770166448724 4.1940883621838676
15.8145338080254501 24.5969465497899691 4.1190888300197948
15.9831891911815092 24.4449614610130510 4.0595969897180133
16.1461260139176872 24.2907277714735592 4.0156301413086659
16.3057425834783416 24.1361785591445681 3.9862231162459274
16.4647337386544699 23.9812398767329462 3.9701825075430026
16.6236725743838605 23.8250646509362554 3.9668344932037751
16.7805941423887930 23.6672010497886589 3.9762267674259970
16.9324561605820989 23.5078739096544993 3.9989192373415339
17.0768265793815672 23.3473864924286758 4.0356699612354117
17.2128280117623866 23.1852714192211167 4.0871186765069822
17.3411699105871264 23.0200502717954976 4.1536050248017471
17.4633178168931629 22.8502922215365771 4.2352037732839012
17.5801693366822214 22.6764096649000280 4.3317535816264314
17.6912207701538833 22.5012265647829928 4.4428035531784928
17.7948913337355741 22.3283672215816971 4.5676536644838741
17.8893330717855576 22.1602216342589458 4.7052104322916364
17.9730205881744247 21.9973255240722878 4.8535157531122106
18.0452001556797477 21.8390505731231883 5.0093963953766636
18.1063417269813876 21.6845497508595315 5.1687950581579489
18.1582352858272635 21.5331674488624714 5.3279415188901638
18.2033941606151544 21.3841483768955847 5.4846852024253021
18.2442511040123918 21.2360940609929010 5.6388733747643371
18.2829106377493993 21.0868186370252708 5.7914356587963987
18.3214841234493235 20.9340174495581550 5.9427206245911268
18.3624427495354077 20.7764661726742972 6.0910080721223494
18.4086742612009822 20.6145314554933989 6.2323600384904108
18.4633410712466777 20.4492232308960169 6.3619803090865332
18.5295916525772810 20.2810678314343704 6.4755097129289148
18.6099870014123923 20.1104227685892241 6.5692148263873911
18.7057355554478804 19.9388017867135545 6.6396857719857838
18.8163386716328951 19.7691941593955960 6.6840440931946414
18.9400057562791062 19.6045876499126841 6.7007059516902157
19.0741334023155886 19.4463758932982138 6.6899593288271468
19.2152580156336121 19.2941281604648509 6.6539995991178795
19.3591883215568039 19.1462129636279847 6.5965018929952546
19.5020720266109535 19.0002666162087408 6.5218845801469758
19.6414973046510681 18.8535895033143994 6.4347388058455568
19.7762815642093699 18.7040191892676759 6.3398232418976654
19.9054818529225308 18.5508094850693865 6.2419974395714295
20.0280128641686552 18.3944994130708537 6.1455240611543438
20.1433249892673381 18.2357095064428947 6.0532581698156793
20.2522480484498253 18.0740594235646341 5.9665080825949275
20.3568864872267667 17.9081396148834031 5.8855696674428870
20.4595935741092489 17.7360891846831983 5.8104468615698259
20.5619700974581860 17.5561688316256799 5.7415767004346687
20.6645508339479420 17.3673054055742853 5.6802696623743554
20.7670468433683162 17.1696885221920184 5.6284197608337116
20.8685983211559005 16.9651680487793897 5.5876737873318412
20.9678105978443377 16.7570104331940115 5.5588410174037968
21.0630611319718462 16.5486601838020277 5.5418906736736862
21.1533821812718621 16.3419019748993826 5.5362988938621314
21.2389136309470672 16.1362107541401407 5.5414449157192145
21.3200874967281173 15.9302819102361930 5.5568669581146288
21.3968073911015786 15.7235535710673489 5.5823651577915729
21.4687671942351841 15.5158720097898382 5.6180527492432120
21.5358823591684150 15.3068910437560639 5.6642498637538434
21.5978496252210803 15.0968234581996494 5.7210375467858441
21.6536439359940154 14.8872599133400669 5.7877551569502543
21.7019941593945092 14.6803515970351235 5.8630481492126236
21.7424161682218653 14.4772018316074131 5.9454895952597031
21.7757507562828287 14.2771843239407428 6.0341068801635895
21.8038407415118840 14.0787016304167452 6.1281598898949809
21.8288113713229812 13.8805997783687900 6.2262925623244580
21.8527282047259561 13.6828025040477606 6.3259813810903900
21.8779873433726344 13.4856626469724556 6.4238309874809918
21.9078360553685378 13.2893521541077089 6.5159877119898848
21.9462459703386550 13.0942356972459866 6.5979613695942394
21.9971216951917086 12.9013012974317682 6.6644094738339685
22.0631583233227495 12.7116825661730779 6.7097031440310726
22.1447419861426162 12.5260664744596433 6.7291052985145416
22.2396218893222866 12.3447925368429967 6.7198604438594511
22.3438851945282799 12.1681199851561299 6.6817022400913135
22.4536869656925866 11.9962684244221940 6.6167786227926619
22.5663780297449570 11.8294981565036181 6.5292893964727963
22.6804306735710028 11.6680354195635232 6.4248454922799283
22.7948570577526759 11.5114521849244102 6.3093495825638275
22.9088791900804161 11.3578747577014632 6.1878003902892793
23.0217673327820442 11.2041934102637875 6.0639462522333787
23.1325256747911858 11.0476440063255179 5.9409908096235302
23.2397253358842839 10.8872731601720556 5.8223227452766473
23.3419335122461717 10.7237249817265283 5.7113608061167707
23.4386056100745641 10.5575709932199491 5.6105709070539405
23.5305671902214577 10.3878872387017527 5.5207571084894109
23.6194055938288123 10.2123444451206442 5.4415593604442698
23.7063512908952063 10.0282836554826851 5.3725486072362010
23.7916801586198403 9.8336536244190285 5.3138682945661433
23.8748942740060741 9.6273857753166361 5.2662310822277405
23.9551721953449501 9.4094317270078403 5.2306413629158648
24.0315057527699203 9.1808336282013805 5.2080983432524501
24.1024785958668701 8.9439953069875262 5.1993338287553446
24.1662393703133347 8.7028353615791332 5.2045963283611698
24.2209797232642039 8.4622098232610696 5.2235359866454569
24.2655252325137845 8.2266214839843297 5.2552854831764559
24.2996101518363332 7.9991310624386696 5.2987052284522953
24.3237940074457768 7.7812029489929868 5.3525801640114530
24.3391422035868494 7.5732834258746342 5.4156453458336102
24.3468126997719096 7.3753627304801412 5.4865922869928045
24.3476819787644523 7.1868021616522970 5.5643712566691939
24.3420689179082572 7.0052961863565057 5.6488898117160247
24.3296629565487699 6.8262349070059427 5.7414705586089170
24.3098064957898572 6.6443996439050448 5.8439912486365380
24.2820101733403071 6.4573299240981159 5.9569645482939748
24.2462966609613773 6.2666839672702412 6.0785433251603269
24.2031741736624539 6.0762909312680966 6.2052626413860335
24.1534800225946356 5.8894191196897578 6.3331950358672717
24.0984452351811598 5.7072257466817096 6.4584541498620869
24.0400841301325414 5.5279434842037514 6.5773314960006424
23.9818400352851313 5.3459919727167877 6.6866122035064208
23.9294022593892528 5.1519308916281785 6.7841135943886597
23.8911336842026216 4.9358595313784264 6.8691165975719324
23.8766118944468388 4.6951288187787341 6.9423525600315976
23.8926103016741713 4.4405139283454407 7.0055600374921605
23.9391310522650045 4.1915555504526614 7.0609074742269406
24.0097296778025324 3.9629668461540390 7.1105920835171297
24.0960660310708334 3.7568867882799495 7.1566313770474590
24.1919309050263820 3.5668339259381590 7.2006453188809187
24.2940895484813524 3.3852245380351214 7.2436942032330727
24.4012155127007659 3.2071200225699013 7.2863231003423445
24.5127765695148874 3.0301624003135501 7.3287480289560998
24.6284721115758423 2.8533744922063349 7.3710310307301912
24.7480489138174029 2.6763000699713082 7.4131792588594205
24.8712599088950910 2.4986328137258838 7.4551845676660866
24.9978582536063456 2.3201005320930808 7.4970354217944326
25.1275969966952175 2.1404373032474773 7.5387196835614310
25.2602291566158037 1.9593781447192260 7.5802251292952638
25.3955077473403037 1.7766581893717692 7.6215395255270595
25.5331857824205208 1.5920125816724617 7.6626506379146981
25.6730162753873223 1.4051764670410467 7.7035462320580770
25.8147522397721083 1.2158849909604275 7.7442140735546348
25.9581466891065276 1.0238732989168327 7.7846419280017880
26.1029526369222218 0.8288765363966419 7.8248175609969621
26.2489230967508469 0.6306298488862243 7.8647287381375826
26.3958110821240624 0.4288683818719505 7.9043632250210738
26.5433696065735205 0.2233272808402020 7.9437087872448631
26.6913516836308737 0.0137416912773443 7.9827531904063731
26.8395103268277850 -0.2001532413302343 8.0214842001030320
26.9875985496959068 -0.4186223714961681 8.0598895819322660
27.1353693657668877 -0.6419305537340918 8.0979571014915006
27.2825757885723910 -0.8703426425576151 8.1356745243781603
27.4289708316440617 -1.1041234924803760 8.1730296161896714
27.5743075085135629 -1.3435379580159914 8.2100101425234584
27.7183388327125826 -1.5888508936780763 8.2466038689769547
27.8608178177733379 -1.8403271539799899 8.2827985611477146
28.0014974772362244 -2.0982315934312421 8.3185819846351272
28.1401308247455120 -2.3628290664926510 8.3539419050617276
28.2764708750540485 -2.6343844271072427 8.3888660882951918
28.4102706528870854 -2.9131625245638695 8.4233423023914327
28.5412832587478675 -3.1994281726469147 8.4573583319071144
28.6692622793676648 -3.4934459545833025 8.4909020664967407
28.7939639280560087 -3.7954791761237310 8.5239619597936134
28.9151562899990680 -4.1057850900154573 8.5565290019166031
29.0326518808548144 -4.4245963640448842 8.5886036616446191
29.1463985520662980 -4.7520598873064550 8.6202154485570173
29.2566699214909640 -5.0880654657822681 8.6514653337053211
29.3643245338525425 -5.4318455617674921 8.6825908960606544
29.4708939291824734 -5.7812290805589868 8.7140208134125476
29.5780711692148728 -6.1316629781732672 8.7463550361822708
29.6864871993986874 -6.4757284525642334 8.7802519031473985
29.7946416326360115 -6.8044254086686813 8.8163306143363815
29.8993340922209292 -7.1106083432666267 8.8552226143883708
29.9975737366860713 -7.3923309006663800 8.8976906170859689
30.0881567719833249 -7.6528885717203678 8.9445830207946528
30.1716292712534049 -7.8977200873222060 8.9966260992287168
30.2492286127208487 -8.1314447785371833 9.0542997522848019
30.3219695918463046 -8.3569661398222443 9.1178931791781910
30.3903283421858212 -8.5759749994702403 9.1876041604262841
30.4542933724076583 -8.7895731416625154 9.2635774840050189
30.5134978349339647 -8.9984463336948899 9.3459101410226779
30.5674140919723456 -9.2027358889703166 9.4346458638919408
30.6156364443457285 -9.4020344424078210 9.5297417855250792
30.6581359367876942 -9.5956952174668828 9.6310401964177679
30.6952738322781506 -9.7832522843134200 9.7382904801143546
30.7275664396361812 -9.9646332472397461 9.8512381935237876
30.7554474528031641 -10.1401101175897423 9.9697854182017576
30.7791393135835207 -10.3101927416907202 10.0941170251543859
30.7985946530988670 -10.4755916632713131 10.2246010410915726
30.8136055412112420 -10.6372220912440625 10.3615109140446506
30.8241251623905654 -10.7961151066533176 10.5048602252203160
30.8304838133916057 -10.9528079048868179 10.6541889060072617
30.8331762133291889 -11.1059936274392186 10.8077517547983213
30.8324280700308684 -11.2519595137051240 10.9620562727919690
30.8279659822055194 -11.3871821937065114 11.1140634992351455
30.8190983093564803 -11.5122927843317058 11.2647113363936064
30.8049375127342842 -11.6318851240902781 11.4184896459208538
30.7845228203239003 -11.7502289624013336 11.5792384524909142
30.7567274414757463 -11.8685608986665621 11.7478585827328210
30.7202193674129838 -11.9860352555362013 11.9232245946209616
30.6737911831360073 -12.1019543499336066 12.1032952597097321
30.6169122914984939 -12.2169541745717041 12.2851452396252796
30.5499758042432248 -12.3326146101717349 12.4650595868986951
30.4740304191539266 -12.4504956371038773 12.6394268423400078
30.3902229051890345 -12.5720159123115245 12.8058363767334864
30.2992897077317771 -12.6991462462389855 12.9636862641230923
30.2015526688199181 -12.8345567867693688 13.1139984533660066
30.0980055502381951 -12.9805667034906165 13.2582853694641454
29.9920822539051990 -13.1377295548523527 13.3970451866598772
29.8900579161651976 -13.3044639949044061 13.5295138360308336
29.7989407404349649 -13.4782214173026880 13.6555032409597494
29.7237980091815430 -13.6571153073542568 13.7774246778197380
29.6669358127227056 -13.8407494200266292 13.9002010027040477
29.6291194708944055 -14.0293147924905881 14.0289217007980600
29.6113925857541815 -14.2208785357699270 14.1654687184370385
29.6160592691719273 -14.4093791556307096 14.3064393852170522
29.6458751372476570 -14.5870721599553299 14.4450410345230509
29.7016062739690732 -14.7500717326248250 14.5757741399414247
29.7799207811178732 -14.9006927856868714 14.6968957990013305
29.8736603295151504 -15.0452480130953781 14.8092927732552351
29.9740502648738882 -15.1908252122093970 14.9144074552288330
30.0728261596889688 -15.3430412514243919 15.0134178573092623
30.1632261564404089 -15.5046862673877932 15.1079043661193477
30.2400482517657423 -15.6757060939242017 15.2006279012013721
30.2990713439241226 -15.8548112551441811 15.2946823573215624
30.3362953022534398 -16.0411284722704828 15.3910240987895168
30.3478615093686663 -16.2340991372264689 15.4864396538777633
30.3310068486200031 -16.4323542562552980 15.5742747488557463
30.2857782311498411 -16.6338709607019553 15.6486436536451059
30.2172636483363988 -16.8367932606786042 15.7094777705140789
30.1368992252686283 -17.0385651921096297 15.7642897817502892
30.0604046425862776 -17.2357690410806192 15.8265212400675868
30.0027368895586761 -17.4248330115558723 15.9113561937375945
29.9729383842925579 -17.6019244082506283 16.0291549256504382
29.9715650327020811 -17.7637638537916622 16.1806535353049803
29.9923030406225664 -17.9095597545740830 16.3586753375891263
30.0258220444159427 -18.0412876951031436 16.5537021651303888
30.0623412538776051 -18.1622740365993742 16.7574864956904221
30.0926978240507808 -18.2759151950412928 16.9632693966821222
30.1095743889041856 -18.3852333947719231 17.1654087494817631
30.1087376848990615 -18.4928951503122967 17.3603612042154190
30.0891277627683458 -18.6013424166671371 17.5481826246888701
30.0517512484062657 -18.7125613130210837 17.7317665299070732
29.9985530250088104 -18.8276849125766503 17.9141799657720462
29.9320568429619129 -18.9468623500972342 18.0968951831223279
29.8554176205991091 -19.0692730667543913 18.2799280142353098
29.7719522060048831 -19.1931140908886348 18.4627008965695971
29.6840049016010141 -19.3161385829590415 18.6445450660027525
29.5920799653496616 -19.4369867223652406 18.8248781962480187
29.4950662488285644 -19.5559778039352885 19.0033247540929118
29.3916153480610056 -19.6744204357423627 19.1793861271473176
29.2815299888194325 -19.7932244861995699 19.3519064676413279
29.1659364434289117 -19.9120117390826366 19.5191606551764210
29.0463462913993027 -20.0293586246153694 19.6795263401227416
28.9233397499346445 -20.1443277264749483 19.8324783418768753
28.7964590414056687 -20.2574343882054251 19.9788056914484784
28.6658286094360761 -20.3698152919808919 20.1195240067063814
28.5329796368175259 -20.4823570208532928 20.2551982080090411
28.3991702886919875 -20.5962635483560774 20.3865050755226349
28.2640843827921273 -20.7132627865116490 20.5136525106647447
28.1259200330760457 -20.8348250299494140 20.6349230884604609
27.9810855002040242 -20.9617849551193061 20.7466875026763446
27.8247403553087871 -21.0941510135049839 20.8442536580037654
27.6536428192051922 -21.2306653072074596 20.9226177041462620
27.4686836802170795 -21.3691818849046768 20.9776750687010676
27.2738681469027178 -21.5082130563893159 21.0074671710824319
27.0732236980478547 -21.6475837407553868 21.0122068406650442
26.8692305416717474 -21.7873167294861432 20.9934265706466334
26.6635854513396140 -21.9263800347234294 20.9533642620906555
26.4581551567785205 -22.0628239980667260 20.8947425982097457
26.2548173340862512 -22.1947757451959404 20.8208440517024940
26.0555245422051094 -22.3209807844833108 20.7354397788305356
25.8623893952815251 -22.4408268127639232 20.6416242386582667
25.6772905557240776 -22.5542569360919458 20.5403093131989678
25.5015585154836089 -22.6621304057504105 20.4307281748739520
25.3344080917329677 -22.7672964605725170 20.3132291367573927
25.1706439890334295 -22.8747291311179595 20.1916233035984014
25.0021384993826246 -22.9890073196226083 20.0739522549343654
24.8228835071565506 -23.1113681036940051 19.9713247704497761
24.6319715330705691 -23.2400970464691596 19.8937948756061935
24.4324829107794343 -23.3734655208918412 19.8454099074157497
24.2287249109271094 -23.5115100369108063 19.8223749968897529
24.0246900174299860 -23.6544926582322645 19.8160510368089220
23.8240049905735347 -23.8000242569093530 19.8185789994930062
23.6291670724853127 -23.9433712682477804 19.8266858770869163
23.4399526058681644 -24.0814715395779828 19.8410645003543316
23.2541128260778507 -24.2152251470082547 19.8627219327746758
23.0703267467750379 -24.3471370695340639 19.8894945923901112
22.8890187009220227 -24.4783371250106470 19.9148063303768836
22.7109181969112122 -24.6079190122224531 19.9288348259351693
22.5367971147220807 -24.7338978908436289 19.9211763482953472
22.3685858804775606 -24.8543569048250248 19.8837316923144485
22.2092438849835894 -24.9679101110032065 19.8125651726407952
22.0610753835021072 -25.0734694470926840 19.7083011556479590
21.9250152976718269 -25.1697631708692242 19.5755665485924126
21.8019126397934144 -25.2550453076441315 19.4215982907353784
21.6932945443554495 -25.3273120376186469 19.2534586279230133
21.6000504148374048 -25.3853849624224992 19.0749358250000789
21.5210250115690975 -25.4300650429885167 18.8860936804748469
21.4535949088160613 -25.4637214616344991 18.6863459590886833
21.3949948157672125 -25.4886891806783069 18.4770374930907124
21.3432110167765039 -25.5060995595974731 18.2613627970392258
21.2975419977661566 -25.5157995249067184 18.0423257171805993
21.2585758530207904 -25.5167542854070746 17.8198247677215171
21.2272037501750539 -25.5074070359297238 17.5893844956878880
21.2034024162819108 -25.4859627486800022 17.3445287234593231
21.1861124196715629 -25.4506576113316214 17.0811869554033606
21.1741638780628207 -25.4005454431443383 16.8010058456662037
21.1665638879497529 -25.3371903463350208 16.5131859869144435
21.1614906481570806 -25.2656819236376435 16.2330407460555008
21.1558648960087581 -25.1927316258144884 15.9743236035712339
21.1466441652085315 -25.1228201960611628 15.7409545520637764
21.1324141837120472 -25.0562725898982066 15.5268789010387369
21.1136930136588497 -24.9908466160410114 15.3236885878753029
21.0919203122091545 -24.9243083633438829 15.1269331068104158
21.0677816433768861 -24.8553143262941276 14.9352080290146993
21.0396537350630837 -24.7828945554848232 14.7461260599776516
21.0034008537047328 -24.7061620037291192 14.5551977341188472
20.9543225229260379 -24.6244884984778949 14.3583839132735527
20.8903047052367796 -24.5374106934256702 14.1551533869036756
20.8134662614823860 -24.4442244942453328 13.9489127693019892
20.7287333868272761 -24.3439715953392479 13.7449303597470180
20.6409960862159387 -24.2358663916780941 13.5480213955945654
20.5532674429514621 -24.1197003453381029 13.3615237970606682
20.4665877793438611 -23.9957032788976434 13.1872410832887610
20.3809412381123991 -23.8637747083904159 13.0255503452802408
20.2962727461807724 -23.7229538841602050 12.8762901271762598
20.2126869447186159 -23.5710508284370377 12.7401933187467442
20.1300887190042843 -23.4042831984953068 12.6200538070140915
20.0482258492730274 -23.2178333215725061 12.5204973854018284
19.9674483421565654 -23.0085160828928110 12.4456110259964738
19.8892935410780822 -22.7780411250203301 12.3958619136050547
19.8159573506876541 -22.5327942605750025 12.3669716165918331
19.7494217405158352 -22.2802447114692868 12.3521743953336998
19.6910880797108270 -22.0259695668755384 12.3456131027489580
19.6418213409312408 -21.7731773380164597 12.3439934615821976
19.6021233555456824 -21.5236153290237269 12.3461015682638013
19.5721711178210036 -21.2784630654667666 12.3513998339424766
19.5514796034888754 -21.0384563677399186 12.3588942697249085
19.5386607947844730 -20.8029960405871392 12.3669723511089700
19.5320196185352160 -20.5689388777646514 12.3742501734397372
19.5305807448170370 -20.3306865921546205 12.3804621965203747
19.5344184062366324 -20.0827872475439442 12.3861678246910287
19.5439490726705785 -19.8237932896118068 12.3915715195536986
19.5589261992719976 -19.5582007177198349 12.3959458127437241
19.5778949314456625 -19.2954392394839758 12.3981128203977011
19.5983363020837409 -19.0468263000051046 12.3970907667375059
19.6174713792587987 -18.8204828292634900 12.3924195883102755
19.6332395823787138 -18.6171347428690588 12.3840974594602180
19.6448414178091859 -18.4294633020042546 12.3721196709758647
19.6523673346119274 -18.2458775632067791 12.3561369228319684
19.6557036422617415 -18.0566581146511709 12.3355520728038677
19.6537111638717370 -17.8572475333608836 12.3097036962237105
19.6443797269039919 -17.6472763052440946 12.2780397592663135
19.6256167746629941 -17.4288291715033878 12.2404371079315730
19.5958525006312527 -17.2057321011808781 12.1972986731319288
19.5541323874920323 -16.9827309846827639 12.1491254588353073
19.4999437800620683 -16.7641906639192193 12.0959480538519628
19.4330766093611906 -16.5528728550024624 12.0371261374250338
19.3536112177722721 -16.3493565636594376 11.9715986781077799
19.2620209499501449 -16.1525257171516294 11.8982344447692210
19.1592942297419171 -15.9607751110500509 11.8160165541808588
19.0470788180616637 -15.7731223669973915 11.7242744747351413
18.9279707710520029 -15.5897732880412541 11.6231898015972064
18.8057470971718885 -15.4119768997566489 11.5142793344456376
18.6848416750189585 -15.2409828165090282 11.4001262381519322
18.5688361610803803 -15.0766265859672046 11.2830802499539598
18.4591737785378136 -14.9169057406785477 11.1640889696681107
18.3554410454585089 -14.7589998471681376 11.0429717271237848
18.2565310319624778 -14.6003963851624086 10.9194924374453777
18.1614281248991176 -14.4390822778795851 10.7938868917590902
18.0694985122375158 -14.2732503296147399 10.6667019731987978
17.9805981527211074 -14.1013049227593932 10.5385557482542875
17.8950244118231545 -13.9221433929291614 10.4101531395012277
17.8132784973791800 -13.7352009150278214 10.2824016204861923
17.7357808430501009 -13.5401402325890849 10.1563740708807728
17.6627434601269364 -13.3365369745809552 10.0331222806191320
17.5943164625793536 -13.1238396391417886 9.9136646100843002
17.5307940671040434 -12.9015500607766711 9.7993466832542619
17.4724867948431033 -12.6694415924112960 9.6920433043318823
17.4193394485520692 -12.4278063437621249 9.5935681751728410
17.3709392012530550 -12.1779893146394862 9.5048373916520461
17.3270985278570322 -11.9233194944898457 9.4258945849146514
17.2882849981422453 -11.6695725621986739 9.3566224574911558
17.2552127773562844 -11.4232309875722535 9.2969761606044869
17.2279501202228076 -11.1874439295754691 9.2464084103916999
17.2055348495562939 -10.9594215361568246 9.2034165793412690
17.1863851612062675 -10.7329838089816718 9.1660168934269031
17.1688444870538461 -10.5042656578962230 9.1327077528750333
17.1513511043603728 -10.2749442501737995 9.1029784162721619
17.1323624271823931 -10.0492782314007449 9.0769170138855024
17.1102851262600417 -9.8275212884280840 9.0543756234621355
17.0834673247046140 -9.6022383424745286 9.0345579770210911
17.0503289714899182 -9.3599887119451672 9.0162198816986727
17.0099187987185516 -9.0873966318337054 8.9981741220003890
16.9628144681950062 -8.7789937723670057 8.9798066393996976
16.9113914142426935 -8.4407244487131692 8.9612601072381679
16.8588116213392709 -8.0852342463639175 8.9431159290388376
16.8076785524266725 -7.7243310287048779 8.9259311838959405
16.7594731556501912 -7.3652660257623452 8.9100189304572979
16.7147683632440334 -7.0112538360585930 8.8954778139408681
16.6736545855190528 -6.6633243642080373 8.8822941627227223
16.6360330376737124 -6.3216569283562229 8.8704125998714218
16.6017472806115869 -5.9861772319581590 8.8597660863780643
16.5706268149685485 -5.6567511773325769 8.8502850643368021
16.5424983466026063 -5.3332333088030310 8.8418995534748035
16.5171881231534314 -5.0154764148596094 8.8345395194774419
16.4945223298131864 -4.7033330619720637 8.8281349230855923
16.4743271446671073 -4.3966557936374677 8.8226157247952788
16.4564287451235458 -4.0952971514153216 8.8179118851136558
16.4406533085368949 -3.7991096767330568 8.8139533645518249
16.4268270122579665 -3.5079459110109301 8.8106701236213674
16.4147760336373665 -3.2216583956689036 8.8079921228339160
16.4043265500257007 -2.9400996721269177 8.8058493227010963
16.3953047387735680 -2.6631222818049274 8.8041716837345376
16.3875367772315670 -2.3905787661228768 8.8028891664458673
16.3808488427503036 -2.1223216665007119 8.8019317313467162
16.3750671126803695 -1.8582035243583874 8.8012293389487120
16.3700177643723706 -1.5980768811158370 8.8007119497634818
16.3655269751769055 -1.3417942781930208 8.8003095243026586
16.3614209224445659 -1.0892082570098776 8.7999520230778661
16.3575257835259613 -0.8401713589863551 8.7995694066007353
16.3536677357716869 -0.5945361255423993 8.7990916353828972
16.3496729565323093 -0.3521550980979793 8.7984486699359987
16.3453676231577951 -0.1128808180734033 8.7975704707720528
16.3405779129892288 0.1234341731059825 8.7963869984084759
16.3351300032569497 0.3569373339518584 8.7948282134300726
16.3288500700343775 0.5877761223163311 8.7928240771264683
16.3215642792147619 0.8160979902180863 8.7903045569997893
16.3130987211018876 1.0420503459709565 8.7871996667981147
16.3032790127231912 1.2657803200100357 8.7834397109083913
16.2919282807388583 1.4874335428177385 8.7789565314018958
16.2788587093874071 1.7071487775571530 8.7736887788332254
16.2638427497723512 1.9250381919583734 8.7676000789673729
16.2465355053996845 2.1411273400622672 8.7607286825463291
16.2263169432211889 2.3552075264286749 8.7532890367307559
16.2020739542761234 2.5665582133937495 8.7458038072324413
16.1720585474707406 2.7736118866844635 8.7391225314673786
16.1339929075943971 2.9739273868157881 8.7340450321535865
16.0853428275924095 3.1650740322908000 8.7303653799546304
16.0234660931392554 3.3464320092131032 8.7257069910538139
15.9459121814047258 3.5202462463302737 8.7152021704146705
15.8517272028043195 3.6899755098065228 8.6929437860048235
15.7431022191009706 3.8574794079642452 8.6547196956638537
15.6250511577388753 4.0228141150937482 8.6000327779431132
15.5030579198719192 4.1861678895540289 8.5319112638214705
15.3811131458216508 4.3488759300359350 8.4552477298721058
15.2614229880994863 4.5129193527290976 8.3752016354214920
15.1449495358843986 4.6802762474656543 8.2960939063906665
15.0319837893489527 4.8524867449887221 8.2208339064154554
14.9227629923367626 5.0301233624915245 8.1511568360797160
14.8177142216496875 5.2127984470288515 8.0882153754477617
14.7169892792988843 5.4001447671465774 8.0328437456861685
14.6200421391397484 5.5925993828522369 7.9855852377491292
14.5261123275438315 5.7907127647378278 7.9468835052485360
14.4350791585513907 5.9938168751995597 7.9173669276028358
14.3476471332087847 6.1999355642848686 7.8979476036761582
14.2647550515692139 6.4073411752418483 7.8897239392979248
14.1870097920118354 6.6159489812370671 7.8938429982425822
14.1148054518819226 6.8266579235445137 7.9113144749431994
14.0488269597621862 7.0392979256199277 7.9426848505759153
13.9901739621973693 7.2515949426098016 7.9877450805749346
13.9398878331941170 7.4603708323103719 8.0455615713265818
13.8984778327578837 7.6635246520293334 8.1148119599109325
13.8658702292697580 7.8610215006058706 8.1941811382658187
13.8415607052003971 8.0545607422064904 8.2825412129544098
13.8246389900025797 8.2463766283228654 8.3786716211988228
13.8136881625768950 8.4379298208467493 8.4806394154393843
13.8067272694467409 8.6295692029394413 8.5854828886437922
13.8012186666345009 8.8213691843349729 8.6895525591316698
13.7940675840306994 9.0137280386796608 8.7888304355610689
13.7816621213947190 9.2068900255533759 8.8787339083439925
13.7601747354518888 9.4003390531756779 8.9539910639393234
13.7261419832787777 9.5929749524598975 9.0092916975947777
13.6771349125759567 9.7835614442315819 9.0404761031513630
13.6123717132164170 9.9708767462337455 9.0455007234619274
13.5330208378434662 10.1538509113574023 9.0247656228668092
13.4418946115809828 10.3320360667507867 8.9808819842186747
13.3427057588908760 10.5059770727616790 8.9181545297740445
13.2393982642606804 10.6769410668269238 8.8419587378034947
13.1355641334798321 10.8464440039643897 8.7579486746503470
13.0338066205361560 11.0161786744123891 8.6710855880141864
12.9354516256878327 11.1881198404885787 8.5849718117539702
12.8409413653776028 11.3641857638373427 8.5019569798141923
12.7505984327059050 11.5454510273750799 8.4237849230311816
12.6650377836933288 11.7319267202672552 8.3520895726092874
12.5848554031191782 11.9234091160220927 8.2883518371825140
12.5100727759904178 12.1203060468700556 8.2335478797743207
12.4400644554815987 12.3232945516750991 8.1879876492901076
12.3738366178436028 12.5323370091458148 8.1515277823904704
12.3101446317481731 12.7461521090218763 8.1238848817186646
12.2477510805070597 12.9623788962724049 8.1047383405436175
12.1862615759273503 13.1782974307166310 8.0936084068198042
12.1268058512236063 13.3920797393826323 8.0897204259772337
12.0716303688605127 13.6038730949079643 8.0920994000036135
12.0229344560282598 13.8157858853445550 8.0998647065073044
11.9820877888296096 14.0304524292600945 8.1124147542973830
11.9496556787974484 14.2489221291498289 8.1293270157368163
11.9256734328145217 14.4697331878448505 8.1501518389582053
11.9096586103841400 14.6902639820261474 8.1743585976540185
11.9005000985991440 14.9088979889508053 8.2014396974049539
11.8964691940631884 15.1259465155057384 8.2309908120366231
11.8952915595308539 15.3427073663568603 8.2626305967312614
11.8941125516230510 15.5595679032296772 8.2958436934732340
11.8893035774772358 15.7749333579535325 8.3300637770033816
11.8761701782761140 15.9858306456889778 8.3651452303763065
11.8487838268661978 16.1888705669082071 8.4016996353432241
11.8004545227061470 16.3802914203628234 8.4403794387189919
11.7253030753933025 16.5558131272007145 8.4799886528287196
11.6204890909282437 16.7118359625610537 8.5162001231367555
11.4876918716320393 16.8477281823139116 8.5431438743311165
11.3326992912620206 16.9669841718793535 8.5570193375278514
11.1632413452397916 17.0759972404758145 8.5580225627912334
10.9864965169422462 17.1815873934845591 8.5491611106069882
10.8077442889255373 17.2893264648452352 8.5342135110044488
10.6303580177994270 17.4031645291530772 8.5166811712876651
10.4564639207893819 17.5253790969919940 8.4996215779651685
10.2875125941510284 17.6564853327334674 8.4857608359309857
10.1244123850842591 17.7957530899053964 8.4775234667668578
9.9675533111331411 17.9421778700918821 8.4768975141906946
9.8170891878767037 18.0949006847240028 8.4853323263863629
9.6732670797483351 18.2529711609508496 8.5038143066277243
9.5364868778307859 18.4152450576011475 8.5330045437947124
9.4071444239341311 18.5807478954667680 8.5732571782814588
9.2855598585975319 18.7489334612955858 8.6244880198495402
9.1718010818966338 18.9195737862380930 8.6859961615623504
9.0654397653597982 19.0923698241589470 8.7563149965123319
8.9655156737667046 19.2666656344021305 8.8332747863661893
8.8704382145942056 19.4415247769478086 8.9142527046442606
8.7774957695847764 19.6157999769246132 8.9961839049886070
8.6823643583712560 19.7878847591862126 9.0753222582622364
8.5793222325359935 19.9550335109643235 9.1472123985574108
8.4625039368214807 20.1123733071157069 9.2070550999953866
8.3276079689791871 20.2525479381610509 9.2503004630595633
8.1730248816950102 20.3672457436252685 9.2736562817951178
8.0001176239871583 20.4508789931875263 9.2766849252416179
7.8126715472548440 20.5042775357696456 9.2628321400922591
7.6155015956705778 20.5352950693255565 9.2384521648878319
7.4130909490045962 20.5559822527368325 9.2103760132657584
7.2090626326865328 20.5788212979107428 9.1841011464920950
7.0062911225551883 20.6140053974771718 9.1638556039235546
6.8071973194675151 20.6680336380646850 9.1536327926778700
6.6140445581525391 20.7434502263294434 9.1572063523732652
6.4288889830546037 20.8395426829755266 9.1764258022976133
6.2531316211455223 20.9533406544520560 9.2095230201358973
6.0869759292108077 21.0803310565642903 9.2516634682024765
5.9289072766417839 21.2151131011044853 9.2975062277425558
5.7755258077076572 21.3521586086368025 9.3434619905610354
5.6221470615689668 21.4862550874180798 9.3881034484222514
5.4640186655207534 21.6121690163974343 9.4309243907090128
5.2976195801896591 21.7237229513491314 9.4707847270875725
5.1214982760388672 21.8132556112791391 9.5052843326795511
4.9364037983868956 21.8723393966998145 9.5311655074274491
4.7451518842815696 21.8938249295036087 9.5451466616387552
4.5522780722003713 21.8743102445968702 9.5447298486302650
4.3627610099445926 21.8159585987027214 9.5287438011652483
4.1799747710893049 21.7268007069621447 9.4974891573942539
4.0042926535994958 21.6187988988282420 9.4525751033585816
3.8332189143763680 21.5042083165593851 9.3966108583244559
3.6624596267828697 21.3922886986073308 9.3330203492928145
3.4872169518447755 21.2884441732061589 9.2661548447067403
3.3037248459125035 21.1960535981888682 9.2011135660615082
3.1104878210368563 21.1190968912220143 9.1426894742666516
2.9084541015953453 21.0629061901687074 9.0943642933795772
2.7004449545011320 21.0321915216108692 9.0586772209739337
2.4903781344361886 21.0282751707757711 9.0383153809872283
2.2823189925496399 21.0483062090996462 9.0361330262254391
2.0795447761943699 21.0873769777789271 9.0537636720304597
1.8839846228710133 21.1416690208322890 9.0904737895553005
1.6962397913634666 21.2099673698744766 9.1436046135347606
1.5164631849235839 21.2929238487988997 9.2097743271175059
1.3454912630618336 21.3915174681044782 9.2854254093075372
1.1849596772692443 21.5062544193035450 9.3667006843888263
1.0362937789360345 21.6371437168851912 9.4494428076346502
0.8995015215738595 21.7832337298321264 9.5295550467340462
0.7718353231681698 21.9411933707784961 9.6033259284918877
0.6469391556962096 22.1042195359691362 9.6677145819586485
0.5167526364615356 22.2631430932553940 9.7210817209770344
0.3755173527395117 22.4092316640523848 9.7639224515182352
0.2217158562724295 22.5350864009720482 9.7980740106619280
0.0573416434589165 22.6324069201624738 9.8246139213668471
-0.1126796809542316 22.6900291287424842 9.8421256411223510
-0.2806619534170998 22.6963968070843265 9.8466471879261448
-0.4384442784276228 22.6465864201897489 9.8336376097975737
-0.5821390926006846 22.5482549370859182 9.8009007083455160
-0.7153840800554212 22.4203988797545470 9.7505415996170548
-0.8477815931784374 22.2862728006130482 9.6890585856503080
-0.9900085786698765 22.1666342366464377 9.6260277634009501
-1.1491000206291075 22.0762686058137483 9.5718867831966961
-1.3261507129593078 22.0227799978165280 9.5350720062707808
-1.5170105904789155 22.0066984482459098 9.5194749614469849
-1.7150316945904245 22.0230914105940840 9.5237932463372523
-1.9141577258698996 22.0642208270677500 9.5431215549834896
-2.1109612176565804 22.1215408511278255 9.5711147310868530
-2.3049963239514302 22.1857858194634119 9.6008983025377237
-2.4974274820251194 22.2457283742050365 9.6248550320729258
-2.6887297979305824 22.2877907044645340 9.6349548820905273
-2.8769140824133608 22.2984594637012172 9.6246510016739624
-3.0576013221345812 22.2688954864723314 9.5913074636254017
-3.2260026182391455 22.1983333765299946 9.5369723999918410
-3.3790859531004251 22.0934218066141881 9.4666484228570500
-3.5163000011437013 21.9644370190913065 9.3856193686691007
-3.6391140111300819 21.8212533466281897 9.2975921405363238
-3.7503084301503611 21.6709667878198857 9.2041260689803934
-3.8532495960070383 21.5176343899115388 9.1050643846005457
-3.9513479434868275 21.3636548363210608 8.9995346396469902
-4.0483324440991728 21.2117013336864453 8.8872334848698742
-4.1489873225835696 21.0656195867478502 8.7695463469694950
-4.2588073949415293 20.9295798142890774 8.6498518715066055
-4.3821980243370806 20.8066036856090975 8.5328521083768258
-4.5212432565208331 20.6980554110218655 8.4234940788480515
-4.6765170700501528 20.6038983076397457 8.3260879774176821
-4.8479828372490337 20.5228453917517086 8.2437230118007712
-5.0345856365486812 20.4526335663372159 8.1783593845109799
-5.2334947023862419 20.3907234761310434 8.1315040733232991
-5.4402713955225090 20.3353332430626494 8.1043374010505360
-5.6502826471015197 20.2866954091040412 8.0967875451956832
-5.8605407108461733 20.2477759247198819 8.1067124521593801
-6.0705328359331006 20.2233323919537504 8.1304680630885180
-6.2812277756006143 20.2176536928573931 8.1644517846622335
-6.4930013870381273 20.2326404772899053 8.2062223644654058
-6.7044168137206537 20.2672558908386584 8.2546381601380432
-6.9129627741415103 20.3183026473673252 8.3092709488827801
-7.1166484156315093 20.3819328682794705 8.3693013348455221
-7.3150103014836532 20.4548075514419523 8.4324588093940260
-7.5092881999399452 20.5338919439498042 8.4950563072191763
-7.7020477327010308 20.6151456028203874 8.5532291561672480
-7.8961133349481969 20.6922758310835349 8.6040987239011617
-8.0927079137225917 20.7561653182971071 8.6458807061398453
-8.2898354221291317 20.7954244871244924 8.6771226753225932
-8.4823644558052926 20.7987675644777070 8.6959889059276989
-8.6637966549693122 20.7588248937825171 8.7003877240062319
-8.8285299942145095 20.6752946077180866 8.6887839131434923
-8.9738828162775217 20.5550624494856891 8.6609686426055941
-9.1014165339273969 20.4091302726618693 8.6183846983426218
-9.2164878869721409 20.2486389390756827 8.5639966067926565
-9.3260943492475636 20.0822704037810027 8.5018066168810655
-9.4368234648543687 19.9156870991688493 8.4362878595734472
-9.5539391980135573 19.7522647742795527 8.3719097774769935
-9.6810092138716559 19.5940454226613809 8.3127057840217766
-9.8194725453382361 19.4425303756199170 8.2618915659260423
-9.9686658192018029 19.2990438800539685 8.2216242251784433
-10.1265993575880007 19.1643940642575323 8.1928217299053969
-10.2907577025851396 19.0381720211534855 8.1750658298217083
-10.4582411841013112 18.9180380017525529 8.1666802332908173
-10.6250738861215961 18.7989142838004852 8.1648339877172766
-10.7848768871770506 18.6724298420023302 8.1653353639962134
-10.9279270611818617 18.5278218352212107 8.1623458001729858
-11.0422180174380618 18.3557298096830550 8.1493188693110845
-11.1175068756974422 18.1544591262838217 8.1216557219922816
-11.1506192277545821 17.9336687521816884 8.0789504547851205
-11.1476789845813951 17.7091967044558274 8.0243353906661241
-11.1211058522390243 17.4924607337405646 7.9618298866437671
-11.0843806634083037 17.2859809877467541 7.8948760023214408
-11.0483460084551268 17.0872682719822819 7.8266892890669215
-11.0200651202480948 16.8940636818149095 7.7609021474938027
-11.0033039320485830 16.7054614057615183 7.7014835336401761
-10.9995851562641196 16.5195425368165019 7.6518951771779440
-11.0092681473415990 16.3321296147716808 7.6144065754465284
-11.0322026041842705 16.1392306795070155 7.5902877270655722
-11.0677975656698013 15.9402102941944008 7.5802250005705254
-11.1148324703463590 15.7378861179661964 7.5841878750596976
-11.1715238070921696 15.5359152484703600 7.6011289182804376
-11.2360035419031377 15.3364634650831100 7.6292188480761132
-11.3067948754049610 15.1398344843580048 7.6665335313577723
-11.3829033969658830 14.9453472097010831 7.7115080109041205
-11.4635949037267650 14.7523962898182770 7.7628536634520788
-11.5482619541070619 14.5610440869110835 7.8194037504599647
-11.6364597656582234 14.3718808578461790 7.8801606756063025
-11.7277452720282849 14.1855738785812271 7.9441466351598917
-11.8213875110687070 14.0022985734302416 8.0099189770888373
-11.9162701499058841 13.8211481998774754 8.0751895678345882
-12.0108025415456261 13.6399923362654079 8.1367423795108511
-12.1026957569390063 13.4556497733708795 8.1904720390207917
-12.1887686489159748 13.2638150469219127 8.2314471653591497
-12.2649847219075721 13.0592008110313689 8.2543014874678740
-12.3270389143323680 12.8374924756746918 8.2544954217430124
-12.3715113077413275 12.5996380539076078 8.2303985744627823
-12.3970199460472035 12.3544481230115313 8.1848499205835452
-12.4046292605557422 12.1140231574865886 8.1242781583670514
-12.3973381365670949 11.8853212201923846 8.0557374910051642
-12.3792148868123171 11.6679121880049088 7.9846859212888646
-12.3547347833214847 11.4580343930110899 7.9145692657278950
-12.3281989022830345 11.2518943205919513 7.8472240735173342
-12.3031826251408223 11.0461029100897985 7.7834467584903884
-12.2823483418662267 10.8378115428573754 7.7236965448885693
-12.2676063165048248 10.6256858773064984 7.6686879095743787
-12.2602520801377288 10.4108270139292927 7.6195911590257079
-12.2609144570882052 10.1964537535627429 7.5778490932691369
-12.2694762235179802 9.9856317779694663 7.5447934662446281
-12.2851423633073527 9.7782557994966979 7.5213559389815154
-12.3066471759052654 9.5706298846410274 7.5081434784694725
-12.3326180445781066 9.3586296210960107 7.5056561721137136
-12.3621098750719138 9.1407570448468505 7.5141060164151146
-12.3948828643802127 8.9185897847173550 7.5329808918490340
-12.4311297892743440 8.6954022999335425 7.5610067295568966
-12.4711337637272770 8.4743070364161763 7.5967262165572427
-12.5153064466703423 8.2567584306905140 7.6392564492173163
-12.5643385845050339 8.0421177439425229 7.6884973464796857
-12.6189976300759952 7.8285992916260412 7.7444631120612346
-12.6796333473040637 7.6150501513923761 7.8063575830683645
-12.7458675571513211 7.4021127046357016 7.8724444719843056
-12.8166680287913479 7.1917083174924006 7.9409445840242148
-12.8906481854497823 6.9856127480779149 8.0109102172399425
-12.9664022927403142 6.7845070689061462 8.0820493673111642
-13.0427042062744576 6.5877463540907844 8.1538649131882934
-13.1184305078703467 6.3935953942042865 8.2251836369202103
-13.1923676529497573 6.1996931737397709 8.2943414581351860
-13.2631552355138176 6.0031835711800090 8.3594523428654970
-13.3290639395818378 5.8004301926839741 8.4182822033956661
-13.3874833195720484 5.5865622704120499 8.4680708999549950
-13.4346463021663922 5.3562050722157801 8.5059019902419664
-13.4661451311069396 5.1075801924780269 8.5296270141978958
-13.4783964043915763 4.8475024871160350 8.5388688948898963
-13.4703665317995274 4.5895527737599471 8.5353451814521311
-13.4441237674144674 4.3448090632958714 8.5219792922376048
-13.4036375566580848 4.1156213641159844 8.5014162076808830
-13.3530456813857246 3.8972805889858728 8.4752006084993852
-13.2957070135395625 3.6831472611482443 8.4440883004639726
-13.2340235972474485 3.4681469487767327 8.4087588235431561
-13.1695974524911250 3.2494815461543389 8.3701014044324396
-13.1036562744791194 3.0260281658762107 8.3290914775806542
-13.0376151421196482 2.7979606889262776 8.2867186743732013
-12.9734204294501829 2.5669966737119410 8.2441303048105183
-12.9134077545123596 2.3365447249204863 8.2027343656008718
-12.8596537524344807 2.1105947983922686 8.1639506592712330
-12.8131838573811283 1.8913233178017688 8.1287086559118222
-12.7737288059586689 1.6775305739238213 8.0972207881854619
-12.7402992012431966 1.4657184147227547 8.0692989214565163
-12.7119810264919657 1.2524535402186636 8.0447987623183330
-12.6883580575599115 1.0359607895934850 8.0237596650925926
-12.6695069566453355 0.8167093060694643 8.0063064497156979
-12.6558310187987306 0.5973682661452049 7.9925490307351978
-12.6479111291452586 0.3813714104771311 7.9825474980761424
-12.6463465508997661 0.1692971091841002 7.9763217403193352
-12.6516256349037857 -0.0442229456421881 7.9739094426789769
-12.6640758614965030 -0.2677972523773082 7.9754595359365963
-12.6837917743831721 -0.5058896992584074 7.9812455067599464
-12.7104792120145689 -0.7551288069207249 7.9914931301701522
-12.7433567113159594 -1.0067868993598168 8.0061348395640834
-12.7813541670599644 -1.2517545849681628 8.0247887173858032
-12.8236608898638558 -1.4852166061090024 8.0471517453526697
-12.8703790794868809 -1.7091142001697097 8.0735363133180051
-12.9227606678760409 -1.9306785072756529 8.1050280915220299
-12.9825819419038915 -2.1577736794491624 8.1430422024860327
-13.0508639653378324 -2.3939339286676322 8.1885589894831945
-13.1270722888150662 -2.6366360260151822 8.2416585129229034
-13.2096120618363511 -2.8799999631046642 8.3017152519801787
-13.2968808932678222 -3.1186571800000760 8.3678857293029729
-13.3878235137030082 -3.3494991385738793 8.4394059395823469
-13.4818198659692676 -3.5713639640164185 8.5156377712983833
-13.5783900669873461 -3.7842168082704912 8.5960023328351163
