BEGIN_0
-21.4033051390917244 15.8713388488768476 6.1886282936820258
-21.3686256612737822 16.0350505329856041 6.0408058245633036
-21.3243535227946275 16.1995163216748637 5.9075372934289767
-21.2696834967520516 16.3698509654357380 5.7869776171374845
-21.2034284830102564 16.5489433964365276 5.6787892313798984
-21.1246737816906993 16.7377112994471062 5.5836565670354972
-21.0335559963155987 16.9359560128018387 5.5025982232529742
-20.9313157995688357 17.1429240076605325 5.4366192879647599
-20.8198442673214252 17.3570506076297200 5.3866184285659529
-20.7012981281084834 17.5753477072564053 5.3531764791025775
-20.5778630785252403 17.7934810153256784 5.3362431575185418
-20.4515691316252806 18.0068846420860638 5.3350102040189267
-20.3241865740759238 18.2121330151633387 5.3480832813692452
-20.1971075634740558 18.4075877902976188 5.3738171815494713
-20.0710824712791727 18.5931190568859748 5.4106885255475508
-19.9460445697476842 18.7696035606316407 5.4575881924514160
-19.8213250881570531 18.9388927188339622 5.5139531022298822
-19.6961045483770292 19.1038812170711232 5.5797176027479036
-19.5697897241475758 19.2676241054109276 5.6548763624863181
-19.4423617779201834 19.4316154515569970 5.7386371166320984
-19.3146687809711217 19.5951117240677135 5.8289119352134371
-19.1881993096678869 19.7565668890946000 5.9228075171855838
-19.0644023879603921 19.9157006883766812 6.0175717261081108
-18.9439820268992101 20.0743008835353649 6.1109373133172635
-18.8264151285705772 20.2352851926361126 6.2003470040587576
-18.7101522249644994 20.4010003449723598 6.2815738803575574
-18.5940985937034462 20.5724463063255243 6.3481861953979415
-18.4797675656806177 20.7498370107281502 6.3927260505301469
-18.3719634417305038 20.9328218542923139 6.4083514479781734
-18.2767641098557050 21.1198088411923237 6.3892608420542540
-18.1983674064258238 21.3079289671301453 6.3306968927455358
-18.1372385222716481 21.4936131624941140 6.2309377172015985
-18.0905631374247484 21.6725690635831612 6.0946147007189673
-18.0541148844092625 21.8403662322049001 5.9324374183057724
-18.0238035925954030 21.9945218810618783 5.7558816835349766
-17.9961486621248419 22.1353160140643297 5.5727752331417850
-17.9681622902915059 22.2648705173423522 5.3868519999262610
-17.9372680300649456 22.3862756289233573 5.1993077626059563
-17.9013446790826833 22.5030714642682952 5.0106477139546008
-17.8588197616208149 22.6187011491356813 4.8219014778169651
-17.8087087735207916 22.7360271986939821 4.6346248776399985
-17.7503657978359648 22.8571564143428780 4.4503665221173634
-17.6831014926953181 22.9836138385791315 4.2707239476512147
-17.6061823733431631 23.1167138022259984 4.0978702642870051
-17.5192395036405273 23.2578090986090231 3.9345114634115479
-17.4224553917416678 23.4081141178902712 3.7831547285317626
-17.3162972455911159 23.5680461356504054 3.6457083576544154
-17.2014622381679203 23.7363741107142872 3.5237986714109795
-17.0792570342599781 23.9099813244458588 3.4190528698142391
-16.9514124818951011 24.0851527473129323 3.3326789284856062
-16.8186879022002458 24.2600200722247124 3.2646982103596951
-16.6796212970451982 24.4358953920226831 3.2138382310104419
-16.5312559078782364 24.6156581347550656 3.1784028205574764
-16.3714894380729099 24.8005585352979168 3.1572182766910508
-16.2008817188829823 24.9882310395591887 3.1498718509230077
-16.0223642297254685 25.1733443352948640 3.1563666220974795
-15.8395403697121644 25.3501164721338199 3.1766741870623516
-15.6553268290372714 25.5145546309602018 3.2104709349899903
-15.4715669671131231 25.6650115679324031 3.2571029333450667
-15.2892170182805209 25.8014643830736716 3.3156772432100645
-15.1086930709848062 25.9246513449772564 3.3851832499477403
-14.9301676834511241 26.0355740276976597 3.4646267250164797
-14.7537115183536116 26.1352252312301019 3.5531295233424274
-14.5792890496356407 26.2243903374136593 3.6499056392570441
-14.4067744503183803 26.3036867498949540 3.7541520780185724
-14.2360873406004806 26.3738966549989868 3.8649974759755459
-14.0673212337822449 26.4362437815027853 3.9815458935937276
-13.9006612734845341 26.4921606763109594 4.1029240293297136
-13.7361970953324253 26.5427988231745218 4.2282717826404106
-13.5738538130074691 26.5888440927374994 4.3567173333572224
-13.4134505432251068 26.6307717512030635 4.4874142933027699
-13.2547085668896614 26.6692863266939497 4.6196966927506899
-13.0969940031879428 26.7055720746527854 4.7533574347013516
-12.9388179642038885 26.7412074806639808 4.8889506503519726
-12.7776425478048399 26.7779440915072868 5.0277707968726464
-12.6107169681962077 26.8173517766799669 5.1709679992482656
-12.4367446350280417 26.8601932402852768 5.3178981531650606
-12.2568138057748790 26.9060553594752498 5.4651160050100263
-12.0735238993878369 26.9540182793107093 5.6072351833708751
-11.8893647539042213 27.0038696494279442 5.7387950469295408
-11.7056898406591507 27.0565034977534218 5.8554676940588912
-11.5225935460433835 27.1132223113170951 5.9539473754038905
-11.3395352501231823 27.1750851502627100 6.0311383930091225
-11.1562563170618674 27.2430615950701238 6.0838456762142776
-10.9732357803146368 27.3182485775228727 6.1097004266893880
-10.7913681721190819 27.4012278540573320 6.1085935254214832
-10.6113323296416926 27.4911696300538004 6.0830920672431361
-10.4331593468367387 27.5858817423973157 6.0375635198816067
-10.2561298713247684 27.6827734907432266 5.9770925576469942
-10.0790606574026107 27.7798369287448530 5.9070558751253284
-9.9009407887029912 27.8761784162594708 5.8329454323744407
-9.7214800465262190 27.9720304146892254 5.7597161562920718
-9.5408363488382939 28.0682587564835622 5.6909625491846434
-9.3589078152578402 28.1654780314892506 5.6287879619923622
-9.1751627268278853 28.2633558070041708 5.5745718901300876
-8.9888280058957921 28.3609102509853521 5.5297295547399230
-8.7991221193809288 28.4573761105540939 5.4958166036848208
-8.6057584240121070 28.5523779695039295 5.4744841882457518
-8.4092736604985738 28.6454136933649757 5.4675690717447658
-8.2106907755976763 28.7355643429216308 5.4769192503376800
-8.0111260712593726 28.8216788921825682 5.5038015322080760
-7.8120894101404996 28.9026585778034644 5.5483382266551082
-7.6156846977624895 28.9777234655524722 5.6094201025120221
-7.4236386414513351 29.0466135445831419 5.6851183101239098
-7.2360682474732254 29.1094772545284997 5.7731699903422413
-7.0514779971140751 29.1665413143841867 5.8709790949035678
-6.8679013540617611 29.2180253384604569 5.9750274871232776
-6.6837489445314180 29.2644090264767520 6.0802639046934583
-6.4976615841001681 29.3065748655809735 6.1799093311625004
-6.3083681028338816 29.3454343421831432 6.2654923379027245
-6.1153262834150777 29.3812797487308686 6.3273093258413944
-5.9196788667269331 29.4134666494782060 6.3559775801303058
-5.7246300339454432 29.4406775801345333 6.3449441635407133
-5.5346044325839632 29.4614443561483945 6.2926170533774695
-5.3535306340122730 29.4745740539244672 6.2025766582936814
-5.1833065003075474 29.4795713151157805 6.0817600681655506
-5.0234101089697596 29.4769741339087226 5.9382511080070373
-4.8717973881977272 29.4682354770705643 5.7800843530475934
-4.7259418679898513 29.4551903551915508 5.6145657845788950
-4.5830014460023438 29.4394570943901179 5.4472706073880133
-4.4396225278858541 29.4221356992766232 5.2814318341017934
-4.2922550930122281 29.4039484375136730 5.1186751766754881
-4.1377016784799263 29.3854995416325728 4.9604082210255953
-3.9734734710274404 29.3673003829758592 4.8086639380770038
-3.7981379145585530 29.3497188355238876 4.6661655477276085
-3.6117547720938381 29.3330999718080392 4.5360632349794745
-3.4159750619907774 29.3178987015331529 4.4215784131529983
-3.2131687523607129 29.3045711866376166 4.3254118053321786
-3.0047391531701999 29.2932778545621915 4.2490444867972617
-2.7902559723983043 29.2837216758039354 4.1926228411949218
-2.5687332296958916 29.2753187729685429 4.1557103757904503
-2.3408825902296089 29.2675182737616133 4.1381029113000487
-2.1101903550944616 29.2600035122067652 4.1399563873889242
-1.8819123238832240 29.2526795986292463 4.1614461826185725
-1.6607927260105084 29.2455524382104741 4.2026350050753241
-1.4491792079118193 29.2386760725181745 4.2637625589435064
-1.2467153531822213 29.2322214007228496 4.3455210127021946
-1.0517224360446384 29.2265831248981343 4.4486996765666866
-0.8632768057596727 29.2223866834483417 4.5731555442366414
-0.6822171528413645 29.2203026280128917 4.7170287131213620
-0.5102776926393693 29.2207552708685512 4.8770623301573721
-0.3486649772496948 29.2237390808884498 5.0495462231736319
-0.1974114305417922 29.2288272808502150 5.2309151274734678
-0.0554756912094994 29.2352986713886196 5.4177854389558195
0.0789829776409272 29.2423040813165365 5.6068609715982110
0.2085039187157269 29.2490024650534686 5.7949984367860097
0.3364023385406614 29.2546795611334147 5.9793427159316330
0.4667568272995948 29.2589421908656249 6.1572002457813042
0.6039588490896766 29.2620084165889338 6.3252604884795147
0.7517781027386472 29.2649687078875367 6.4784249691942453
0.9124381879149230 29.2697637581825418 6.6095613185585957
1.0861853941960566 29.2786686833494123 6.7110355287974599
1.2713541908827504 29.2933707275814754 6.7772260527262373
1.4650426563448504 29.3139408187504387 6.8067408309961301
1.6642580872824215 29.3383400245654613 6.8031822033762914
1.8667159206801425 29.3630214175734459 6.7738894489372434
2.0709294168792671 29.3842047512485358 6.7275441419768018
2.2759388506828042 29.3987861254538458 6.6721584059837529
2.4811253878021806 29.4042904210377714 6.6141354478063992
2.6863619840412283 29.3984302885243238 6.5581676640462341
2.8920149154157579 29.3794275713536912 6.5075599708020082
3.0983170705737306 29.3472934990210170 6.4647329838148799
3.3048518030619913 29.3046296018293404 6.4317083577600105
3.5108439418817419 29.2555491256763780 6.4105356818749186
3.7156608610149124 29.2034297573556039 6.4036307962595416
3.9187310756677629 29.1496965804176078 6.4136606394868441
4.1190350730177823 29.0943944679549205 6.4426858143260972
4.3147623887281572 29.0372654733537523 6.4910517151297569
4.5038534889665165 28.9782016041616899 6.5568278348504556
4.6853601581647037 28.9170738830796381 6.6360039888471309
4.8604754130213781 28.8535634462574500 6.7230729716750766
5.0322287504395504 28.7875165495558463 6.8114434032531221
5.2043916586366024 28.7196998338852900 6.8932610013696261
5.3804970930646316 28.6523803754806465 6.9590428771536317
5.5629818144065926 28.5891191586963380 6.9983104329049555
5.7521455435216264 28.5336418253915518 7.0020888385164746
5.9454681401508118 28.4882997125611830 6.9661289604775458
6.1383578769480547 28.4529667646678242 6.8922037088613575
6.3262676216798228 28.4249606198005438 6.7865063056353323
6.5067383932915703 28.4001910204437742 6.6568611825827464
6.6799698427322731 28.3752223183666388 6.5108698935513214
6.8476291071090660 28.3491142285153899 6.3554746866516361
7.0111467715090932 28.3235121448023115 6.1969292764873121
7.1710565319156530 28.3006853174711068 6.0403391766356709
7.3277302976890990 28.2811503375462650 5.8888153911315086
7.4823115167949981 28.2629189130300809 5.7431950334116753
7.6366103154464344 28.2426032453715408 5.6030179188850671
7.7923406042036198 28.2168762720331650 5.4679020457175316
7.9506593279943685 28.1831310381589937 5.3382221157041947
8.1122133437306871 28.1394030245513953 5.2150379134573868
8.2773719483282751 28.0840878473398305 5.0997812891558247
8.4464108756608933 28.0157813459205478 4.9940235655197007
8.6196283464214574 27.9333564931269613 4.8993569088187545
8.7974512065707433 27.8363835960281882 4.8173206589677431
8.9805337263507372 27.7259893663820058 4.7493247077498264
9.1697013752781533 27.6058909858811461 4.6965935397831089
9.3654852534600224 27.4826151916215267 4.6602263342556185
9.5672435997145477 27.3637745195809075 4.6414116808774679
9.7724836770928967 27.2549019382192981 4.6415731087312722
9.9771786579991364 27.1574160646170562 4.6620815891443304
10.1770710827707056 27.0694421404128676 4.7035992538125821
10.3691392833971978 26.9880912394199370 4.7656699279600296
10.5524580745189063 26.9109376764844583 4.8469708734644765
10.7280930585016545 26.8362195887648092 4.9459658174230618
10.8979435247882819 26.7626609210980249 5.0612408442115413
11.0631902238051403 26.6894970271154364 5.1909377203776916
11.2237804203193168 26.6164437480156053 5.3318170975797070
11.3794929081578271 26.5433223256650734 5.4792685817141429
11.5312788803745701 26.4696831235885881 5.6281430978450331
11.6815493586407548 26.3948445621620635 5.7730504003784535
11.8334738576490626 26.3182786288402539 5.9077514976557275
11.9902091153874419 26.2399480280679498 6.0246759930609795
12.1544289432398713 26.1604060872917081 6.1155532928638632
12.3275705845300241 26.0807812757061015 6.1730595807968331
12.5088764234600944 26.0025735761204473 6.1927391278423993
12.6953844651671641 25.9271572382486646 6.1743226173830621
12.8832275553666165 25.8552599802682508 6.1215830850376953
13.0690138912693747 25.7868437777519226 6.0408441946562856
13.2501234315334866 25.7215079671977946 5.9393087229013677
13.4247311791976003 25.6589591485616495 5.8237934927470345
13.5925864065358208 25.5990581653790059 5.6996174875051206
13.7555920538266907 25.5415808775712634 5.5699738953497118
13.9169031363015900 25.4860592543912290 5.4364107881889776
14.0792873343463150 25.4315704347912934 5.2998930443519665
14.2441885475940477 25.3764449961099920 5.1615129718110175
14.4118441756200220 25.3182984146993171 5.0226545508985296
14.5818952768505206 25.2544957871143865 4.8849171361868962
14.7538928772075622 25.1826338367417648 4.7500261012927592
14.9274936807007883 25.1007189119072933 4.6197786402407282
15.1024212850300987 25.0071306877102550 4.4960172238381375
15.2782851430796747 24.9006467732489440 4.3806288584735036
15.4542672121847833 24.7807499087694154 4.2755631805715879
15.6287668777182418 24.6482318412747894 4.1828141972465467
15.7994459781220744 24.5056658274669488 4.1042308118323554
15.9642777286248911 24.3569326786651246 4.0410559205321803
16.1232590590939822 24.2055803610340021 3.9934285040310193
16.2789184130823230 24.0533019750578845 3.9604209175728080
16.4344194264915089 23.8999487431674744 3.9407803137985322
16.5910042814186696 23.7446745716346257 3.9337137859314630
16.7471928666033847 23.5870316639078368 3.9391440972107787
16.8999838284039186 23.4273005021947611 3.9575678904138218
17.0466274864510794 23.2659162194258684 3.9898808579705030
17.1857950243444932 23.1024969227674717 4.0372026661891542
17.3177502038932438 22.9354892180898844 4.1005131956313470
17.4435569762212239 22.7633363121780121 4.1801507257977466
17.5638232424870822 22.5865295988365347 4.2755534783882521
17.6779614423934284 22.4082380095655616 4.3855688497212917
17.7845254325223294 22.2325094376691155 4.5090723590486625
17.8818933658004937 22.0620293194856565 4.6451118894198302
17.9686582752804469 21.8974275318698943 4.7923472796562478
18.0439366239966539 21.7380010277613742 4.9483583324101463
18.1078251816542917 21.5827370736857702 5.1094704437461242
18.1616981017649124 21.4308785719139117 5.2715034616479759
18.2078797192227739 21.2818764449025721 5.4312051937074735
18.2488388768494616 21.1349771206204196 5.5872202947451104
18.2866866203422873 20.9887847428371828 5.7398204342803272
18.3234129815802262 20.8411302784822325 5.8897955479329500
18.3614347820229931 20.6896130556539504 6.0371223709869088
18.4038252759024914 20.5326649885586505 6.1798931689249006
18.4540817291866652 20.3700352033678875 6.3142744240288788
18.5156622247180920 20.2021915722121008 6.4355477132138592
18.5913796706503085 20.0300228412154055 6.5390190855555357
18.6826825208279601 19.8556181786281627 6.6202607801100157
18.7892673488146968 19.6825982907559300 6.6754875361172967
18.9094257030145272 19.5147092550464976 6.7024751100142925
19.0405778619578925 19.3540309726082285 6.7012133900512350
19.1793602573529007 19.2005217542624784 6.6737105413266082
19.3217973940684971 19.0525711191397278 6.6232938298657018
19.4642650630191092 18.9074899552816618 6.5539019241565484
19.6045415983162385 18.7619120288016283 6.4696578987031721
19.7416894812473771 18.6126527600837264 6.3748896465897218
19.8750081235157374 18.4578523426636636 6.2742573511263711
20.0032286248717028 18.2976422381784403 6.1724689617778612
20.1247593117318964 18.1336656535520895 6.0736667145574224
20.2389237219243228 17.9674584013128467 5.9807038676695132
20.3469191537836274 17.7989138789552541 5.8947284602019305
20.4512148782404637 17.6262022643857321 5.8156650032378714
20.5540674248476449 17.4468919831786167 5.7434320672152026
20.6566215154835398 17.2592010008859873 5.6788722791408901
20.7589376706731024 17.0628788049406737 5.6236318800941696
20.8603163147333781 16.8595773019289261 5.5793238727489793
20.9594889808990885 16.6524321091080729 5.5468953928414635
21.0550022300463766 16.4446454362490186 5.5265434474963602
21.1460412036739456 16.2376840627224581 5.5179157719507312
21.2327758322517219 16.0309237958433926 5.5203921163866401
21.3155047985125918 15.8234097564387000 5.5333922373265700
21.3938900344144898 15.6151770320152039 5.5566152502153319
21.4674063161321094 15.4064651603248031 5.5901348676174205
21.5358992620039231 15.1969697680627718 5.6342600178976312
21.5991655998160326 14.9867813518945923 5.6890910547501878
21.6563087896990538 14.7773700265247285 5.7540379734128102
21.7060473581356952 14.5707925453518605 5.8278327515561354
21.7477505916586225 14.3680794023444403 5.9090915779308837
21.7821189721901689 14.1685726263862399 5.9968402625960895
21.8109513941747792 13.9706867067796239 6.0903484951549487
21.8364126569813521 13.7733015250554836 6.1883216795772586
21.8606055272342559 13.5763660389372660 6.2883266497466153
21.8858392639142281 13.3802180266946706 6.3870223503462107
21.9151439905748759 13.1849793319094939 6.4805553236091527
21.9522742149179422 12.9909804607526098 6.5644331535244547
22.0010400340587076 12.7992391211566847 6.6333443865067991
22.0642562483221845 12.6109766239464527 6.6816959756638976
22.1426796536540067 12.4269337806154532 6.7047034251263806
22.2345626353366761 12.2473648244480504 6.6994129834848550
22.3363638485565446 12.0723331425923028 6.6652496587135666
22.4442691666418490 11.9019158060296917 6.6040300048241019
22.5553771256817512 11.7364186470573717 6.5196559496611304
22.6678808237622498 11.5762793894498941 6.4175262985363926
22.7806974904359514 11.4212864073100651 6.3034538446709671
22.8932040633255518 11.2695643786280080 6.1824162726670711
23.0050506424672143 11.1175699354994855 6.0580604441317814
23.1157732509889229 10.9616106401960085 5.9333084389541906
23.2244288068341511 10.7996599812250107 5.8112523498320368
23.3296094260200171 10.6320270264122669 5.6954473208292011
23.4299973301728812 10.4604261732913830 5.5892455353442649
23.5252049130187011 10.2859841730357751 5.4946950901948721
23.6160599238387725 10.1077515903461688 5.4121700025688355
23.7038465160044538 9.9230774002878093 5.3411889715374414
23.7893180934862976 9.7291426747024587 5.2815002792557753
23.8724104911457893 9.5241199074339171 5.2334900004819112
23.9525426669900057 9.3074971963361666 5.1979319866919571
24.0288182929726020 9.0800709086223623 5.1756054523929613
24.0998932099239269 8.8440814905112148 5.1670697390488929
24.1639739018467345 8.6033191108630582 5.1725015011766455
24.2192648378995266 8.3625884944600415 5.1915485005318249
24.2645472021456463 8.1264589458986372 5.2233560702382462
24.2994946022725777 7.8981355050402957 5.2667957541986308
24.3246115478735589 7.6792212576916796 5.3206674566326058
24.3408945694357257 7.4702498742512606 5.3837212982603226
24.3494401719801914 7.2712578024313306 5.4546525662806875
24.3511223972680781 7.0816394787333801 5.5323999290774406
24.3463145486904899 6.8991167603345547 5.6168490879778599
24.3347588773242016 6.7190873224221059 5.7092970970465480
24.3158150190910121 6.5363174448707753 5.8115977461454360
24.2889971811346435 6.3483306038555440 5.9242406924629769
24.2543467526315091 6.1567873634899382 6.0453505743591869
24.2124007311063210 5.9655248799403173 6.1714459164840836
24.1640064711909659 5.7777933989262884 6.2986456726416264
24.1103594059120816 5.5947035455564071 6.4232059132712571
24.0533704505741532 5.4144376278011546 6.5416388481540562
23.9963221591912550 5.2313778672934266 6.6509483749680207
23.9447866658922806 5.0360862983396739 6.7490021392906332
23.9071571321785754 4.8187311482107287 6.8348779945248594
23.8931293052179008 4.5767399874550145 6.9090796850537535
23.9095415709282406 4.3209181684006133 6.9732720431267738
23.9563866333681794 4.0708188347475671 7.0296044918895655
24.0272115388000778 3.8411690356119124 7.0802211057624271
24.1136998740269242 3.6341040513872507 7.1271001725308301
24.2096737762285699 3.4431167857836638 7.1718771745228640
24.3119168572887965 3.2605937494650128 7.2156567499763860
24.4191088965451577 3.0815761752646438 7.2590208415886153
24.5307191135792451 2.9036964311087754 7.3022039330715245
24.6464476924519538 2.7259737128199681 7.3452737123924638
24.7660425057849949 2.5479505515688725 7.3882373069161451
24.8892578131194213 2.3693200971920874 7.4310847048673896
25.0158481808534781 2.1898097940627910 7.4738020409796899
25.1455680881547750 2.0091533872645062 7.5163747540772894
25.2781719879094950 1.8270855659914993 7.5587881816159950
25.4134143291350476 1.6433411353652687 7.6010276491749789
25.5510495605043424 1.4576549121720248 7.6430784812275849
25.6908321306770517 1.2697617141554645 7.6849260021676322
25.8325164883140204 1.0793963591227858 7.7265555363848186
25.9758570820763559 0.8862936648845494 7.7679524082687195
26.1206083606251731 0.6901884492514316 7.8091019422089172
26.2665247726216400 0.4908155300341210 7.8499894625949924
26.4133607667268713 0.2879097250433187 7.8906002938165241
26.5608707916019959 0.0812058520897168 7.9309197602630972
26.7088092959081678 -0.1295612710160050 7.9709331863242880
26.8569307283065193 -0.3446568264631509 8.0106258963896781
27.0049895374581652 -0.5643459964410269 8.0499832148488473
27.1527401720242594 -0.7888939631389373 8.0889904660913743
27.2999370806659378 -1.0185659087462042 8.1276329745068470
27.4463347120443295 -1.2536270154521283 8.1658960644848406
27.5916875148205634 -1.4943424654460173 8.2037650604149377
27.7357499376558216 -1.7409774409171632 8.2412252866867224
27.8782764292118586 -1.9937971240545806 8.2782620676899228
28.0190214381594416 -2.2530666970430122 8.3148607278163027
28.1577394132829149 -2.5190513420136700 8.3510065914831717
28.2941848045697455 -2.7920162405327158 8.3866849833763872
28.4281120727471794 -3.0722265691276718 8.4218812305604445
28.5592757595117916 -3.3599474662082471 8.4565806778939994
28.6874309218996828 -3.6554438248320587 8.4907687826374847
28.8123353774277078 -3.9589791912023831 8.5244316000461176
28.9337593110715510 -4.2708107911059514 8.5575578507251038
29.0515187612214021 -4.5911704250975802 8.5901461220175115
29.1655680193030626 -4.9202019671590342 8.6222249337546941
29.2761903031057642 -5.2577876368961114 8.6538956987243978
29.3842505989144023 -5.6031435075479443 8.6853976216553122
29.4912652882039588 -5.9540648186772849 8.7171601292491605
29.5988668738471290 -6.3059312370827527 8.7497793437899034
29.7075787739504840 -6.6512054640409595 8.7839009768620606
29.8157912249207619 -6.9807306974876546 8.8201170370295117
29.9202628423570154 -7.2872386485641272 8.8590108814118977
30.0180643195219083 -7.5687778359618463 8.9012860784564349
30.1081140365587459 -7.8287528915267082 8.9477653446212511
30.1910477399724257 -8.0727387776963440 8.9992336780132245
30.2681060547294756 -8.3054578594385262 9.0563085286542542
30.3402615415100527 -8.5298939271031280 9.1194226998399710
30.4079486878535299 -8.7478079318308417 9.1888469033704823
30.4711046738013458 -8.9603197836684743 9.2647098324773935
30.5293212172290680 -9.1680435563551477 9.3470379528459375
30.5821022358630579 -9.3710083550465306 9.4357933617053487
30.6291587417485438 -9.5687559449440904 9.5308728738375699
30.6705953279577095 -9.7607118943935589 9.6320941287818478
30.7068485272218474 -9.9465792078201787 9.7392070021948971
30.7384476327146849 -10.1264599256285450 9.8519568347214737
30.7658130223462436 -10.3007226890098700 9.9702190915663174
30.7891367063128598 -10.4698508678810072 10.0941249218859532
30.8083100315189711 -10.6343891086746112 10.2240176478321487
30.8230376942785789 -10.7949969235709595 10.3602616218044865
30.8331960321855085 -10.9525071487464274 10.5030760748320784
30.8390935022885877 -11.1074605935153841 10.6521698076477769
30.8412735927470933 -11.2587448057567663 10.8057770762932641
30.8400489557864006 -11.4028725053569033 10.9602283249599193
30.8352131281919242 -11.5364241530259655 11.1123113509175937
30.8260858040621670 -11.6599882938329529 11.2628925154989847
30.8117483146106395 -11.7780712243911871 11.4164757477629024
30.7912102334949083 -11.8949258959696671 11.5769499056315901
30.7633486750638241 -12.0118535763898215 11.7452699836107364
30.7268607272004317 -12.1280656826275361 11.9203600931803084
30.6805549263917072 -12.2428385566905717 12.1002178970516709
30.6238694283074473 -12.3567140607190566 12.2819364953619594
30.5571329141853028 -12.4711820506353526 12.4617942750127799
30.4813548399361736 -12.5877783248268855 12.6361592326128918
30.3976935565591084 -12.7079700684317736 12.8026019069613977
30.3069100147652151 -12.8337863301909572 12.9605151458449459
30.2093216204352473 -12.9678906114401116 13.1109393271877703
30.1058846403052414 -13.1125408054417250 13.2554137817272721
29.9999850747737185 -13.2682535185740917 13.3944252682056320
29.8978666189031372 -13.4334705643224197 13.5271342033983828
29.8065311393119217 -13.6056942478671488 13.6532518687694360
29.7310420179414265 -13.7830917740448307 13.7751310048693068
29.6736808720024925 -13.9653367180123844 13.8977104179112914
29.6351917409875050 -14.1527211716037371 14.0261610033713957
29.6166426330471637 -14.3434440374029819 14.1624974325372044
29.6203981474456661 -14.5315930477685065 14.3034958369101339
29.6492556558610758 -14.7095189329014921 14.4425362247998628
29.7039650254014056 -14.8732481485295764 14.5741709875039707
29.7811154805617058 -15.0247545215646277 14.6965051883532176
29.8734279093898465 -15.1698301251756682 14.8100878741928010
29.9720439614482750 -15.3151155976499780 14.9159743900305060
30.0688246361430274 -15.4662842921507888 15.0151672304094994
30.1574646808330336 -15.6269522068482338 15.1094996285491696
30.2333464322862682 -15.7980832115535357 15.2021996270472499
30.2925271539340990 -15.9782811808113401 15.2963804025673671
30.3308040542846626 -16.1650315623045628 15.3922969334532205
30.3437996466872413 -16.3564183587888969 15.4862082679842512
30.3281508372417399 -16.5522222193044755 15.5722334956639301
30.2835361326386199 -16.7529000413091822 15.6458892821539557
30.2151978128309153 -16.9571251534585947 15.7073918766709468
30.1349984318646840 -17.1609404118506426 15.7634640051329686
30.0588956459880414 -17.3597882281910891 15.8268872101032478
30.0017924249491514 -17.5499877914719455 15.9127301179202849
29.9725800552856434 -17.7279520380404634 16.0313877646788079
29.9717032080899841 -17.8904912193726915 16.1834863398231406
29.9928024909491207 -18.0367886536614002 16.3617114689118104
30.0265570382659135 -18.1688628660725549 16.5566128917730495
30.0632260487308969 -18.2901865424603898 16.7602221153916098
30.0936748158993090 -18.4042633490376808 16.9659892891202801
30.1105797619950302 -18.5140667658089377 17.1682012910832711
30.1097035810046236 -18.6221431255084759 17.3631282667190767
30.0900095627126021 -18.7308753987202223 17.5507541926995998
30.0525333402728805 -18.8422712483842574 17.7340294475284068
29.9992347175663916 -18.9575122718044007 17.9161093929800010
29.9326430000068555 -19.0767827542878159 18.0985276771623305
29.8559194898422007 -19.1992758052654189 18.2813278754184942
29.7723873778882258 -19.3231882477495525 18.4639344565472712
29.6843934870215982 -19.4462675659615130 18.6456651733787560
29.5924424962448107 -19.5671455428864896 18.8259150569915406
29.4954297909518885 -19.6861243364112326 19.0042670871929609
29.3920360757703421 -19.8044739965539272 19.1801438972502254
29.2821226334714524 -19.9230438227267790 19.3522823430034983
29.1668833489036849 -20.0413981193604336 19.5188756961691965
29.0479084111991455 -20.1580621537055968 19.6782622977560635
28.9259534375061200 -20.2719799132806529 19.8298085129662169
28.8008988220760855 -20.3834242678087065 19.9740266891717333
28.6731743941376855 -20.4933204606264923 20.1116594929840957
28.5439522074275480 -20.6028727942415060 20.2436024014976148
28.4128925702380961 -20.7145800858456326 20.3720041076931295
28.2775753894986828 -20.8318531764577628 20.4989834864309302
28.1356468794284638 -20.9565909224612525 20.6232918635399045
27.9854900917878417 -21.0880099890841137 20.7395375086861904
27.8251341470602753 -21.2238127504914118 20.8405843684141807
27.6527793336909973 -21.3617321227099453 20.9202283641265083
27.4686784200543741 -21.5003043548699679 20.9748219911945526
27.2752877818596957 -21.6389881333450376 21.0036408786389970
27.0754286644101754 -21.7777364791172374 21.0079754998362311
26.8712211044756835 -21.9163506314837946 20.9897381360888069
26.6647513512351715 -22.0540119760748894 20.9507904447579314
26.4584567563766768 -22.1892412304803628 20.8932567061584997
26.2544839720321654 -22.3203931998483327 20.8201010788373111
26.0547588302650155 -22.4461301028672793 20.7350886555015350
25.8613182775067898 -22.5656379144187937 20.6414227643329866
25.6760278315255697 -22.6786964924503067 20.5400989235953269
25.5002056522337277 -22.7861184335255231 20.4303781233669746
25.3330023907912398 -22.8908111139198382 20.3126272153409744
25.1691437834610525 -22.9978131001025119 20.1907275192299522
25.0004165500336519 -23.1117338663944025 20.0728289032280216
24.8206770789965532 -23.2338646138472740 19.9701044216662638
24.6289162965950439 -23.3625512770223125 19.8925921282231286
24.4283676653606960 -23.4959879173097690 19.8442818801050720
24.2237673736330237 -23.6339480102279822 19.8213157893950971
24.0194360954947044 -23.7764376945932767 19.8150151340383189
23.8188794427012311 -23.9210380849426514 19.8175390255057877
23.6242196341706787 -24.0632067730381252 19.8256797121337947
23.4350410944563841 -24.2001908234063166 19.8401910871384288
23.2492090992298159 -24.3332051261098030 19.8620913584945953
23.0655543938938870 -24.4648608525787097 19.8891695276359854
22.8844751687963281 -24.5960163493187807 19.9148075450118469
22.7066619202906850 -24.7252381649482942 19.9292633199315041
22.5330194872547658 -24.8500346336253131 19.9223534817636967
22.3655864095795458 -24.9683841323202103 19.8860887878260222
22.2069983485540021 -25.0796437266631145 19.8161297986160534
22.0588404856396494 -25.1841075636926135 19.7122717024358387
21.9217073463783017 -25.2811891950617422 19.5788413246562598
21.7970372152697642 -25.3682482575914960 19.4239177950440585
21.6872627247222489 -25.4419507206483502 19.2555893418800217
21.5936579906701667 -25.5007106862825879 19.0777550555831716
21.5148385555779704 -25.5456786177085675 18.8897760749200572
21.4476677141983707 -25.5795156755244335 18.6900098302669484
21.3889066391358611 -25.6045352482280322 18.4785413730253403
21.3363549315565066 -25.6216990592217897 18.2575570857038159
21.2894865177177337 -25.6306858421462849 18.0300248620157149
21.2492381168784625 -25.6304349845303534 17.7971412151145039
21.2168249263605091 -25.6196597317783414 17.5571970069049712
21.1924442603041285 -25.5972259280395491 17.3075746681286553
21.1751451360416638 -25.5624658705629955 17.0482376920355492
21.1638030894977867 -25.5157675590640309 16.7837752250293448
21.1574344845108264 -25.4594289522698887 16.5232239209352976
21.1541861094608699 -25.3974883724938181 16.2769956373411944
21.1508054019515939 -25.3335839528260252 16.0493382075494004
21.1438595041868922 -25.2691331042231155 15.8350528798435271
21.1314539884947479 -25.2038196615905932 15.6257123806201470
21.1136790691307539 -25.1366298194983884 15.4164033265732883
21.0916621120998009 -25.0662158886478750 15.2064346070335539
21.0661745971157899 -24.9914274961870007 14.9970337252829307
21.0364300811955616 -24.9122237010481840 14.7896672083434382
20.9994176574560960 -24.8296679240164480 14.5846506066908947
20.9508284000216349 -24.7445672817122215 14.3801051084962577
20.8878547544347164 -24.6561916619928141 14.1734874341422241
20.8116217788894886 -24.5625135930264662 13.9648242268215892
20.7267096154052552 -24.4616017294077608 13.7577669321061489
20.6383539793550419 -24.3525454334610032 13.5574691346231315
20.5500834898420877 -24.2354968738325240 13.3681772481842298
20.4632694230060181 -24.1110735085342327 13.1922666020802843
20.3779195879760344 -23.9792170903607982 13.0300603636534049
20.2936700745589818 -23.8384585467176962 12.8807024689449179
20.2101870177871632 -23.6858715547532697 12.7440308976753993
20.1272256092650856 -23.5174863114299058 12.6225267103138599
20.0448490685988752 -23.3291567557050996 12.5213772711702997
19.9638034997857368 -23.1184645951257082 12.4454047066932620
19.8857099365868315 -22.8872166592516422 12.3952551727808764
19.8126263371143487 -22.6414524057340429 12.3663658595282548
19.7464298529821498 -22.3884632170109867 12.3516620604142808
19.6885127400715909 -22.1339831834081480 12.3451391875521921
19.6397524384800519 -21.8814380214768605 12.3434746796598240
19.6006216360860677 -21.6325720942605599 12.3454690129826279
19.5712075118090034 -21.3883242243526226 12.3505879872490443
19.5509122795632351 -21.1491707906525193 12.3578086378190068
19.5382853522936166 -20.9145280238058007 12.3654942776552801
19.5316500847298187 -20.6817248327772987 12.3723012352021975
19.5300941671862844 -20.4459310808446588 12.3780581029534744
19.5337518289977226 -20.2020186238728314 12.3833985162894926
19.5430890106712880 -19.9474229935968204 12.3885315965851177
19.5578938311291246 -19.6842329497768418 12.3926677179263152
19.5766902490086352 -19.4200986582444628 12.3945171652735091
19.5969061128223210 -19.1660907373086005 12.3929312538328738
19.6158037968797565 -18.9295492941987362 12.3871964967383015
19.6314250573972480 -18.7092714930099895 12.3770111122493809
19.6428361486947622 -18.4982271917655865 12.3622349863187324
19.6495693197718282 -18.2892731643330215 12.3426960064917726
19.6508114104417082 -18.0777186443668505 12.3181025781236393
19.6450745043983019 -17.8611024915790537 12.2880599198139500
19.6305609942767170 -17.6392677162345279 12.2523932486844469
19.6057536574740325 -17.4146806381154846 12.2114653244336822
19.5696603239667226 -17.1914032453748149 12.1658991006637969
19.5216546311200325 -16.9731559381330683 12.1158824318139935
19.4612632303314044 -16.7619066689988365 12.0607615793821612
19.3881981509361694 -16.5577002767842103 11.9992937421380788
19.3025900199467770 -16.3594642863128712 11.9302105750713672
19.2052029524141119 -16.1660122809990838 11.8525409004887408
19.0976103888541608 -15.9768278991835686 11.7657469223184634
18.9824009924873458 -15.7925086392805554 11.6700352249585428
18.8632145209109900 -15.6145988562193772 11.5666923385875560
18.7441716288649438 -15.4444667491817142 11.4578449848901922
18.6286406217013756 -15.2817535980044497 11.3454126073015331
18.5182196396352694 -15.1240258152187330 11.2301277194088467
18.4128965248712042 -14.9681194844218837 11.1116991006057084
18.3119625133839321 -14.8115151594248502 10.9897949854948891
18.2146967169399332 -14.6524873184252904 10.8647019174011028
18.1206154583242522 -14.4895427738328166 10.7372424787541139
18.0295621591358781 -14.3211671744034561 10.6083866336390216
17.9417233153276108 -14.1460881852420322 10.4789935387103199
17.8575156195785993 -13.9635278803090905 10.3498494444653169
17.7773976797184758 -13.7730804643518638 10.2218694121869245
17.7016942394222418 -13.5743986971805910 10.0961177509590350
17.6305514138461668 -13.3670224644833944 9.9735739408988504
17.5641097828425714 -13.1504545701756079 9.8551713831431194
17.5026457778108693 -12.9243872555149437 9.7423123813577526
17.4463619257869915 -12.6890152022093226 9.6370636482267429
17.3951252678415784 -12.4455834858828034 9.5414382557128974
17.3487221434686063 -12.1972835047284214 9.4565526804082332
17.3073734504844481 -11.9497440060203743 9.3825873901330894
17.2716931384450696 -11.7094802185471387 9.3191563901292476
17.2419362470493347 -11.4801194269110773 9.2652934817833614
17.2174131389847282 -11.2596204933004351 9.2193049715192110
17.1967549173091498 -11.0416850361381975 9.1791360591668401
17.1785176094810410 -10.8201118382044008 9.1430604035570813
17.1613975359662305 -10.5929444687097210 9.1101882062307311
17.1440790382629160 -10.3636839140171304 9.0805213803220539
17.1251138752665639 -10.1376034940621444 9.0544248734686370
17.1029426188572593 -9.9153406019085395 9.0318510778957020
17.0759378783979834 -9.6895435917906347 9.0120208423263293
17.0425307304841027 -9.4467546239120921 8.9936850366399970
17.0017632139761830 -9.1735650168999179 8.9756532224935928
16.9542029408991723 -8.8644915952906516 8.9573120931708363
16.9022275479879198 -8.5254906534930903 8.9388054339166025
16.8490138753810115 -8.1692351569433157 8.9207141799023315
16.7971832572803059 -7.8075586450775347 8.9035938080297825
16.7482302522226263 -7.4477280314113941 8.8877556972364360
16.7027360387714054 -7.0929647424928461 8.8732972522949947
16.6607958510612448 -6.7443007232550798 8.8602039781817830
16.6223142090917477 -6.4019154701113692 8.8484199048257466
16.5871374643294089 -6.0657343101449612 8.8378774917748437
16.5550977693231971 -5.7356226386513391 8.8285067079618322
16.5260244513297252 -5.4114344681421400 8.8202371069433241
16.4997463738217860 -5.0930220514679121 8.8129981896458798
16.4760923369755332 -4.7802374189755028 8.8067194522871119
16.4548911337512287 -4.4729325779891553 8.8013303908724545
16.4359715564204905 -4.1709595338913488 8.7967605014222450
16.4191623971999121 -3.8741702919322005 8.7929392799611374
16.4042924483024137 -3.5824168573546480 8.7897962225142976
16.3911905019407129 -3.2955512354013088 8.7872608251069355
16.3796853503275130 -3.0134254313148059 8.7852625837642577
16.3696057856755175 -2.7358914503377552 8.7837309945114814
16.3607806001974367 -2.4628012977127760 8.7825955533738149
16.3530385861059813 -2.1940069786824861 8.7817857563764701
16.3462085356138402 -1.9293604984895065 8.7812310995446587
16.3401192409337312 -1.6687138623764479 8.7808610789035892
16.3345994942783648 -1.4119190755859314 8.7806051904784734
16.3294780878604371 -1.1588281433605783 8.7803929302945232
16.3245838138926587 -0.9092930709430007 8.7801537943769468
16.3197454645877329 -0.6631658635758217 8.7798172787509579
16.3147918321583276 -0.4202985265016732 8.7793128794417861
16.3095517088165352 -0.1805430649635316 8.7785700924750358
16.3038538867655376 0.0562485157906512 8.7775184138818823
16.2975271580980348 0.2902242104510790 8.7760873397632118
16.2904003137530751 0.5215320130638386 8.7742063669526846
16.2823021345186625 0.7503199120262938 8.7718049987774958
16.2730613257340764 0.9767358539404292 8.7688127871812682
16.2625061189835378 1.2009275246674083 8.7651595915036715
16.2504622377505399 1.4230412429847288 8.7607769074990074
16.2367442579890024 1.6432173410634405 8.7556035187354091
16.2211254427944027 1.8615744741639784 8.7496050604452318
16.2032526767067928 2.0781673877629885 8.7428274609153380
16.1824584271528416 2.2929009538848693 8.7355046548850304
16.1574534198126329 2.5054105391143935 8.7281884526281743
16.1260106718990457 2.7149816004476950 8.7217200170613758
16.0849278934840569 2.9206037400709270 8.7167093087675944
16.0305811436241328 3.1211235630551943 8.7123740250136059
15.9600924553580548 3.3153185779354075 8.7053773506649037
15.8726606173941853 3.5019543557058501 8.6900616502711863
15.7702931214145590 3.6802278619301347 8.6607759930197084
15.6573624235104685 3.8504576030096791 8.6148340976281688
15.5391578480811212 4.0141769866576658 8.5536869128625206
15.4202700174080221 4.1736351810812371 8.4817465891052173
15.3035800890243401 4.3314991582858111 8.4042946204725038
15.1901014427970811 4.4908111655647609 8.3258248189766650
15.0795720654828997 4.6545797664572524 8.2493734724123833
14.9715373056694556 4.8248202957608743 8.1768140146200317
14.8661757304592843 5.0018369094704882 8.1095589926570373
14.7641854312670393 5.1846654181886551 8.0489443425859974
14.6659496551907456 5.3725203763202947 7.9961109240175450
14.5710510686457990 5.5657381261631054 7.9518170340745513
14.4788266671379517 5.7649625153067063 7.9166171458220305
14.3892858668023251 5.9695883838655099 7.8912195316932277
14.3033794696737253 6.1774412907550698 7.8766238391771131
14.2224349965516446 6.3862227569499304 7.8739921128829096
14.1474302391195881 6.5951696101874955 7.8844490628214547
14.0788785917087740 6.8048877479457488 7.9088680442849144
14.0172918120891854 7.0154293235182079 7.9475632659823390
13.9634552568815717 7.2249828863943151 8.0000511926593205
13.9181398086093218 7.4307926927634753 8.0651420864472136
13.8817205137025308 7.6310181931983019 8.1413071645737674
13.8540740823177391 7.8257104169724974 8.2270811333082214
13.8346076711237860 8.0165476816714882 8.3212293615990536
13.8222141989131693 8.2057599743410865 8.4224363251601169
13.8152183767555581 8.3948930856779125 8.5286334587460750
13.8114177193261121 8.5844109191388078 8.6366474458557185
13.8081138386602866 8.7744583886070373 8.7425662878035286
13.8020094297509477 8.9655240433250309 8.8421271724684694
13.7891918698843483 9.1580938775021412 8.9305576826205382
13.7655077352767261 9.3520527640037265 9.0024370393412010
13.7272857487763584 9.5466831180113267 9.0524010346990984
13.6722187458070970 9.7407854235726070 9.0764661521228547
13.6001883460114978 9.9325162039215869 9.0731180500255704
13.5135129916304173 10.1196702156156775 9.0436473251640024
13.4161759454078666 10.3008809922977598 8.9916794704506344
13.3124976964240123 10.4767132826012226 8.9221960693137419
13.2061886540533369 10.6494707601476097 8.8405723896548203
13.1001071327527541 10.8219211080752906 8.7520064648579599
12.9963977678484781 10.9961090733795093 8.6611926139659587
12.8965959785694544 11.1731079568575193 8.5719800078110922
12.8017029454548510 11.3533802131210191 8.4871890936856254
12.7123286629539098 11.5372183402981783 8.4087145977773332
12.6287200973871485 11.7253159526902362 8.3377614376355691
12.5507017287257359 11.9189840448163391 8.2750966192135031
12.4778382168490847 12.1193545127862912 8.2212263346211873
12.4097442752070855 12.3261802525848090 8.1764403785366095
12.3460858589480953 12.5373968644449150 8.1408392649503121
12.2862356970702784 12.7499876133475869 8.1143226201530609
12.2292747381082822 12.9615718926630503 8.0965029930794969
12.1747219822267070 13.1716266228395966 8.0866867470617478
12.1233033992070727 13.3817252493771637 8.0839716899805385
12.0769295929403313 13.5944779522026380 8.0874210415493959
12.0379551164292877 13.8117430184586727 8.0962536976686650
12.0083241206410491 14.0340328921355333 8.1099839424097642
11.9889635575798383 14.2618512212067259 8.1284682041468361
11.9795038505446918 14.4962340163105967 8.1517412370616942
11.9782110001734310 14.7361297606170361 8.1795621496738598
11.9821055972035602 14.9757933977421285 8.2110476534152159
11.9874477920783296 15.2078104283912054 8.2449882663046381
11.9903309211383853 15.4292012848084070 8.2805240636405149
11.9866025456889744 15.6420185470701263 8.3172653261867282
11.9710520725855609 15.8490326920146245 8.3550199771375588
11.9368955426085730 16.0501389819274891 8.3934238946002075
11.8767880581539682 16.2416519693717589 8.4312342606022934
11.7855311126851525 16.4179894272266722 8.4656173627544309
11.6629189390555563 16.5747110188206968 8.4925655634722528
11.5143838166885146 16.7113641914114339 8.5088182309467175
11.3486029943268090 16.8321244962600822 8.5137630200059871
11.1739069883747160 16.9439484831376070 8.5094951957966671
10.9961647887470448 17.0539625452793437 8.4992707244023613
10.8189468957101766 17.1676669618443292 8.4861021726382653
10.6446251993653327 17.2884224323225482 8.4723869517085291
10.4749062255090788 17.4177277513812463 8.4600840427979982
10.3107677406361891 17.5556240832021722 8.4509269932426996
10.1526039590614019 17.7011834045430447 8.4465784310875485
10.0005160855411788 17.8533077341747628 8.4486480358524574
9.8544493036269678 18.0112754702160771 8.4586081923281675
9.7144528605332425 18.1744159182397489 8.4776878959694919
9.5810629000350769 18.3414884192787042 8.5067163045860745
9.4552788529346579 18.5108144535895818 8.5459815677682833
9.3378865013733510 18.6811951773316807 8.5952062877208082
9.2288193652449770 18.8523661746499194 8.6535534504849529
9.1271869929189364 19.0244297499601771 8.7195972412835587
9.0316359497759873 19.1971328927511919 8.7913874715858089
8.9402859912760935 19.3697488894117988 8.8665337081504205
8.8502411917896797 19.5412341829431035 8.9420512871408526
8.7572905723527974 19.7101219133885621 9.0141493534610326
8.6561532620240893 19.8738984509982046 9.0783765886690571
8.5413659544416589 20.0280498540324494 9.1301334600922637
8.4085855305509725 20.1658074140944237 9.1653330479975139
8.2557238030295856 20.2798325755626223 9.1814221100307467
8.0836572751053666 20.3657246806444050 9.1787979794481682
7.8961440286760141 20.4250919619572286 9.1614391719197794
7.6984812792234738 20.4656946341719888 9.1356399373715202
7.4958869255397502 20.4986920688214660 9.1077055122713162
7.2927875103482291 20.5351633399503655 9.0825374327145916
7.0927979778933210 20.5836243776166761 9.0639340814721105
6.8986871728456940 20.6490026268186639 9.0554270225049223
6.7122808503855236 20.7329141618735804 9.0599510530189740
6.5344706959435390 20.8346094783124371 9.0783188581430672
6.3653155512582433 20.9516435981795546 9.1083516960142106
6.2039500353614958 21.0800145779399841 9.1459229361789554
6.0480916785666476 21.2144219899831654 9.1868902024381836
5.8936102162366710 21.3491020915129965 9.2283154128555793
5.7354280630608390 21.4787818894324438 9.2684718957543186
5.5695821074670446 21.5988588709822196 9.3060771725073170
5.3945319233007822 21.7046342431695720 9.3395774750899339
5.2109908722191935 21.7904123709887259 9.3669605391078683
5.0211294786503746 21.8493073955917083 9.3859610305443191
4.8279836797722249 21.8743191244163349 9.3943437424980765
4.6351320795618509 21.8608729560363741 9.3901677760048123
4.4459175050739477 21.8097130840309106 9.3720577861956187
4.2619418068944022 21.7278992154445802 9.3394712669119269
4.0821174603118404 21.6267288322127662 9.2930130128191681
3.9034294654015333 21.5180676696875786 9.2348729783947210
3.7226103884035737 21.4115639863975851 9.1691573344380046
3.5371828203845683 21.3139315550630677 9.1015969146605791
3.3455730263357362 21.2299777095325410 9.0382007737178611
3.1470658715025630 21.1642142211598951 8.9835825716998947
2.9420713483903826 21.1212727145229238 8.9405222489412530
2.7324375734072448 21.1043252072386238 8.9111571661345543
2.5212840680074096 21.1131596215099044 8.8981130299557663
2.3122086002372355 21.1442681363804539 8.9039190065744975
2.1083279793791418 21.1931898896213085 8.9292603228051544
1.9115445466371135 21.2569452845704099 8.9721726582353796
1.7221338663911530 21.3346616074038309 9.0290268927107817
1.5392151402761642 21.4266263999221280 9.0959152151083700
1.3621401440723377 21.5330297714224912 9.1691239669919575
1.1915289647078899 21.6531191489659207 9.2449143325909091
1.0286888549933715 21.7847859487762427 9.3195401420275843
0.8738802257882052 21.9246364367168738 9.3897453767480208
0.7249430008821660 22.0685269981406300 9.4531541217508384
0.5773759687962059 22.2119706028020261 9.5083351279508737
0.4259625479629379 22.3499341482136273 9.5548445929087436
0.2670007328039330 22.4762932205040471 9.5931388590485014
0.0998522656468763 22.5831153913754221 9.6237478526385907
-0.0726955427282263 22.6602014618140473 9.6458802315703061
-0.2450583644181439 22.6959471666081072 9.6565475893306978
-0.4105708780676021 22.6812890402857832 9.6513806905631370
-0.5646921140322645 22.6160981356428366 9.6271439239947867
-0.7083845628544205 22.5126049088058657 9.5843252787413284
-0.8486879618095755 22.3917260223235033 9.5280294821925224
-0.9954764883989942 22.2756631717659488 9.4670085076359971
-1.1566917082107961 22.1821782927145961 9.4115963668658758
-1.3349158867784481 22.1219932796931502 9.3709927342893149
