BEGIN_0
9.0533641271796981 27.6918168309817752 4.6438442955505046
9.2412864981509557 27.5726956961073206 4.5903683606505243
9.4362737534319567 27.4498162549607123 4.5533837011841918
9.6380590725942774 27.3305947517560064 4.5341150818728480
9.8444463627257797 27.2204367375596377 4.5340936516279751
10.0513850619313878 27.1208331331077943 4.5548325318745597
10.2541518668279465 27.0302302685080207 4.5970233512757979
10.4488581343331308 26.9462491350036473 4.6598905336153376
10.6333832189159594 26.8670831294862751 4.7412813455366827
10.8074957850640683 26.7915886413324813 4.8385557432382651
10.9724202240340301 26.7188073650568327 4.9497239427472586
11.1302106863917754 26.6475905945360019 5.0737647549589582
11.2830770902237258 26.5766289540322447 5.2095998883971717
11.4327086225366319 26.5048263449779924 5.3546773920423458
11.5801857398710588 26.4315161050964917 5.5045609692012540
11.7268712650817442 26.3561939455262930 5.6536490050861854
11.8752628865172625 26.2782506389040620 5.7957668935099385
12.0286911581444951 26.1972489684344794 5.9238492844940627
12.1900965296378505 26.1135323365676939 6.0296449848752101
12.3607426508401410 26.0285160420383406 6.1048021054155974
12.5394850832587821 25.9443146157202555 6.1430984757636846
12.7232032718300214 25.8628724048065486 6.1423759154717104
12.9083347955359198 25.7851538374110305 6.1048204748340247
13.0922520519995285 25.7109977655573232 6.0355738472566021
13.2732350103578725 25.6397745347180148 5.9410738318955865
13.4497164888524541 25.5711999552453513 5.8281603898040224
13.6203822187576389 25.5055641555356480 5.7034525383985901
13.7852723101216696 25.4432650170697272 5.5722374040379368
13.9463472921062692 25.3841574654085704 5.4375895418717999
14.1064666211561232 25.3271935228646008 5.3007917623551375
14.2678422428659726 25.2703973754168345 5.1625232096225169
14.4314094960913888 25.2111627883745975 5.0236887866710234
14.5971919295333361 25.1467772208588052 4.8856089753343284
14.7648973652455542 25.0748447019698091 4.7499000458291825
14.9342514831285982 24.9933959740954599 4.6183290562558810
15.1050612347326449 24.9007887555680298 4.4927271520891736
15.2771493538704100 24.7956210433449087 4.3749521748556202
15.4502151548929767 24.6768403508870300 4.2668781229764825
15.6235994998071366 24.5441879920495154 4.1703853654668332
15.7960283274448248 24.3989582553478677 4.0872959207476622
15.9657018012730099 24.2445470553813607 4.0191597338157656
16.1311580175053138 24.0857752942237227 3.9668658436418465
16.2924682394754257 23.9267164891607536 3.9303225066204472
16.4512158029206930 23.7687567863853317 3.9086313209607990
16.6087394467092722 23.6109058717564082 3.9007669495124375
16.7645672038076938 23.4517307381282905 3.9061851294660048
16.9166313651370182 23.2907258979587013 3.9250030517012124
17.0626745426859543 23.1280594695301183 3.9579121775308916
17.2015068338978239 22.9634023290277653 4.0059683280310239
17.3333367926865911 22.7953106852920939 4.0701770411823439
17.4590957033655592 22.6222723937470285 4.1509215608718950
17.5792857446347028 22.4447569424094695 4.2476148972396182
17.6933085134464250 22.2658934707916565 4.3589894632601993
17.7997835802372606 22.0897161138986604 4.4838295647005726
17.8971608219808545 21.9189243576597548 4.6212378527640023
17.9840546319915298 21.7541599347212795 4.7700301873854833
18.0595327348436854 21.5947028721646319 4.9278886414279128
18.1235765212240345 21.4394846274069373 5.0911284047031522
18.1774207520635542 21.2876635246223458 5.2555107988003869
18.2233244776943621 21.1386161088066302 5.4176810577993741
18.2638181046965826 20.9915680774037199 5.5761126970029462
18.3011252863884408 20.8451684343941359 5.7309413936864484
18.3372806774330854 20.6973452587394959 5.8829672099514223
18.3746234440542828 20.5458552290518170 6.0322517044903670
18.4160295644371494 20.3894201430753768 6.1768367831771371
18.4646766490566101 20.2282957322555674 6.3126197932781523
18.5236499303750328 20.0635046272263153 6.4346376478008729
18.5956572625646857 19.8959134962367230 6.5383745295551208
18.6826563768994447 19.7264977964153374 6.6201036545793723
18.7852516256087974 19.5572715369927046 6.6767797776595934
18.9023549897039125 19.3911960709483964 6.7063454073163271
19.0314433121873705 19.2307653589806229 6.7083654062842673
19.1689528273773924 19.0768617806484926 6.6842213682756793
19.3107537632822179 18.9286202766886618 6.6367180051642638
19.4531124453341917 18.7837095419160072 6.5694933844698475
19.5936458053602323 18.6388291696859696 6.4865660185246146
19.7312284187911899 18.4907170673508077 6.3922396234106280
19.8650320987578333 18.3373636888139799 6.2911861508862827
19.9937561330788967 18.1786982216909969 6.1881946322129728
20.1158235802823775 18.0161561534790806 6.0875319393286897
20.2305313467761643 17.8511647841355270 5.9921783750512532
20.3389758427584262 17.6836769654267165 5.9034353997668827
20.4435328748482235 17.5120106938434112 5.8213898089345655
20.5464473692057474 17.3338409972346348 5.7460617858690419
20.6489065596149182 17.1474160357757022 5.6783233296156279
20.7509997946756108 16.9525052729294643 5.6198268562482561
20.8520081192289339 16.7508958260194163 5.5721983821715959
20.9505658433673183 16.5461333381247186 5.5363804379549162
21.0450001126254662 16.3421796693047057 5.5124982016558626
21.1342554080156297 16.1412901030153790 5.5000588263709780
21.2186244194053089 15.9427739019431254 5.4983391535282014
21.2991826811897376 15.7440516445277545 5.5068352970611372
21.3765829047966349 15.5427419273004013 5.5254908564502561
21.4506710348054632 15.3376934728207743 5.5546046777731508
21.5209248601383827 15.1289411393534596 5.5945629003992448
21.5866192372074188 14.9178491674822276 5.6454585700448838
21.6465793849230117 14.7071547843680968 5.7067241118886152
21.6993509504598130 14.4998933140576689 5.7770783677608222
21.7439550498204603 14.2979333517841436 5.8549065764023656
21.7806114714323620 14.1013178793583940 5.9388475775629281
21.8108375095566345 13.9085609115441500 6.0280988818083490
21.8368586414060353 13.7176210385877884 6.1220062260148396
21.8608784019405036 13.5271075361708082 6.2191613128951939
21.8849422748283224 13.3367115379102632 6.3169077355043299
21.9115527798181162 13.1464238585808459 6.4117035243004015
21.9442368390161242 12.9558010800913639 6.4995360728273717
21.9872545458330286 12.7643952703823871 6.5756890377378792
22.0444649516327793 12.5726927929809253 6.6344745674912193
22.1178529542707558 12.3823134058818667 6.6698899973045069
22.2065058156082245 12.1953606874347855 6.6771575623487767
22.3068528793775691 12.0136431534420183 6.6542376409028456
22.4142046748991355 11.8383573137049396 6.6023489134056845
22.5246183028362701 11.6701518882447939 6.5254118932505740
22.6357378458560703 11.5092630667335989 6.4289928438351946
22.7465202037757699 11.3551830199403643 6.3190397541081342
22.8567105697956272 11.2058500222852508 6.2006639131680750
22.9663716552426322 11.0575346283349081 6.0776604408588550
23.0753038478458272 10.9062745257464311 5.9530751971502998
23.1826305195239399 10.7497508472840657 5.8300830115834668
23.2868833247430302 10.5880039290009691 5.7123206117274279
23.3866347598540649 10.4225188731815557 5.6032772507687287
23.4813663653636908 10.2543307165471340 5.5051594204733139
23.5718209996141752 10.0826111399976828 5.4184229114727280
23.6593421299871949 9.9049137026294058 5.3425803863383621
23.7448581364526987 9.7185186007499773 5.2773831604051811
23.8284279172202957 9.5216196343084114 5.2233055016251111
23.9094071524153584 9.3139202180546725 5.1812271126660328
23.9867410441432760 9.0968073188101481 5.1518968731527721
24.0591166473611828 8.8730070949107063 5.1357131635219897
24.1251362600333081 8.6454774111748698 5.1328067302836793
24.1836354263207625 8.4162339594516116 5.1430992208126778
24.2338319444293759 8.1866226906593660 5.1662274436188387
24.2751777908087902 7.9587138054036384 5.2014907561691430
24.3073781532404851 7.7354809442483194 5.2479199166725810
24.3306272475653032 7.5197393759186761 5.3043383343560144
24.3456491421186918 7.3135597000145314 5.3692848050987418
24.3534328652473420 7.1184511488952271 5.4409716083178381
24.3548492950081581 6.9349805689544786 5.5177723458657457
24.3502587067395453 6.7609896865318726 5.5994613008546921
24.3392974951306620 6.5902977744983735 5.6881447016853812
24.3211443732847528 6.4152232704306469 5.7870372337690803
24.2951625412164063 6.2318516312966041 5.8975238274179045
24.2613419251731450 6.0421086097376246 6.0177132270779410
24.2202443146679798 5.8509529397561746 6.1436030535567134
24.1727474256056816 5.6626214866443130 6.2708522943833227
24.1200247682726960 5.4787252197790304 6.3955677035116878
24.0639013248086719 5.2975790276447032 6.5143421449269621
24.0075452572488430 5.1135530889586285 6.6242766425821724
23.9564487633667120 4.9171853045377789 6.7232137267459038
23.9190166048274406 4.6986463644138530 6.8100809873342563
23.9050530607204657 4.4553948074474077 6.8852203263538669
23.9215223463532354 4.1982964747415163 6.9502243904958076
23.9684786440338051 3.9469797758605853 7.0072536794631191
24.0394624936531933 3.7162195466311880 7.0584918243739505
24.1261277564912007 3.5081468197076635 7.1059540547031057
24.2222756146171321 3.3162172592345112 7.1513032862300214
24.3246820922576319 3.1327793461317608 7.1956615118656364
24.4320262803578778 2.9528506949612758 7.2396192582500110
24.5437785494581959 2.7740529663207525 7.2834137804324479
24.6596403057699654 2.5954014188672900 7.3271126677286853
24.7793604781453674 2.4164371845026853 7.3707218703075883
24.9026942969889546 2.2368527429556426 7.4142298826631583
25.0293972736065804 2.0563750346126817 7.4576212717550678
25.1592248263099201 1.8747373311525397 7.5008798946304740
25.2919323461319046 1.6916738529617881 7.5439895048073682
25.4272752200983270 1.5069189369212150 7.5869338436538118
25.5650088348749129 1.3202069316337344 7.6296966514036733
25.7048885771126763 1.1312721866644839 7.6722616682088898
25.8466698334637215 0.9398490516424332 7.7146126342171151
25.9901079905804053 0.7456718761999070 7.7567332895758696
26.1349584351151094 0.5484750099693851 7.7986073744326792
26.2809765537202082 0.3479928025833310 7.8402186289350704
26.4279177330480799 0.1439596036742259 7.8815507932305664
26.5755373597511024 -0.0638902371254559 7.9225876074666886
26.7235908204816610 -0.2758223701832438 7.9633128117909644
26.8718335018921408 -0.4921024458666583 8.0037101463509153
27.0200207906349306 -0.7129961145432357 8.0437633512940678
27.1679080733624083 -0.9387690265804931 8.0834561667679434
27.3152507367269557 -1.1696868323459562 8.1227723329200678
27.4618041673809472 -1.4060151822071543 8.1616955898979668
27.6073237519767645 -1.6480197265316079 8.2002096778491627
27.7515648771668246 -1.8959661156868304 8.2382983369211935
27.8942829296042056 -2.1501200000400438 8.2759453072617237
28.0352332959518051 -2.4107470299540950 8.3131343290204907
28.1741713629957680 -2.6781128557373393 8.3498491423730599
28.3108525188192175 -2.9524831271252108 8.3860734877662004
28.4450321630067258 -3.2341234887635881 8.4217911080462784
28.5764657812617315 -3.5232995469203789 8.4569857639908808
28.7049094034935699 -3.8202766614883679 8.4916413295192044
28.8301219528756789 -4.1253188424287348 8.5257422797682807
28.9518752119643068 -4.4386837705617879 8.5592757659849656
29.0699882336585240 -4.7606036582237650 8.5922388295010279
29.1844212569344066 -5.0912224883578041 8.6246584468083647
29.2954667672840401 -5.4304208618518501 8.6566342430256480
29.4039964941375089 -5.7774060242922758 8.6884023767973328
29.5115134427980088 -6.1299424414026902 8.7203854003977348
29.6195929820350692 -6.4833309386234923 8.7531649189279541
29.7286526814988399 -6.8298842502483090 8.7873635442583051
29.8369646748758512 -7.1602404620726681 8.8235511095817429
29.9412202852403695 -7.4669506862948936 8.8623103898897497
30.0385172923942534 -7.7480140166147073 8.9043797172260142
30.1278824112920454 -8.0069683491706201 8.9506360401887104
30.2100694008101662 -8.2496537064717046 9.0019000754224656
30.2863776728496177 -8.4810594042594190 9.0587825528515484
30.3577842631909149 -8.7043111207331805 9.1216791466772413
30.4247106416260387 -8.9211563263775240 9.1908279378473114
30.4870653088639791 -9.1326154670969615 9.2663618575193958
30.5444002554876981 -9.3392022970457589 9.3483576480525272
30.5962115451050494 -9.5408972437796358 9.4368449583421192
30.6422731933236960 -9.7372599774599138 9.5317562392280095
30.6827879451821026 -9.9277781518458355 9.6328878214553857
30.7182476412611365 -10.1122190159087388 9.7399356472929881
30.7491741800999847 -10.2907323858909230 9.8526163216085614
30.7759526591859789 -10.4637703565547078 9.9708774256347290
30.7987378457252632 -10.6320940075402675 10.0951631064701051
30.8173895957642259 -10.7969837849175718 10.2266397872475228
30.8315790213155054 -10.9604803301511566 10.3672610331703439
30.8410938347358474 -11.1250614431612789 10.5193197235784730
30.8460142060737752 -11.2919583376050063 10.6838900028416930
30.8465044095078653 -11.4588067774892011 10.8586825297997862
30.8424934081936577 -11.6197599092021626 11.0379829929886419
30.8336210348216646 -11.7694800885431512 11.2160675359336004
30.8193936599238363 -11.9068531621355831 11.3906236688959339
30.7992312120498113 -12.0344238586828247 11.5627034570114500
30.7722757856948661 -12.1553998883097343 11.7346680977130333
30.7371970522912328 -12.2719296719056778 11.9087419122483347
30.6923712569569425 -12.3854811262563764 12.0862732512022042
30.6365737625734837 -12.4977398229013694 12.2668414347586747
30.5697900183690159 -12.6106183212217502 12.4476343312639415
30.4934193495575379 -12.7257197720604296 12.6242368121630513
30.4094407208620723 -12.8444833413780088 12.7927402362391351
30.3191319972269433 -12.9689284528861251 12.9516719986746534
30.2226536326842243 -13.1017344745969453 13.1022581615904272
30.1203557424579422 -13.2451847107666261 13.2467447121781507
30.0149556391654038 -13.3998096646230564 13.3861832167096999
29.9122260196320546 -13.5640398564319469 13.5199218511980455
29.8191533854159445 -13.7353386062653726 13.6474978473489905
29.7413442959836871 -13.9118082762866457 13.7708190146664418
29.6817870344426851 -14.0930769693490596 13.8943951332845845
29.6415979610530798 -14.2794852243394637 14.0232761513231505
29.6218108709708261 -14.4694036301814997 14.1596893266436776
29.6245876211663450 -14.6571624774294058 14.3007831785477570
29.6525499344751999 -14.8353062851444513 14.4402745003163240
29.7063543227288243 -14.9998938939748179 14.5728824818619351
29.7825727817248982 -15.1527913778408738 14.6966879405859974
29.8739628036849929 -15.2997621228410239 14.8121433870584340
29.9717124577864631 -15.4479107171013155 14.9203970247267588
30.0676418801417107 -15.6045106345776574 15.0231478736444188
30.1550865020781380 -15.7765904695439190 15.1238701185086342
30.2283328766326562 -15.9699291234156924 15.2278289324734768
30.2813203306515852 -16.1862015160581620 15.3383484939723154
30.3074302637658590 -16.4193099640781526 15.4515588387340284
30.3017649265291595 -16.6560966249660574 15.5564693642361860
30.2644465309861985 -16.8840939780723787 15.6428807555760390
30.2021161505725857 -17.0985734219503271 15.7096963489125852
30.1271441644122042 -17.3014372712509541 15.7663184151569720
30.0550871800736736 -17.4958831842667983 15.8286996805200744
30.0005674915151026 -17.6826618256907331 15.9135841353354959
29.9727095452036281 -17.8591172146280819 16.0317284140334699
29.9724266906470937 -18.0214004783605013 16.1835879887398981
29.9937556285544069 -18.1679042162881608 16.3616402035470401
30.0276206958479399 -18.3002575282421986 16.5564060180181265
30.0644175912126208 -18.4218943850139389 16.7600579493756996
30.0950532845884204 -18.5363463350336595 16.9660990498029918
30.1121565179082715 -18.6464959952610876 17.1686073236816767
30.1114271436278926 -18.7547649068834907 17.3636037652737727
30.0918127432961633 -18.8635111126031632 17.5510292338949334
30.0543649254061798 -18.9748129584148870 17.7339624738628174
30.0010541287556443 -19.0899402110505285 17.9157039844141721
29.9344075446368656 -19.2091338723656619 18.0978716091642511
29.8575836318555830 -19.3316090399964757 18.2805417337393727
29.7739095126907856 -19.4555647219055601 18.4631504514272677
29.6857445738746932 -19.5787380530829722 18.6450120681482403
29.5936204733295085 -19.6997285018289929 18.8254779656757520
29.4964801723366179 -19.8187743255168876 19.0040235074795660
29.3930671835069113 -19.9370645885476243 19.1799230958175286
29.2832976315011528 -20.0553873815834791 19.3517949382786725
29.1683631793713722 -20.1733133792851866 19.5178306307558742
29.0497379172770813 -20.2894833593011121 19.6765418573064963
28.9279422464005229 -20.4030565004110827 19.8275978149114174
28.8025742252984962 -20.5145560989854800 19.9718302440520361
28.6740472835352129 -20.6249409081079662 20.1100257116419883
28.5443619292432977 -20.7347481389247292 20.2423429905082415
28.4149021425436814 -20.8450313686548583 20.3694197181506702
28.2844119829922818 -20.9581631961620545 20.4924843462593103
28.1493361959956303 -21.0769881003661723 20.6116138746496382
28.0050629526788128 -21.2032737684264703 20.7240808420500429
27.8471301793824857 -21.3368937961128253 20.8243235072772706
27.6728350664850176 -21.4762755344295968 20.9060120955618309
27.4834724143190208 -21.6188998746405616 20.9643081436509320
27.2840380450900177 -21.7620523867659941 20.9969330498981535
27.0795359012341841 -21.9039944198907222 21.0041139633224816
26.8726768934542335 -22.0441885034139915 20.9875900204274863
26.6650431873586946 -22.1823185670849199 20.9496130909189802
26.4585120984405222 -22.3174053979984137 20.8928163389786050
26.2551373878604153 -22.4479331798670287 20.8206508515979749
26.0571544582172052 -22.5724014845773553 20.7373307224751287
25.8667071653181218 -22.6899159999037892 20.6461669461854171
25.6846602968564639 -22.8007705104420779 20.5473602326868026
25.5102787537972375 -22.9068835789850667 20.4386108729023910
25.3414923629206932 -23.0118582471925848 20.3194284745216009
25.1741291142391610 -23.1201715841507962 20.1946409158108970
25.0020656555597256 -23.2352815742855938 20.0740673676190795
24.8204479460201206 -23.3576778804518312 19.9697608317732147
24.6289739737122737 -23.4850808995878708 19.8916948010832719
24.4321636354375364 -23.6145493222498857 19.8434811367281050
24.2363128455656032 -23.7445942077150463 19.8209393023351588
24.0450011531211594 -23.8759194185183858 19.8150997874130894
23.8565931524430574 -24.0104646026140855 19.8178253192707778
23.6663006361419370 -24.1494186789610978 19.8257793223897920
23.4710926060236389 -24.2917930037210397 19.8399276537397427
23.2727831559531850 -24.4348766501561983 19.8616270630193803
23.0766221444126316 -24.5758747789234846 19.8887418795910520
22.8867799329360331 -24.7130299754257123 19.9144316603531379
22.7040254443584537 -24.8453002274365602 19.9286827213112794
22.5277096639406089 -24.9715864843095972 19.9212252950705917
22.3586775604662051 -25.0907146952407203 19.8844265401872811
22.1994709064520670 -25.2018404774721603 19.8150461294848839
22.0523707739706225 -25.3043742298021570 19.7144930394721705
21.9182917856876465 -25.3974013510218271 19.5877089882984485
21.7973966710684337 -25.4797291147731926 19.4403925143145386
21.6896294923723332 -25.5506629609519820 19.2757021893436722
21.5947237291091056 -25.6100844642748555 19.0941529869341906
21.5121357808310947 -25.6580883792782402 18.8967052288577833
21.4408906389733076 -25.6951974613769636 18.6868660448225015
21.3794617665445550 -25.7224571817708565 18.4698446644698251
21.3261206119019278 -25.7408345039009632 18.2503786183812622
21.2797782453279041 -25.7506138077075732 18.0307078459117243
21.2405446356467422 -25.7512634023800260 17.8092418070316469
21.2090827731994516 -25.7416716071558298 17.5808698267802370
21.1852844552415647 -25.7205982804578213 17.3401265416799575
21.1679303045864273 -25.6872136120195051 17.0857293659072837
21.1557004390746535 -25.6417659454930700 16.8227616883107487
21.1477517101819679 -25.5861166816242900 16.5610606149828357
21.1427633342136332 -25.5233748601499428 16.3099009820243630
21.1381154273693284 -25.4567920946310764 16.0724495253033943
21.1307207442511995 -25.3888991623713665 15.8460982721322612
21.1186270968714958 -25.3209397540320822 15.6266290636099914
21.1016248534736910 -25.2524812371081637 15.4110346954645365
21.0804575816179316 -25.1817168812396446 15.1979044791145022
21.0556184907708186 -25.1068344362969853 14.9870197941592718
21.0262917145003527 -25.0275269304161228 14.7789842959743414
20.9897464531723692 -24.9450911601445853 14.5742141834017964
20.9423474117886741 -24.8610618686092764 14.3720001853637775
20.8823128036284977 -24.7759150343953607 14.1717517813279219
20.8116522612195709 -24.6888937026399589 13.9749744688414523
20.7349108474490649 -24.5985082992838571 13.7846330605343645
20.6561100030137723 -24.5028680597341264 13.6026887731462018
20.5771579598424168 -24.4002906648934612 13.4295965865145295
20.4984421656269866 -24.2899940331317694 13.2657300406495438
20.4196039177647179 -24.1714256128386680 13.1110811426570315
20.3402105826462680 -24.0436387211535987 12.9647118105066532
20.2606965428862260 -23.9061833193471713 12.8266415652341852
20.1823397449703741 -23.7590557897856485 12.6999084817791079
20.1057379075491980 -23.5998888426994640 12.5895458109664382
20.0300650962305582 -23.4225858422773925 12.5000271396589024
19.9544934106176868 -23.2212780429969143 12.4336108525070337
19.8799006259063127 -22.9959903679761908 12.3894722397864534
19.8086890776351083 -22.7532158491927774 12.3634902476762019
19.7434721406236449 -22.5015441753325902 12.3498616240349346
19.6861856542918190 -22.2476830177673364 12.3436227998209453
19.6379425238226979 -21.9954623131888951 12.3419660212694957
19.5992629895907520 -21.7467189419678348 12.3438381888978927
19.5702104268111867 -21.5024510165538345 12.3487264665609846
19.5501620842732287 -21.2632438886056505 12.3556535538230055
19.5376791125088580 -21.0286114524704715 12.3630604640203110
19.5311281331228592 -20.7959204206485779 12.3696574188105100
19.5296382267676485 -20.5603317664524141 12.3752719018932975
19.5333553862041356 -20.3166896514527373 12.3804952927868364
19.5427235895518834 -20.0623973371457645 12.3854889563537913
19.5574872615301700 -19.7995103231341574 12.3894331131644826
19.5761210484661277 -19.5356401230565027 12.3910256606978706
19.5960253859156417 -19.2818165797222534 12.3891293419587569
19.6144837821019884 -19.0453573709204065 12.3830728275755817
19.6295959025216753 -18.8250688056133200 12.3726009362757878
19.6404888833438633 -18.6139618208110420 12.3576038359730020
19.6467381662988174 -18.4049483281615807 12.3379271631930401
19.6475535141331576 -18.1933743420720546 12.3132800223087990
19.6414534983235782 -17.9767810783259350 12.2832486177779447
19.6266306242258786 -17.7549863061363773 12.2476331141556933
19.6015433519189166 -17.5304144801032535 12.2067737571028978
19.5651697594853218 -17.3070762639285682 12.1612688249228302
19.5168584839786341 -17.0886451598607927 12.1112763410048263
19.4561207081889904 -16.8770737254921102 12.0561142778652730
19.3826586405353396 -16.6724414954234135 11.9945195675550984
19.2965881013021487 -16.4737414523579417 11.9251969411281618
19.1986391344700422 -16.2798352196001019 11.8471142376773280
19.0903355234207552 -16.0902022646194602 11.7596427477913572
18.9742620623746703 -15.9053908702003604 11.6629443669517272
18.8541969938226046 -15.7268880422377464 11.5584244814124446
18.7345305142899754 -15.5560395594029757 11.4484930826294384
18.6188138929527049 -15.3925305315479228 11.3352823898072543
18.5085314633678770 -15.2340134588550171 11.2194289981963369
18.4033798055028797 -15.0773891563298079 11.1003589212822167
18.3024821822406736 -14.9201527667147928 10.9776234063861668
18.2051687942930585 -14.7605538624485213 10.8516552581995640
18.1110735623961645 -14.5970482407989373 10.7234276124437358
18.0200767021569312 -14.4280665936942256 10.5938568391920391
17.9323363312794370 -14.2523120639673522 10.4636584955189544
17.8482500917251699 -14.0690216436491120 10.3335718677257482
17.7682701835067967 -13.8778155437096267 10.2045248557177342
17.6927014547439612 -13.6783550741304722 10.0775331673549253
17.6216918536981240 -13.4701745235362154 9.9535500003111821
17.5554305213128359 -13.2527814462603075 9.8336963798279733
17.4942158184931529 -13.0258913175107338 9.7197113625118980
17.4381812544885015 -12.7897139797895285 9.6138477600079035
17.3871162692086259 -12.5454693634446564 9.5180625863986954
17.3408271512232020 -12.2962957528697636 9.4333593658085846
17.2996124175171175 -12.0477948821196001 9.3598166802190867
17.2641085089537896 -11.8065086269677764 9.2968859415337590
17.2345213608734369 -11.5761094474740673 9.2434178142530143
17.2101196972486505 -11.3545830733445179 9.1976164284459969
17.1895483138155214 -11.1356550444468354 9.1574256997396546
17.1713957727400768 -10.9131767357516658 9.1211827502190310
17.1543557746762723 -10.6852892287876244 9.0880932216109045
17.1371044796361218 -10.4557358041546067 9.0582579627885131
17.1182989322247856 -10.2305616702851765 9.0321317350302621
17.0967296627262755 -10.0124308643628197 9.0097801537070872
17.0714000775643200 -9.7977391592271346 8.9906061492069931
17.0413834664145902 -9.5771234964430008 8.9735535717675390
17.0056879478445140 -9.3375104526209896 8.9574112140046829
16.9636448242089308 -9.0665860978623414 8.9411477560865364
16.9158069292235709 -8.7596085890104582 8.9242973188254417
16.8643237311335739 -8.4227953938275988 8.9071068092103101
16.8120667148722163 -8.0688227583501053 8.8902268989917204
16.7613925194097604 -7.7094608797694200 8.8742616662816527
16.7136248340883498 -7.3519273189733099 8.8595538152783995
16.6692593114525742 -6.9994193370407700 8.8462171256213864
16.6283576725956266 -6.6529598376287424 8.8342431388137932
16.5908145981758963 -6.3127253754549528 8.8235765297401159
16.5564750298849894 -5.9786401953780306 8.8141482472631054
16.5251721210442568 -5.6505690586688644 8.8058860723969197
16.4967367625723043 -5.3283654311941611 8.7987172001839955
16.4709994901128951 -5.0118810331166230 8.7925687380717932
16.4477907934005998 -4.7009673639351384 8.7873677829096764
16.4269411572786836 -4.3954759003268684 8.7830414305147446
16.4082810661613223 -4.0952581170453914 8.7795167766243303
16.3916410044318184 -3.8001654887132812 8.7767209169710210
16.3768514564716590 -3.5100494899460077 8.7745809472872036
16.3637429066622495 -3.2247615953587445 8.7730239633052669
16.3521458393849954 -2.9441532795666578 8.7719770607575942
16.3418907390212951 -2.6680760171849087 8.7713673353765671
16.3328080899525645 -2.3963812828286652 8.7711218828945672
16.3247283765601949 -2.1289205511130831 8.7711677990439831
16.3174820832256025 -1.8655452966533286 8.7714321795571948
16.3108996943301818 -1.6061069940645680 8.7718421201665890
16.3048116942553314 -1.3504571179619607 8.7723247166045457
16.2990485673824601 -1.0984471429606728 8.7728070646034499
16.2934407980929805 -0.8499285436758637 8.7732162598956904
16.2878188707682838 -0.6047527947227032 8.7734793982136488
16.2820132697896085 -0.3627713707164446 8.7735235752898095
16.2758544795357594 -0.1238357462737145 8.7732758868581815
16.2691729843522310 0.1122026039701893 8.7726634286736580
16.2617992682061967 0.3454922051681795 8.7716132967299849
16.2535638114504160 0.5761815804533548 8.7700525893193202
16.2442970653080465 0.8044192367075595 8.7679084234051512
16.2338292827734350 1.0303535703734497 8.7651080441049292
16.2219895793273068 1.2541323445822385 8.7615794384978862
16.2086015864908362 1.4759002670261090 8.7572542007315040
16.1934668666285759 1.6957897069953720 8.7520785270357333
16.1763135709366956 1.9138916440682667 8.7460471364750809
16.1566709017813963 2.1301829252674942 8.7392838007821005
16.1336381649532754 2.3443854966025732 8.7321734280712882
16.1055990185839732 2.5557708479777403 8.7254521655079422
16.0700773685009253 2.7630096323359670 8.7199852381397704
16.0239819531581986 2.9642498439667193 8.7159220805075783
15.9642892498872069 3.1575793483238002 8.7113938590011841
15.8889639051264169 3.3418012136132855 8.7018194568573417
15.7978713723928301 3.5170806344344321 8.6810731348979537
15.6932633770920980 3.6849619804890290 8.6442464950669695
15.5791700876355836 3.8479074856923789 8.5899328479378774
15.4599044142588760 4.0088268950134474 8.5204631755803391
15.3390496236965319 4.1703993399764183 8.4406326156209204
15.2193700809727854 4.3344300472899322 8.3561491318680101
15.1028122194499819 4.5019776230423414 8.2722198804128944
14.9903084292549362 4.6739505869494335 8.1924874603327815
14.8819531937224809 4.8512251384905349 8.1189336776891352
14.7776605098692837 5.0340562025329811 8.0526891608904592
14.6775119078985181 5.2218531344101251 7.9947695562453278
14.5814470909164591 5.4139767090617132 7.9461203404582479
14.4890733636872024 5.6103342956474505 7.9074083061322487
14.4001425677297537 5.8106534340459355 7.8791253496695814
14.3150824831210723 6.0135939486191967 7.8618447849352364
14.2348787588475236 6.2172143552130823 7.8563020817781934
14.1604943268184709 6.4203702599188217 7.8633399133453423
14.0924849339791365 6.6234366828650710 7.8838295043336322
14.0311109444573638 6.8275040647134588 7.9184662587113541
13.9767315167609372 7.0326250813030491 7.9673870435573075
13.9299919563021817 7.2369346905890959 8.0298703425808267
13.8915762372561566 7.4377355410277888 8.1044290995673620
13.8618474251144885 7.6332648090099955 8.1892365786131194
13.8406581161598510 7.8235673856339965 8.2825851933547412
13.8272708100718287 8.0102527381891733 8.3830593660696984
13.8203188983706191 8.1955303021024726 8.4891932386448588
13.8178534571882619 8.3810343739159450 8.5987756012092795
13.8174269577886868 8.5673613747398694 8.7085095401790298
13.8160545599760436 8.7547549879610997 8.8143491370915061
13.8100513572167323 8.9438483012844578 8.9117999622815240
13.7950844216994923 9.1353985054262772 8.9957082815976328
13.7667630719070004 9.3294552637179500 9.0603351427593601
13.7217594424266061 9.5248724634454867 9.1005512625084410
13.6589781194028177 9.7192554277215386 9.1134518223738787
13.5800135159068684 9.9094509063963709 9.0991428944897699
13.4885264546133410 10.0927973511607103 9.0604189958218164
13.3890049130395781 10.2683838500145033 9.0018530471888720
13.2856814162437953 10.4373678137300931 8.9287611877211024
13.1818584134765562 10.6024744980647796 8.8462711019787825
13.0795233205437782 10.7672632698152917 8.7586585107602311
12.9794336245927919 10.9353325795529361 8.6691263552493005
12.8818906677867808 11.1092723582331097 8.5801894151067799
12.7875687662779605 11.2899057007619898 8.4942283793672075
12.6976011546712240 11.4767225001896875 8.4135392673009370
12.6130009607167821 11.6692595453707799 8.3399953655128272
12.5341597377631881 11.8678593817452604 8.2748711759169993
12.4609846202340275 12.0728196735484108 8.2189441465736017
12.3933694524578453 12.2829632372781852 8.1726509465556987
12.3312079504007848 12.4953792073583916 8.1361666548042457
12.2739052987192423 12.7069637375936733 8.1093381011130461
12.2203033312286529 12.9164651390319190 8.0916117926559767
12.1695341028578579 13.1251197302456060 8.0821425031809149
12.1221101956979584 13.3353712919610761 8.0799621310759129
12.0801336861997957 13.5487003804817672 8.0840933219611593
12.0462917192152617 13.7645952287456605 8.0936770766529911
12.0224307003543256 13.9818260838107058 8.1081524547825055
12.0087490535329042 14.2005008144708942 8.1274252594047702
12.0038599175191099 14.4227512310337538 8.1519087414842311
12.0053473814168470 14.6515963313008744 8.1822700232541248
12.0103992575468261 14.8887170365028734 8.2187456843489120
12.0160739980531250 15.1317836461239548 8.2602001600038193
12.0188590974243237 15.3732136671386552 8.3037543155154694
12.0138413349843862 15.6037302592220755 8.3459128290586513
11.9942565104406622 15.8183051873313989 8.3844122307833686
11.9520754646761098 16.0165678546229096 8.4185876723108066
11.8801471085901973 16.1983512648805217 8.4479745975489990
11.7752800100106843 16.3617733805378407 8.4710873760045473
11.6401014804288057 16.5058752127008965 8.4858722067638865
11.4819718160778574 16.6334395525856920 8.4912684425456426
11.3097482778329521 16.7505974889458749 8.4881844096652159
11.1310560016133078 16.8642835350785631 8.4789963871626579
10.9514674936301812 16.9801259174356218 8.4663919268533760
10.7747150387009256 17.1018377200674259 8.4526740886823095
10.6029752025219874 17.2315370828247900 8.4397017463449160
10.4371373120663371 17.3700945844883456 8.4290754140846591
10.2771948837946496 17.5174509783070462 8.4223208331501098
10.1226706479655419 17.6731703144788668 8.4209877982094490
9.9732307030784071 17.8365847316713229 8.4265714700582741
9.8294476033694078 18.0061386943141883 8.4403328892875873
9.6928695711756880 18.1791619630522163 8.4631428073933996
9.5650775800448464 18.3529905897233263 8.4954122008122148
9.4466756137206751 18.5263457054937959 8.5371004085524156
9.3370757125034931 18.6994670966625236 8.5876825668527346
9.2349011559792071 18.8731290700136682 8.6460623654888131
9.1383266666420226 19.0478612445081481 8.7106248293233470
9.0449763250231374 19.2238515984569247 8.7793201435592287
8.9517202204901594 19.4006311017159661 8.8493608431072772
8.8547866257986065 19.5762359465066496 8.9167796953032905
8.7498902301308554 19.7466588248453192 8.9765544024808648
8.6322748092957440 19.9060762278891517 9.0234436101189459
8.4974848326522086 20.0477486836626824 9.0531525045151060
8.3430183339359640 20.1656839009794773 9.0635663162602071
8.1696574315927819 20.2571177146474781 9.0557917695003276
7.9812936786037412 20.3245903814224107 9.0343172669181904
7.7832676031224661 20.3758523084099252 9.0056832692442157
7.5806775630271783 20.4214122507157292 8.9763131934866713
7.3777599115520767 20.4714371389110568 8.9512070971756472
7.1779542248501862 20.5335265620819030 8.9342083135334178
6.9839471765407133 20.6118471681571656 8.9285020598934501
6.7976159856442138 20.7073832363854464 8.9359615075364793
6.6198724350862381 20.8185945354645305 8.9560259449206576
6.4504178770254015 20.9419889490769791 8.9858081017280487
6.2876080013804510 21.0728738538641025 9.0214606375538189
6.1286423003841044 21.2063898012327812 9.0594329827580360
5.9700284719717249 21.3382945896838621 9.0970559012456782
5.8083742847052866 21.4649931554177726 9.1326375288515891
5.6411521746301432 21.5829058869438981 9.1650851096193797
5.4668290834718887 21.6875447658921274 9.1932304565931311
5.2847379194779442 21.7728584480071099 9.2154036344631507
5.0954991841586104 21.8314913897357101 9.2295416194644275
4.9016460626390792 21.8564083429473826 9.2335676553046966
4.7072912411697878 21.8436742404241144 9.2257168687164892
4.5164781304618353 21.7950644380599279 9.2047688895186308
4.3311618231970508 21.7184630005609769 9.1702841380025344
4.1503853689043639 21.6252649776003594 9.1229720307153954
3.9711705626067784 21.5266045284733565 9.0651966257554975
3.7901675310665395 21.4310153747365817 9.0012820605366635
3.6047273228702297 21.3443279010473077 8.9369633239630382
3.4131480315422049 21.2710463821882314 8.8777992181570227
3.2147086215103569 21.2157598678595818 8.8277118763886939
3.0098705756662181 21.1830387435006102 8.7890825309059117
2.8004558435742783 21.1756818187733984 8.7641438320161900
2.5894154813740657 21.1931732211976680 8.7557541178797482
2.3801240316320715 21.2321624413122336 8.7663011057766127
2.1755996245556366 21.2885470589579811 8.7957595120938450
1.9778836818878573 21.3591494544722735 8.8410831812633912
1.7876095005090609 21.4420746337745030 8.8975934760474331
1.6043208173650041 21.5364671849916824 8.9609028285778258
1.4274286759487724 21.6421924281405715 9.0277559878545048
1.2567226173838171 21.7591024915478002 9.0955851616545598
1.0920724595410576 21.8859740647570931 9.1619356998915933
0.9328463059770036 22.0199926166343829 9.2245052473012699
0.7771886031674491 22.1572447826513184 9.2814369561359591
0.6217751919685450 22.2933494678910478 9.3314777017920072
0.4627399263973779 22.4234992101988340 9.3741550446591777
0.2972465836726592 22.5422542712025624 9.4098426832910587
0.1246518945881814 22.6430812546343994 9.4390947022304381
-0.0529329977754953 22.7176037807333202 9.4612963454812302
-0.2306430877221528 22.7555036385063012 9.4735882739050012
-0.4021859996608024 22.7474663679732885 9.4714047184130550
-0.5628941910716270 22.6914175857316778 9.4509351466177538
-0.7130290886212927 22.5969492846667350 9.4119319256862237
-0.8586690926642349 22.4828920109873138 9.3588057172274421
-1.0090431646253770 22.3703393543799507 9.2996832257583169
-1.1720843488314694 22.2768636596963709 9.2444429326742856
-1.3509779529918431 22.2138904964214348 9.2022813934574117
-1.5433281589059056 22.1860828180993366 9.1791971728613664
-1.7429874768467020 22.1921260824184046 9.1765670692650243
-1.9432940698292436 22.2268291284784354 9.1916934684509819
-2.1397683548481012 22.2835299027314377 9.2196433324570783
-2.3309453275181795 22.3551049301303557 9.2546471263214727
-2.5177410195732826 22.4329481918178786 9.2902402370653636
-2.7024106784082118 22.5053097143389458 9.3190037124493195
-2.8870398280620062 22.5574585590245889 9.3331537807627036
-3.0714682200341246 22.5752753915439364 9.3263467695128810
-3.2522302191692916 22.5507456459152635 9.2958898138347585
-3.4241057425297017 22.4849296062048225 9.2437143428109696
-3.5831968257934790 22.3857336011272707 9.1749588540622167
-3.7287381756371669 22.2628958359519729 9.0951540253997898
-3.8625721211139217 22.1244219823421133 9.0081499791156006
-3.9875033475243589 21.9759550080210886 8.9157662367260357
-4.1062102512285579 21.8214865340120987 8.8184973565023821
-4.2211092323598400 21.6640758634911705 8.7163819221909833
-4.3346079804770339 21.5068646089165085 8.6099043049236599
-4.4496144674929097 21.3539582892518247 8.5007952506215076
-4.5700334778617115 21.2098532897984740 8.3920168454271398
-4.7002557433917804 21.0777297933659113 8.2868219296113850
-4.8437469873533470 20.9584251768361973 8.1879585431605300
-5.0024757660985566 20.8512857004095444 8.0980029685649804
-5.1770844950446673 20.7554330100201092 8.0200081069479214
-5.3664975011373377 20.6698467670659127 7.9572319295889242
-5.5674649894718922 20.5931563819039951 7.9124348595699656
-5.7754037959936166 20.5243399409072111 7.8873563627739331
-5.9864260582412250 20.4639751122585629 7.8820624160866197
-6.1989205218240659 20.4148098065486039 7.8944716169791542
-6.4131666081153984 20.3808496179510499 7.9209308725691709
-6.6293130225091925 20.3654984145207223 7.9575832290997557
-6.8458702695065714 20.3700396833595931 8.0014710256294919
-7.0601789211140336 20.3931940194453460 8.0509073408726053
-7.2698833608093398 20.4317292743230858 8.1051436703713691
-7.4739697493481305 20.4816342650402774 8.1634690962516920
-7.6730751009673597 20.5390320763802734 8.2242976936003238
-7.8692253519541229 20.6000446985744183 8.2851014423365097
-8.0649111996887992 20.6596424180022495 8.3432114653904996
-8.2616123790697316 20.7105024039851173 8.3964850553955692
-8.4585220412402560 20.7429767977551194 8.4432267140746298
-8.6521927820464253 20.7465951024607982 8.4815296270074523
-8.8371578643467590 20.7127529618176354 8.5087098662659812
-9.0075423629211127 20.6376713091370974 8.5217045412024230
-9.1593600934758967 20.5242402467971132 8.5183529584446980
-9.2924560281997959 20.3812906801024774 8.4985963709948749
-9.4108423898298987 20.2201175153962431 8.4647701027372193
-9.5211515315037492 20.0504113723797275 8.4208944294503354
-9.6303501755472993 19.8783484473782899 8.3715533302187133
-9.7441216048446329 19.7072982447462728 8.3210866369006951
-9.8664345246061291 19.5394606506239832 8.2733257321174598
-9.9994558230926724 19.3768879880305747 8.2314397992108201
-10.1431862316987296 19.2215983431011850 8.1976255316982858
-10.2955820611998430 19.0750153029106890 8.1729863902460966
-10.4535302734523814 18.9371253582149315 8.1577971234006359
-10.6137751025472369 18.8058598631265887 8.1516630408821342
-10.7727521429482085 18.6767720787203402 8.1529686032424102
-10.9251343525458662 18.5427669936765476 8.1578682368500601
-11.0621108151247185 18.3942740103820626 8.1599247424268491
-11.1715451005975250 18.2217924725840632 8.1515956030176664
-11.2419918161098966 18.0220410884137081 8.1275257510745575
-11.2690891705551923 17.8030875910682198 8.0872418741915482
-11.2587875554007084 17.5803074556048315 8.0344029387239075
-11.2240578765712957 17.3652514554977628 7.9734693405656527
-11.1786748767124493 17.1598968131944360 7.9076235978609626
-11.1334292378377313 16.9598181298430291 7.8392152669063382
-11.0956273737800810 16.7599365636001707 7.7710716515096205
-11.0698160945756232 16.5578106393169833 7.7071546927478423
-11.0583804512879063 16.3537964686479995 7.6521864107512911
-11.0620216504517277 16.1493007752649333 7.6104592938091216
-11.0803420087818960 15.9449352100654487 7.5846468972554328
-11.1123191829677737 15.7404470192269539 7.5754154682422685
-11.1563875251611719 15.5361611518180052 7.5818066336313077
-11.2104697145638479 15.3333066255550090 7.6018040775357330
-11.2723873773929562 15.1328861072398588 7.6328843849210362
-11.3403958315025495 14.9350228396562592 7.6726639211547001
-11.4133389262982465 14.7394156503728588 7.7193675615760604
-11.4903525197466632 14.5461538151808245 7.7717064662570010
-11.5706831594964097 14.3559030770594234 7.8285273060794962
-11.6539586834440136 14.1691605890532131 7.8888654310628272
-11.7403117845285632 13.9855302165683213 7.9520610868879915
-11.8298587486056892 13.8037835289437023 8.0172517115192221
-11.9219675356991583 13.6223122956916178 8.0825294538795411
-12.0149421121389643 13.4392502034513175 8.1446095887812344
-12.1061204708406738 13.2521030835477553 8.1990663287199332
-12.1920162034953865 13.0571503900897845 8.2406535075272895
-12.2684068394019530 12.8494449058878359 8.2637892596369920
-12.3308276196259872 12.6248315943898124 8.2638405435124831
-12.3756821435126216 12.3843161824222161 8.2392209759878341
-12.4014294979233117 12.1367173895379032 8.1929191878192356
-12.4090457372996674 11.8941214120782028 8.1315230865434884
-12.4015510144088683 11.6634507280942721 8.0621615092636212
-12.3831318674833621 11.4442253251997315 7.9902728001501382
-12.3584001323196357 11.2326336047773694 7.9192543446578911
-12.3317257496140211 11.0248330480642700 7.8509273993767330
-12.3066691290704995 10.8173823433968490 7.7861134648788104
-12.2858377350829997 10.6073843216861157 7.7253125169576524
-12.2710898711696341 10.3934739157889808 7.6692779620835028
-12.2636864680824100 10.1767490945912638 7.6192151782419284
-12.2642348159679564 9.9604502847826879 7.5765997021389140
-12.2726010948584943 9.7476694851141144 7.5427888215952112
-12.2879762456408876 9.5383086574548201 7.5187223440183342
-12.3090919073288561 9.3286691300870626 7.5049924999961606
-12.3345961790556657 9.1146685763820869 7.5020675112904192
-12.3635822688364829 8.8949499228333071 7.5101248698797374
-12.3958419969337754 8.6713236641222373 7.5286351817243444
-12.4315807152439604 8.4472958284254105 7.5563413869267935
-12.4710884188335154 8.2260799231705626 7.5918391690406759
-12.5147930038293378 8.0090532044359453 7.6343170022158846
-12.5634087549875666 7.7954026735985353 7.6837420627828106
-12.6177255175551704 7.5831834817539976 7.7401822799204831
-12.6781127862793621 7.3711442327073673 7.8028808942924783
-12.7442163024785184 7.1598737128868617 7.8701200279983050
-12.8150381561830518 6.9512594023780157 7.9401072342736692
-12.8892257559095356 6.7470526822472117 8.0118484565613155
-12.9653819878488665 6.5479166686389378 8.0849864573294319
-13.0422513918531138 6.3531912314406327 8.1589605790317776
-13.1186620501902169 6.1611232455415506 8.2325414668125152
-13.1933625489732353 5.9693218541216035 8.3040010279778578
-13.2649881981154181 5.7748829297146873 8.3713535388124658
-13.3318538655810030 5.5741202635260221 8.4321957205626639
-13.3914409708443785 5.3621969176076600 8.4835304383899945
-13.4401001772459789 5.1340528575874069 8.5222413073403054
-13.4735447353055253 4.8886997743059144 8.5461908499610324
-13.4882927669959294 4.6339953699174030 8.5552768943772222
-13.4832883334382263 4.3838484765295966 8.5515692660031934
-13.4602793121343165 4.1479981801165851 8.5381821967655966
-13.4226425398953602 3.9264155522958166 8.5177338216922536
-13.3739838170264207 3.7128737691274010 8.4916226880202572
-13.3174877883815714 3.5008676870333488 8.4604135983294420
-13.2557438412495312 3.2863261308435199 8.4246244538186001
-13.1906671702295366 3.0673916709478792 8.3851039834259371
-13.1236876520698740 2.8434957101319434 8.3428917792585526
-13.0562570203920565 2.6150429931354520 8.2990494839101068
-12.9902937788995896 2.3837960624737917 8.2547594985538986
-12.9281671532798867 2.1531264863478921 8.2114586355416819
-12.8720971309733603 1.9269632765277738 8.1706187624549340
-12.8232852161289035 1.7074357072585507 8.1332250819819372
-12.7815600735911659 1.4933266718244642 8.0995131052415488
-12.7459430060376544 1.2811060129663563 8.0692794649087709
-12.7155057211890359 1.0671437627837896 8.0423606737588109
-12.6898279232910465 0.8489541992793779 8.0188123773874604
-12.6690203133519628 0.6251780436605650 7.9988193492692066
-12.6536273554666607 0.3951107543452608 7.9825858743764533
-12.6445555684037263 0.1583463107694598 7.9703034585635617
-12.6428362351461061 -0.0853521270514133 7.9621749428730997
-12.6492055095151237 -0.3360272970690055 7.9584573968231158
-12.6638635955436882 -0.5933125853097039 7.9594687169403393
-12.6865547041366025 -0.8558280167870773 7.9655047047313658
-12.7166510371897488 -1.1202395601418669 7.9766676308313968
-12.7531448578381621 -1.3809326846268206 7.9927084784577467
-12.7948782198492932 -1.6319449011272766 8.0131638297278354
-12.8412523292176992 -1.8711737455969217 8.0379106236745521
-12.8929087828753488 -2.1030411328650658 8.0676538493334995
-12.9514184833890997 -2.3355763402316345 8.1036885540349388
-13.0179430655545634 -2.5740679475465438 8.1470631707664545
-13.0921893710280699 -2.8175861916359928 8.1979779175194238
-13.1727169591408479 -3.0611183711563772 8.2559164400545022
-13.2579652220847812 -3.2996586342906085 8.3201117519400469
-13.3468821849928538 -3.5302574854192255 8.3898320230777781
-13.4388710538547027 -3.7518248410994737 8.4644468918798648
-13.5334840253498303 -3.9643116404173053 8.5434095879036871
-13.6302930647918323 -4.1681637678709542 8.6262143097118020
-13.7289660658377919 -4.3640437764629585 8.7123874598158402
-13.8293955379695355 -4.5526695733948621 8.8015343540003421
-13.9318004760626231 -4.7346799863030604 8.8933698610263647
-14.0367148510699096 -4.9104751935425739 8.9876861212567327
-14.1448104524957614 -5.0801176655724340 9.0842715207662650
-14.2566530757487264 -5.2433785937406299 9.1827813160298994
-14.3725125099892566 -5.3999180912870202 9.2826134962933153
-14.4923482671932859 -5.5496446959188930 9.3829582448983118
-14.6161506724499262 -5.6932522685143745 9.4831065390095386
-14.7445394687676377 -5.8326733949074665 9.5827562883362702
-14.8789142013826279 -5.9709805452686915 9.6819118161027848
-15.0204688961715078 -6.1113809481198800 9.7803828906188972
-15.1686408748009391 -6.2557122602020208 9.8772793571438662
-15.3206546256288334 -6.4038294700743990 9.9708261758572068
-15.4726854763265784 -6.5546711883912430 10.0585672031664011
-15.6211567913970661 -6.7077365556290758 10.1377817960090688
-15.7631170100994069 -6.8635996460816031 10.2060845989986788
-15.8961621116639300 -7.0235678894619014 10.2620967509232663
-16.0184282899846053 -7.1891876210046348 10.3058097003939366
-16.1286151207200277 -7.3619100296118845 10.3384268016160501
-16.2259327834774254 -7.5427573010673754 10.3618628524471426
-16.3100215938856685 -7.7319295993537764 10.3781900992553684
-16.3810062129322631 -7.9288591264052002 10.3892348726092791
-16.4396960016178788 -8.1327886638099223 10.3964174911342617
-16.4875214165618473 -8.3428778592824600 10.4007687391761134
-16.5261736798971590 -8.5578852738689974 10.4030297214172514
-16.5573312526546275 -8.7766715992288802 10.4037961973604176
-16.5826142214248691 -8.9995891960716250 10.4036666461271210
-16.6035650102956325 -9.2286520204169591 10.4033005012897384
-16.6214947528474006 -9.4651273226830561 10.4033396218798728
-16.6373608623721836 -9.7072242062890304 10.4042789374180096
