BEGIN_0
-22.2217443611210967 -25.2246785270709992 18.7137257575229654
-22.3289274401235112 -25.2993491336593479 18.8978418434046347
-22.4414006089021285 -25.3656257992039045 19.0759561612093336
-22.5630529815362912 -25.4206837624424082 19.2460795315935869
-22.6962450873320805 -25.4626123229208474 19.4065400669186836
-22.8430183209325577 -25.4892634263192335 19.5552722060993212
-23.0064502320297635 -25.4982708197753354 19.6902183860099314
-23.1903323375072006 -25.4879213448609505 19.8089651160931233
-23.3973481680874755 -25.4581402472607223 19.9084916990156131
-23.6264505770223323 -25.4112807947771699 19.9861405810682626
-23.8720977760374922 -25.3525163051098303 20.0418940681043480
-24.1262645837361092 -25.2887172667857527 20.0804043504828797
-24.3811313268345131 -25.2256683643644806 20.1106887969964419
-24.6313980714395022 -25.1667214796367418 20.1432919149656158
-24.8762043751542734 -25.1141541927687371 20.1861102533957961
-25.1188389258322005 -25.0699634421131918 20.2405173928171855
-25.3635813636976408 -25.0339290656838216 20.3005337852022301
-25.6131313891995873 -25.0013808565368123 20.3564851447268325
-25.8682260850929531 -24.9643474350349592 20.3995172348652787
-26.1270531665616588 -24.9157139022264857 20.4238552648109035
-26.3842178550127464 -24.8524238722721407 20.4270895214714443
-26.6332992724045958 -24.7750278180333581 20.4090256223535462
-26.8725785163302646 -24.6845848439394260 20.3698105946474968
-27.1062552004366282 -24.5809104266717853 20.3092344839964234
-27.3383422460097449 -24.4642968717205136 20.2278267168192798
-27.5678119613411532 -24.3373352117746506 20.1276266415775602
-27.7912341524052522 -24.2035826426379828 20.0111192085914311
-28.0073259420302243 -24.0654039552641379 19.8800140215724817
-28.2167924838442978 -23.9242185197395258 19.7356888516055093
-28.4191580440152158 -23.7821426464375421 19.5807768170939909
-28.6111641858195682 -23.6425022364601816 19.4200455426277045
-28.7892730030698729 -23.5079576227950184 19.2583749539695432
-28.9525340138732652 -23.3788623684852155 19.0979803112730551
-29.1023818608274212 -23.2536874684544657 18.9380454633169748
-29.2412108952670948 -23.1298690135241145 18.7758189594109091
-29.3711289564385218 -23.0044759752751560 18.6080973714025646
-29.4929564096916756 -22.8753850616994612 18.4330517068841289
-29.6056093539528327 -22.7429317646310452 18.2520217259491275
-29.7070955881611916 -22.6099824992654987 18.0690826962143696
-29.7964397697259429 -22.4800697062041692 17.8886234669976858
-29.8747121257288200 -22.3551756206956682 17.7130036563823197
-29.9446874102834641 -22.2343713613226797 17.5412968635264654
-30.0097517459956151 -22.1143064274403542 17.3699901989877077
-30.0726365655330241 -21.9916820926877392 17.1959057013888277
-30.1346801891355369 -21.8654121843498999 17.0186041258199587
-30.1961521818431251 -21.7361890776187394 16.8394489375863614
-30.2568407126459249 -21.6046049438438175 16.6591926414372971
-30.3159487672215633 -21.4696246765732184 16.4766713171880248
-30.3713856104366258 -21.3286157492152881 16.2898237287943211
-30.4203317043014039 -21.1790873074019004 16.0984511818815861
-30.4627944045724348 -21.0211339027370201 15.9066498476341707
-30.5055451802591122 -20.8583050149999352 15.7223974889887543
-30.5603451095758558 -20.6945869191720746 15.5529492743425504
-30.6355875570412337 -20.5295328167995486 15.3990756556280139
-30.7300223342497389 -20.3581778370743187 15.2551647011583391
-30.8354054457316948 -20.1762441937068431 15.1157595268708498
-30.9431432564868985 -19.9839986191181609 14.9811235954524413
-31.0480642923559955 -19.7849256581503354 14.8563963951940572
-31.1481994876680446 -19.5823835822437253 14.7472474608675306
-31.2426292250877395 -19.3783352331628969 14.6574309974536945
-31.3297270998659059 -19.1734875815638262 14.5891438556868422
-31.4071773757493489 -18.9666903952462356 14.5437657475532482
-31.4729845186868289 -18.7553143371890236 14.5218421010199332
-31.5258394046890587 -18.5376776259921812 14.5227063188090995
-31.5645490440708869 -18.3145279512529058 14.5445918853347074
-31.5871704698517917 -18.0878657328439587 14.5858368572256971
-31.5904532257798323 -17.8594687880398979 14.6458900706936390
-31.5700625753071691 -17.6315832167321922 14.7237315781385920
-31.5218962363892814 -17.4084751000858589 14.8139825028669438
-31.4443427661471588 -17.1948916430930545 14.9053856791015615
-31.3404074511728084 -16.9920655096120150 14.9845797871027830
-31.2182915561036296 -16.7974866198919344 15.0412598479318973
-31.0892739814330881 -16.6082172334322031 15.0708757528827544
-30.9631382045496295 -16.4227028436289721 15.0747194019075703
-30.8441996446403621 -16.2402200589373287 15.0579852240367700
-30.7313256269039101 -16.0600415311657443 15.0268694715254849
-30.6214810022120147 -15.8811273003903572 14.9865346426505610
-30.5134233623441347 -15.7022668037621997 14.9404756722492227
-30.4088863210641875 -15.5222506856209002 14.8905358769250622
-30.3114227063791191 -15.3399589098377618 14.8372723686136183
-30.2249330247011585 -15.1549900665745163 14.7808454482720961
-30.1529441069508835 -14.9687723803858930 14.7220249521213979
-30.0979725630363006 -14.7844287524492408 14.6623528744388789
-30.0605847134825126 -14.6038995794484450 14.6030729482296397
-30.0392168692430346 -14.4244938707861046 14.5437953789812546
-30.0313924851211809 -14.2396642728388656 14.4825857864031633
-30.0352215554231208 -14.0442517612273861 14.4177039067055883
-30.0498142894819011 -13.8380177980017152 14.3489297646779246
-30.0747278897040218 -13.6242792945027524 14.2771170928119506
-30.1095363941437597 -13.4070559724652298 14.2028782959151130
-30.1540803021823436 -13.1898866893241689 14.1256095702525180
-30.2091419618872479 -12.9756165136228603 14.0428604204872673
-30.2771904814660289 -12.7662670558476208 13.9497311702393070
-30.3621882217177230 -12.5643565022615071 13.8391946579339482
-30.4665520276856157 -12.3754199586332767 13.7047960707483529
-30.5856198481347477 -12.2070433132593301 13.5448280495804632
-30.7051046583112850 -12.0620630889700102 13.3637807032276061
-30.8068564169325754 -11.9319547129720185 13.1681220553203229
-30.8784797356753558 -11.7990941723950904 12.9612643753971497
-30.9176201565115676 -11.6483710550157120 12.7453699968020882
-30.9296594056842480 -11.4776550739667584 12.5266068091284097
-30.9229917899280977 -11.2959116953694689 12.3141911160643502
-30.9046322912171121 -11.1117618050565099 12.1144121645276250
-30.8780305205240992 -10.9264885190182355 11.9286300747238734
-30.8438792094882359 -10.7364537423027855 11.7556995218460845
-30.8021691503980009 -10.5382193693728006 11.5940163575365816
-30.7531424474895942 -10.3304079317235100 11.4422989791293688
-30.6970029321118929 -10.1128114848800195 11.3001439927571496
-30.6337166219038153 -9.8856866615627013 11.1681842833923568
-30.5635068806768473 -9.6503494535584906 11.0476340210145949
-30.4875747329286071 -9.4103028297334816 10.9397889527653458
-30.4083358560651291 -9.1714504998757533 10.8458008142284825
-30.3286525590669385 -8.9400543488614161 10.7663024733799411
-30.2502951278683554 -8.7188847121533577 10.7007167427868914
-30.1730217261624460 -8.5049032297363425 10.6470414279061245
-30.0954067022509193 -8.2912878347828567 10.6027119293247090
-30.0166352554269267 -8.0720696253653408 10.5657593051165293
-29.9374905301493968 -7.8456795507182342 10.5352199146842551
-29.8594334095788341 -7.6151581561283805 10.5106747721096685
-29.7825727734439241 -7.3855875558755386 10.4915799899648654
-29.7047780996852069 -7.1615066842732560 10.4770482111758625
-29.6227679791925276 -6.9458764605279342 10.4660815150216315
-29.5337708204859766 -6.7401672877079903 10.4578507031426824
-29.4362909738800766 -6.5447599020802159 10.4517851054379438
-29.3298328195709068 -6.3592273732961040 10.4475221617499301
-29.2141620980362795 -6.1823005322120963 10.4448515467219440
-29.0886570245712477 -6.0115292523426227 10.4437379871331579
-28.9522818068458925 -5.8430848870057552 10.4444305004526470
-28.8045912359489051 -5.6724944251989520 10.4475631680303351
-28.6470846508241834 -5.4964845739828441 10.4540409989083507
-28.4829680297209116 -5.3147027397931801 10.4645599323056508
-28.3148350159489333 -5.1300219439518351 10.4789633026609224
-28.1429555158623401 -4.9477142772577238 10.4959395961676254
-27.9661548141555656 -4.7739749506292704 10.5132947676846449
-27.7837541790698808 -4.6136401189444101 10.5284903242218846
-27.5964244825139708 -4.4678885022802142 10.5391043060749059
-27.4061440989200804 -4.3340225255841673 10.5432170196910668
-27.2159708994696103 -4.2074984589780637 10.5397250289188733
-27.0291619276976824 -4.0835928804378341 10.5282340018908549
-26.8483246842798984 -3.9575267853283691 10.5083924817348624
-26.6759356846523907 -3.8243339468860853 10.4792846592958604
-26.5157149883611361 -3.6796818337527188 10.4396701798388172
-26.3727950324996527 -3.5211529529108407 10.3888790745562840
-26.2520290690845357 -3.3489756215597364 10.3273682065580363
-26.1562678216856277 -3.1661287167885117 10.2566505816714084
-26.0860096407564939 -2.9775625698749923 10.1787715911916905
-26.0399820154060784 -2.7880424635919088 10.0952618737317099
-26.0157022703580800 -2.5998176804940467 10.0060938624018512
-26.0097635176494713 -2.4125652366016475 9.9098329044355999
-26.0181323886972038 -2.2252024387894895 9.8047104245995094
-26.0364874635870791 -2.0367410921877980 9.6891444899364263
-26.0604051323878885 -1.8463474984745378 9.5620268028593536
-26.0855295323696978 -1.6535109834748294 9.4234733727359323
-26.1079558533159322 -1.4576158404226529 9.2750861712114823
-26.1246784269762102 -1.2567442624302885 9.1188635136151852
-26.1337902438909708 -1.0473214624098688 8.9559519190490295
-26.1344472365529654 -0.8267841627466623 8.7876679087683449
-26.1267827389595020 -0.5981999111067875 8.6187521941457739
-26.1116514167130127 -0.3706934529602801 8.4579671854218343
-26.0901110120833657 -0.1526866849273301 8.3130913934014643
-26.0629912183796506 0.0544094255317162 8.1860544846260765
-26.0307877215792942 0.2553122616014125 8.0738082369592501
-25.9937364347088824 0.4561358818636432 7.9723351608916317
-25.9518837414828667 0.6613580032037039 7.8791179849315585
-25.9051703977943433 0.8734330669402883 7.7932779660520364
-25.8535689110188578 1.0934435195230385 7.7148437842970754
-25.7972030959977481 1.3215704750683237 7.6441848091856457
-25.7364379557243872 1.5569549823311366 7.5818255069365890
-25.6720045798803120 1.7970611111430390 7.5284667264099410
-25.6050707089628133 2.0373718627141830 7.4849586003327104
-25.5369245197559138 2.2727438800751045 7.4520676796406127
-25.4681340245697960 2.5004749941684672 7.4301267056684885
-25.3978114157797705 2.7223405791532489 7.4189205260993694
-25.3238866760044310 2.9427386546620777 7.4179781107304716
-25.2443227191367860 3.1643944620892661 7.4268826907564041
-25.1582183066015794 3.3859794073159399 7.4452769059322996
-25.0659629759498053 3.6036078898773383 7.4727002281628252
-24.9687200087686740 3.8137469586866199 7.5084989495039398
-24.8678619237911924 4.0147312710396070 7.5518592877181199
-24.7644936241074909 4.2066117543399004 7.6018943737522839
-24.6590575961399523 4.3905209494496695 7.6577902221300320
-24.5511220637978873 4.5683708062320179 7.7190305196093103
-24.4394885360380876 4.7426777183835744 7.7854601821660561
-24.3229072187132509 4.9158949240722496 7.8568083446638681
-24.2012525953518143 5.0893184766751318 7.9318010917633517
-24.0761055061676821 5.2626765319497020 8.0077589868638377
-23.9500577476078291 5.4351275462606790 8.0812428083601695
-23.8257144441216582 5.6067791931436970 8.1489822161709284
-23.7056559602361112 5.7795419888811139 8.2081379866760535
-23.5932602909169944 5.9566422553021541 8.2558213614770999
-23.4933256859622119 6.1407741016621529 8.2884309527928366
-23.4116948481231368 6.3321178398080997 8.3015816354546388
-23.3539913292632839 6.5279422039511799 8.2910430836703561
-23.3240092854759027 6.7239014617276700 8.2541374855277176
-23.3222091945036638 6.9157794827234458 8.1906496461254257
-23.3450704882483926 7.1007469572347830 8.1028385068702544
-23.3859708653033174 7.2779569746907908 7.9947877528587794
-23.4370481940548423 7.4483828033785553 7.8715298666581566
-23.4908571525257130 7.6140059246716021 7.7382874276434999
-23.5412133890029232 7.7770602365898842 7.5999569743167097
-23.5835837961754144 7.9402487145796075 7.4605906675036673
-23.6154191111587828 8.1077483983302479 7.3228325126413356
-23.6360895026036566 8.2856434500740654 7.1878148606807981
-23.6461951497940603 8.4803634164731818 7.0561818112247368
-23.6467840242409615 8.6946319846378355 6.9302227444716458
-23.6389857858586332 8.9237696525209298 6.8152966180324261
-23.6238575788421805 9.1576956579743012 6.7180439445716438
-23.6021654957090412 9.3881063100726116 6.6425305728479298
-23.5743023310181670 9.6127889686610182 6.5887535700056628
-23.5405441767507817 9.8337856168504132 6.5543655514620198
-23.5014802824930626 10.0531087968286243 6.5369451311114624
-23.4581162737293205 10.2703833679499752 6.5349713673951229
-23.4114464323494360 10.4834507731736917 6.5477137960721201
-23.3618204682040478 10.6901590143142506 6.5748191508833855
-23.3085533762524229 10.8894486573619638 6.6159099112028610
-23.2500017022465961 11.0813965242352168 6.6702835263035585
-23.1840425351683734 11.2668129905673648 6.7369707292209124
-23.1087945886869264 11.4467458405305678 6.8151898381807436
-23.0233919548919239 11.6218528982833984 6.9045399960120184
-22.9283951884712565 11.7917843565825464 7.0043874932827430
-22.8253525804272641 11.9552343586231800 7.1130041032257232
-22.7157039883591381 12.1109598571900161 7.2273033975102932
-22.6000910770139214 12.2589843083162986 7.3432569891081281
-22.4786230384138541 12.4012090558751993 7.4565182041457154
-22.3518683304033914 12.5412422188086961 7.5625500536370120
-22.2219159254984255 12.6835947122753154 7.6563204577880768
-22.0926277086287932 12.8325290339681821 7.7322586181992614
-21.9690704958462319 12.9909288323911092 7.7844886224556165
-21.8568163789231811 13.1594487779297165 7.8073212541431607
-21.7611370931228905 13.3361259574681572 7.7965752777974284
-21.6858959881985598 13.5164700255768420 7.7514068143172974
-21.6324490663008149 13.6944139764056914 7.6751712354781274
-21.5992155603395943 13.8645117314071751 7.5741762923438953
-21.5823423064624791 14.0246295425770207 7.4545864903063404
-21.5769699692397126 14.1775276548943587 7.3192432547448645
-21.5781555589966842 14.3299727599443578 7.1669063132062725
-21.5812548655621654 14.4891882717189269 6.9951787000778110
-21.5821631033048824 14.6584093907087976 6.8055040116327810
-21.5775084963224764 14.8345851395759798 6.6064055941583746
-21.5646822065420594 15.0110964460193976 6.4107760055834220
-21.5418621814683746 15.1835113052989783 6.2288924240947559
-21.5082799847468564 15.3520075967096616 6.0649256310706772
-21.4643707236016930 15.5193978464938276 5.9189478355504690
-21.4111061838213246 15.6888696629051161 5.7901325582450056
-21.3489233183817753 15.8634548200251650 5.6779606574363779
-21.2774309900315863 16.0456669237293852 5.5821110515359358
-21.1960878721659256 16.2366236944221782 5.5024228716677719
-21.1050831397807244 16.4355559956315389 5.4389226350747357
-21.0056174540580436 16.6402465575470373 5.3915122875148160
-20.8993533292704825 16.8482052982344150 5.3595608833143515
-20.7876015708266770 17.0577144601720114 5.3418706062649957
-20.6711668584413424 17.2674433667584886 5.3370649298160515
-20.5509107534870523 17.4751280095306569 5.3439678808800473
-20.4280839211269907 17.6776089675391859 5.3615862044107008
-20.3042065290472813 17.8723118463032797 5.3888894899627022
-20.1807613575705993 18.0583822350179766 5.4248074716469663
-20.0586694281469491 18.2366654880528394 5.4684785080984515
-19.9377421666643215 18.4091419727003647 5.5194469746685435
-19.8166579453070959 18.5783830381293811 5.5775887776126112
-19.6937263421352533 18.7467131930352124 5.6426785624386522
-19.5680813800215496 18.9150111781468766 5.7137298907515763
-19.4403201865492470 19.0823120436524079 5.7886544783792857
-19.3119335940674404 19.2470554609233133 5.8646517247688212
-19.1842772905508916 19.4088758318304997 5.9389070654299498
-19.0582096920858817 19.5693961419673457 6.0089050638284736
-18.9346108640285351 19.7315435983797585 6.0720843302546204
-18.8149746155507884 19.8979343453042432 6.1250707550721746
-18.7010798729232164 20.0696047129058144 6.1631179554661841
-18.5940214681336258 20.2460487386784607 6.1803496649957328
-18.4940605937782472 20.4259273170686413 6.1708604589457412
-18.4015509989509169 20.6071547744811987 6.1303122727862895
-18.3176561210387163 20.7863120848227396 6.0573640722858393
-18.2438613581156979 20.9588042504288019 5.9540820087732556
-18.1806539065868655 21.1204887077289385 5.8251787785329512
-18.1266464647053809 21.2693411332901263 5.6769127330878231
-18.0788849639278055 21.4057138942155163 5.5159419928164297
-18.0338603695276838 21.5317096592844877 5.3477352581887914
-17.9883886611264820 21.6505081178683696 5.1754196084962221
-17.9400487171536227 21.7655858363071673 5.0002373552709241
-17.8872237538440970 21.8799393082568514 4.8228584950420039
-17.8288919294007471 21.9958182423094257 4.6442998811535467
-17.7643452709393621 22.1150381842588502 4.4662232141957343
-17.6930315697711542 22.2393104209263761 4.2907649640330572
-17.6145389440682614 22.3701960799217190 4.1200672860397543
-17.5285890633242118 22.5088874544944417 3.9559321052216241
-17.4350221388768212 22.6561648117141523 3.7998867150914055
-17.3337978521013234 22.8125229161036529 3.6534810882242201
-17.2250243537420538 22.9780042310309618 3.5185330946031552
-17.1091709297297854 23.1514450695396619 3.3972102535992299
-16.9873904472846462 23.3298546868353682 3.2918009793779746
-16.8612968154083838 23.5091901987858982 3.2040243183129036
-16.7319149439222805 23.6865104924626237 3.1342072267329328
-16.5988931554363397 23.8614282893242127 3.0811857297298744
-16.4610686240017294 24.0351506377464830 3.0432142810763239
-16.3177612772452676 24.2082908670153714 3.0189344574823291
-16.1695342076980531 24.3797533898286858 3.0076162229525014
-16.0176498688828985 24.5474639772774736 3.0090080047514167
-15.8625354105026339 24.7099499934314792 3.0233722547458814
-15.7028329224804573 24.8672308164838824 3.0515768758008370
-15.5362966138779441 25.0201403497909212 3.0948120261347132
-15.3619350573812028 25.1686060970703522 3.1538779703686082
-15.1812302221712727 25.3107212084596718 3.2285600362214240
-14.9971621085674656 25.4436800666621892 3.3176275306838701
-14.8124340194709809 25.5653245284199429 3.4192989135956608
-14.6286261053974833 25.6747891500391532 3.5316725270583049
-14.4463493083673669 25.7721860944606220 3.6528861493682534
-14.2657556511952137 25.8582005821439154 3.7810957550102806
-14.0870738466103091 25.9342181674161765 3.9144759046654674
-13.9108622249749772 26.0025173169260313 4.0512838731175620
-13.7376969155025499 26.0656111311944763 4.1898418932747266
-13.5676933827480184 26.1251938844533669 4.3284176124238574
-13.4004597762726192 26.1820634239340713 4.4652174653733923
-13.2353337820979000 26.2371752533916798 4.5986136590825151
-13.0713303091687898 26.2925799631564843 4.7273790136253933
-12.9069246044064219 26.3513683873870299 4.8505020446260705
-12.7404989657903620 26.4169973835589076 4.9663964786089103
-12.5714286246527980 26.4925250949035274 5.0719665179500950
-12.4004671158450215 26.5798794899115478 5.1624936003508033
-12.2289768728430683 26.6794348714481444 5.2327595195743353
-12.0584153295933820 26.7901631855748619 5.2786531152090621
-11.8905234639937358 26.9100743794403989 5.2983200811130402
-11.7270215695510363 27.0365894238099713 5.2923957450410430
-11.5685291289602858 27.1669962301179666 5.2634573043317499
-11.4140482947924831 27.2990965577548756 5.2153321616328814
-11.2617601650450894 27.4316524332358149 5.1526626442506789
-11.1102735303199456 27.5641582731404107 5.0804432345315327
-10.9590670272120061 27.6961970818359902 5.0033707901231494
-10.8077960799166526 27.8273369973951397 4.9254112916049984
-10.6554442128241398 27.9576834747499490 4.8496045329814415
-10.5002864924072341 28.0880467826333629 4.7778297536249230
-10.3407760860812257 28.2190338570308263 4.7109668753194640
-10.1764637193378977 28.3499749333927298 4.6497362977070118
-10.0078446526197133 28.4789789461467748 4.5955381913253088
-9.8351554066758293 28.6040796890337958 4.5505132640356720
-9.6576123006119268 28.7241330959418981 4.5167947638997354
-9.4742247898755938 28.8386245437820037 4.4956767796232135
-9.2851846567111203 28.9472475308434127 4.4875658859889960
-9.0919902260113918 29.0500030233253632 4.4927758319010778
-8.8962645101620961 29.1472061398486311 4.5123040454103283
-8.6991313103323122 29.2389350520276672 4.5477289342457503
-8.5018908708521881 29.3241882484447238 4.6004081107844907
-8.3065841910239406 29.4004850742423862 4.6708057096655367
-8.1153847039082159 29.4646811771572921 4.7583239922312952
-7.9297065759747980 29.5145295889667203 4.8614224106262629
-7.7499947993715494 29.5497377904172112 4.9778284258820360
-7.5760398083913820 29.5720101706608993 5.1048043218241261
-7.4072872555085247 29.5843107138978780 5.2394308341304168
-7.2429070077673323 29.5896336695560578 5.3788495666144964
-7.0816362714605035 29.5897458880726312 5.5204288252759923
-6.9215173199917110 29.5847033070134877 5.6618045928168232
-6.7597892092782530 29.5734953863479717 5.8006229776318428
-6.5932887943780045 29.5552498500966436 5.9337183387062744
-6.4193888805255721 29.5302344643255381 6.0558738416748845
-6.2369284310614610 29.5001498303335374 6.1591490126189843
-6.0467303477113639 29.4675829193360279 6.2338746126923699
-5.8517051995348410 29.4350418704889059 6.2713224250077779
-5.6562358065990681 29.4041453378127891 6.2667269523782352
-5.4648699036386352 29.3752569076081897 6.2207166824633831
-5.2809197805056405 29.3476260942765883 6.1384350256095601
-5.1055659807535365 29.3199812606192260 6.0272349584529561
-4.9380540974244429 29.2912191849294388 5.8946673329090054
-4.7768507440669987 29.2607461993584828 5.7478540079816405
-4.6204246402970828 29.2283984800293943 5.5934308877865782
-4.4669048703285128 29.1942683730548431 5.4369274478600573
-4.3134668688694706 29.1587333533088824 5.2821270057435612
-4.1565351536668844 29.1225474482483229 5.1314094218386508
-3.9926814501688233 29.0866628758888872 4.9867253682184387
-3.8196053685264388 29.0519381750529213 4.8503349754636869
-3.6368250202533670 29.0190810938880617 4.7250034586878567
-3.4457111776752569 28.9887213373413921 4.6137217315871073
-3.2484938923601039 28.9613152709039596 4.5190534197328223
-3.0465642191783946 28.9369240829574892 4.4424240767068444
-2.8396526967352562 28.9151623749247975 4.3840028299294307
-2.6270610054091668 28.8954316158719777 4.3434699855538987
-2.4096337579372440 28.8772322782115864 4.3209658162792515
-2.1902904674153438 28.8603021476321082 4.3174356451707947
-1.9726383341215232 28.8444952551571134 4.3344055513466611
-1.7592090622129870 28.8296152291187013 4.3736226306823003
-1.5512066679355239 28.8154895594053215 4.4366007572326893
-1.3498919084739573 28.8022082590630255 4.5239062387078981
-1.1576364817980949 28.7902057558051752 4.6345457067362048
-0.9771694900954220 28.7800711367065816 4.7660349428071100
-0.8101128324274409 28.7722471700156639 4.9149965442988357
-0.6563803342165642 28.7667879033940856 5.0777283673989650
-0.5145541599706118 28.7632717768992521 5.2505171096355490
-0.3825063562824687 28.7609494551957674 5.4298333078701777
-0.2577065796424765 28.7589896345921119 5.6125806946319514
-0.1371450086424955 28.7565654887327824 5.7963072928198365
-0.0171486906800178 28.7528900280785820 5.9789669579171374
0.1065388387021811 28.7475426306159427 6.1579149650720577
0.2382991924411129 28.7410163841634017 6.3285967965974272
0.3820614341355157 28.7350445057737005 6.4840558024367851
0.5405926651871207 28.7325305220202374 6.6157288415368836
0.7142902927292210 28.7371187321726893 6.7149077228047069
0.9002895660489632 28.7522291801044894 6.7746342357476443
1.0933542486963557 28.7796792235718861 6.7919901042509210
1.2881968160304293 28.8185933784057546 6.7695095161961829
1.4814019501489104 28.8652449484774607 6.7143564406124128
1.6719842903096969 28.9140210796104817 6.6357664929122482
1.8609248562496403 28.9590437718660816 6.5424471178298589
2.0503057342452862 28.9955223433299984 6.4412125352982414
2.2422417296852784 29.0203349698891095 6.3371054541724146
2.4380399191075215 29.0320232183868647 6.2341557360523776
2.6379639193117512 29.0303043332349837 6.1358688576624374
2.8413227597715620 29.0152524294106549 6.0453853812311440
3.0466490764728960 28.9868677796272358 5.9655047288824914
3.2523243897033551 28.9456242464258082 5.8984984929979181
3.4576103373607907 28.8932948024829983 5.8458743757256162
3.6628960764549774 28.8328426713891339 5.8086772343137678
3.8686011395570743 28.7673901492612103 5.7883550196822693
4.0742160884933414 28.6993137490514520 5.7872169391119588
4.2783715713443033 28.6300443969586098 5.8078921091101936
4.4788986583854253 28.5602607642801871 5.8523359723616544
4.6726542553987205 28.4900887481859151 5.9209961051384123
4.8562414699226046 28.4190853189983983 6.0123113092602960
5.0273311668595060 28.3461971523867113 6.1227845418567757
5.1852966723946441 28.2700535740444003 6.2476521037570940
5.3311788157458881 28.1894890429702052 6.3816782036988418
5.4677026293908284 28.1039230541929790 6.5195684535331111
5.5993891419401169 28.0134582885468539 6.6555651429384515
5.7322824539000754 27.9189133454685461 6.7823189061283848
5.8727873716857566 27.8223806438818606 6.8900603082637151
6.0256869278750056 27.7282258403530477 6.9672629300731508
6.1923164268264452 27.6432638014224850 7.0030658144102835
6.3697279953239603 27.5750806672636593 6.9907832079970484
6.5514068539395600 27.5288911286108089 6.9305252104189110
6.7297046107628384 27.5047185556367708 6.8288767083883455
6.8989517566125489 27.4970562478457943 6.6958380362973813
7.0575279294094813 27.4978436238682775 6.5412710826783851
7.2077184849626468 27.5007070504294582 6.3728799661337998
7.3538007080524475 27.5031572784188221 6.1961141622234699
7.4999708807899417 27.5055053892386212 6.0149402834643730
7.6491477448685679 27.5079665142216356 5.8325315214709708
7.8027576508809693 27.5085600203586971 5.6517120527181071
7.9612007605738953 27.5032080842417983 5.4752874098473256
8.1244742025327774 27.4871516510485598 5.3062624519175916
8.2924785195427511 27.4561744069635019 5.1479024453332425
8.4648751038313481 27.4072383325777515 5.0036693468964195
8.6407154967332822 27.3390272282056976 4.8770510110352490
8.8183717866966926 27.2527055612958051 4.7711827069723576
8.9963375724892884 27.1524713627585896 4.6881826479685778
9.1745797103125533 27.0451169032336018 4.6285026537864020
9.3548459261949937 26.9382555093237812 4.5909557167290362
9.5391528122391591 26.8377036232753809 4.5736082866789456
9.7282914592108138 26.7453587542842754 4.5747874304743217
9.9219761813599270 26.6592694296444144 4.5934635672725879
10.1195023138331504 26.5759260541579110 4.6289167364628447
10.3193876985774775 26.4928207700521625 4.6800480669954112
10.5188418038993348 26.4094837960530633 4.7450275488951394
10.7144868546405263 26.3268405967313690 4.8216810967816741
10.9037615877233449 26.2460130358400576 4.9080368616278829
11.0857833078075902 26.1675328731757020 5.0024040502174696
11.2613959477262320 26.0911537277293881 5.1032915694049112
11.4327336872769134 26.0160079878440982 5.2093928380738408
11.6023970746542009 25.9409360354524843 5.3191707323620747
11.7724061993763556 25.8649200978087137 5.4299706645690460
11.9437651647184691 25.7873599396529087 5.5374890566762591
12.1171541353220533 25.7080091015821495 5.6361494375829437
12.2937071239822018 25.6268517852674549 5.7199166902830338
12.4747466678041228 25.5441220122834665 5.7828474625880926
12.6608743099325558 25.4603091633967331 5.8193363970356291
12.8512740387617885 25.3761071919618537 5.8248025259866996
13.0433776491726494 25.2925128242176669 5.7970068976385019
13.2333387300351113 25.2108401874190093 5.7371072378047252
13.4176864848204449 25.1322326747715756 5.6493819972356167
13.5950341759972080 25.0570517574689475 5.5396090368613731
13.7663026219798308 24.9849372160287047 5.4134368357545490
13.9332490188948732 24.9155330612769959 5.2760639677106962
14.0967794225538032 24.8489102757794598 5.1327238983335768
14.2565915397490759 24.7850286915304849 4.9884893618385693
14.4122723707556997 24.7227658099529108 4.8470940775402429
14.5644366122679436 24.6596518678323449 4.7101433984654690
14.7146022841827531 24.5926115933903802 4.5777879149490879
14.8642958731492261 24.5188626640889318 4.4500364532999352
15.0144892804763117 24.4362604639690559 4.3274923883950756
15.1656169426131893 24.3431713687791174 4.2113574769218509
15.3178219754953346 24.2382638926553255 4.1031686779993777
15.4711625424234676 24.1204704148815949 4.0045869919902586
15.6257202889106761 23.9892441478941407 3.9172807754652368
15.7815882630389552 23.8451693969914800 3.8428374148755697
15.9386759038568027 23.6906975038452536 3.7826420870302755
16.0964130644652812 23.5301956710173883 3.7377110118104309
16.2537646779807687 23.3684108395052021 3.7085432123937192
16.4097813900155529 23.2079912179236167 3.6951021181314623
16.5639147876045136 23.0485973650387876 3.6969502013821902
16.7153605473745941 22.8887802279707806 3.7134160372009823
16.8624582463637367 22.7281990525824398 3.7437667191375716
17.0031997510871946 22.5677607321654250 3.7875115297374382
17.1361662655947526 22.4082618814314216 3.8447124501552796
17.2610807854230686 22.2493196635733099 3.9160472790840100
17.3789044601823868 22.0893780860045226 4.0025250350874373
17.4912903377130391 21.9268111377417227 4.1048677946315184
17.5993844945099909 21.7615823957933046 4.2228395722768894
17.7029312683433488 21.5958414651435753 4.3551834484444552
17.8004926677094524 21.4325282246218585 4.5002706254746734
17.8902047749160111 21.2735993367154705 4.6564682453390152
17.9703880278199151 21.1195850851369116 4.8217530279208543
18.0401009880247187 20.9701877575458866 4.9933004203735951
18.0996759613837455 20.8247315601907772 5.1678135696344398
18.1508269372238331 20.6820156333503888 5.3423792043972718
18.1962492562017424 20.5400569778565405 5.5151168024143118
18.2390985560719443 20.3963080645110537 5.6852831123237237
18.2825028847181450 20.2484473555552640 5.8526040333237592
18.3291714903818352 20.0953511820082049 6.0157280042518089
18.3813595125473732 19.9374685291346445 6.1710452258622048
18.4412679744912964 19.7761317312656963 6.3133455326185626
18.5114498689948554 19.6125220824362003 6.4375461965158891
18.5947044017209322 19.4473482582725978 6.5396913231735816
18.6932904351534468 19.2814984875178617 6.6167931080577436
18.8077914126900012 19.1168956198007436 6.6664669228656290
18.9364527226568100 18.9563567619214801 6.6872536605574933
19.0755519898618360 18.8022447804696498 6.6793633455498238
19.2205191555835349 18.6551289215060478 6.6448905133514060
19.3672705974029142 18.5134156713694864 6.5873117383499267
19.5130086999735042 18.3740830077892596 6.5108384520389091
19.6558657734009685 18.2341481965058776 6.4202124830946232
19.7940452729884306 18.0918835033687841 6.3207907901361224
19.9256875935398163 17.9468927074638529 6.2179538919781194
20.0496821288758476 17.7991401831062390 6.1157732859912137
20.1664427826270689 17.6480026384857673 6.0163180654112569
20.2777223952955410 17.4921855335958831 5.9203135223583132
20.3857024049658335 17.3300877170167809 5.8282132854899817
20.4921227368961532 17.1600862528858578 5.7409199522590431
20.5979476461695015 16.9808089887211011 5.6600142258484585
20.7035693726141474 16.7915056961513081 5.5874471539757185
20.8091805906107972 16.5922852127540459 5.5249576826549944
20.9147804783096056 16.3841654432069461 5.4737078274594140
21.0196516430045079 16.1693704790442183 5.4342873819512274
21.1220172659483012 15.9517237939597507 5.4068569083017604
21.2196451567500581 15.7358575154140237 5.3912308494193315
21.3110403680747140 15.5248686518568686 5.3870146415163305
21.3960577783345336 15.3185578584138415 5.3939448440166178
21.4754410030855105 15.1142411493643571 5.4121925157412853
21.5498975608865138 14.9092240517225463 5.4422350694270651
21.6194107184947200 14.7029390852310016 5.4842907577180959
21.6831438789618325 14.4972581721222440 5.5378319942653409
21.7399275024444876 14.2947833279160292 5.6017243944949584
21.7889627384831179 14.0968404997123518 5.6748329061230329
21.8303719772301150 13.9028533338340523 5.7564151487296922
21.8653132781142894 13.7112489633425572 5.8458663646514193
21.8955504650897268 13.5208725006053339 5.9420026229601124
21.9229016354576665 13.3314622454269340 6.0425972436263340
21.9492521631799917 13.1427937419856402 6.1446231821493278
21.9771269917482464 12.9539400779044591 6.2445978163134637
22.0101513218282214 12.7637906004300667 6.3383210830018673
22.0528072214886137 12.5721339382909818 6.4203394386159989
22.1092390596398545 12.3801258566086911 6.4839595120429365
22.1815002613712302 12.1900457391626809 6.5222114449122444
22.2684424008009074 12.0047218664415194 6.5296873667739774
22.3662548535574288 11.8267348832266865 6.5043843845222167
22.4703326243429551 11.6574599367780181 6.4482780802841102
22.5770136477717358 11.4967267625653289 6.3663479443120039
22.6840259673823326 11.3434639687244481 6.2650247236544541
22.7900941420233103 11.1962116577555122 6.1507501154577380
22.8947121831678579 11.0527583637121669 6.0287601367153911
22.9980734878774200 10.9097773407409750 5.9025764768038922
23.1006728669901342 10.7634461915924309 5.7746530630722308
23.2028333953862429 10.6105791399620344 5.6473833101554831
23.3044656983334200 10.4493887586235985 5.5235162744134030
23.4049103136336747 10.2797518936643080 5.4061368297995749
23.5029223204762552 10.1030937691671738 5.2985392626730032
23.5971447944798491 9.9215146203421636 5.2037374049162111
23.6869268297960254 9.7361160572482053 5.1236002528361517
23.7726412950975607 9.5458952154182946 5.0584815395329219
23.8550733222418394 9.3484939012519561 5.0078635212208180
23.9345347965184274 9.1420024597498788 4.9712459328244432
24.0104498977676251 8.9263069148380492 4.9484552201490253
24.0815531122219824 8.7032575237839396 4.9394451489109361
24.1464239821443094 8.4755942035363994 4.9440505857808024
24.2039580155937664 8.2455369910040659 4.9619075499528371
24.2534411343259464 8.0147285042178371 4.9924489508408225
24.2943518804310443 7.7853922609135164 5.0348809306119637
24.3264170451056714 7.5604620122462451 5.0882050428757939
24.3498702678171846 7.3425514808696972 5.1512872834667061
24.3654468159758686 7.1334161680901902 5.2228116144358090
24.3740970082675972 6.9345145168400162 5.3010054290186961
24.3767578553193722 6.7477607020117603 5.3834070295417220
24.3742037202048003 6.5748889779194286 5.4674277303355865
24.3667491199669186 6.4146941675812581 5.5521612020081523
24.3539607867176215 6.2605620967640441 5.6400664209661606
24.3348289155770949 6.1027170451387294 5.7358253844426930
24.3084452227090466 5.9344644459851441 5.8426141356386943
24.2745860751723299 5.7555420373051227 5.9597786396549637
24.2337528158580291 5.5699889833767049 6.0836078887081051
24.1868701437902658 5.3817306254337662 6.2094667652521114
24.1352938573653581 5.1913896584348054 6.3331486953581670
24.0815942963763874 4.9953935454745455 6.4509139147265184
24.0308206517453620 4.7871532735226694 6.5591114674855024
23.9910707709113851 4.5607011364029058 6.6545215305965755
23.9719057525468067 4.3167884064396134 6.7355342706094667
23.9805402201530207 4.0667126432271736 6.8030991509392775
24.0183899048428557 3.8265479059251737 6.8604041469923196
24.0810737961902355 3.6055289436404845 6.9114770659474596
24.1616339684129500 3.4022332897015275 6.9596662156088716
24.2538998646112844 3.2100791388012784 7.0069400190477031
24.3538974830046300 3.0232503298706419 7.0541087304139296
24.4595679497405349 2.8385034190249812 7.1013775745814440
24.5699585474544762 2.6544239674033552 7.1487471935100944
24.6845997136634452 2.4704062266012219 7.1961810455445203
24.8031901922931226 2.2861034755861223 7.2436457274008985
24.9254768073441504 2.1012326527591689 7.2911128148496882
25.0512178321572883 1.9155230333300857 7.3385559158954337
25.1801738353750864 1.7287058013395296 7.3859491897374143
25.3121057752409833 1.5405123770384606 7.4332669091964085
25.4467746661393512 1.3506742038210540 7.4804833657689400
25.5839415293238517 1.1589227268233397 7.5275728534538802
25.7233673867604402 0.9649893912738730 7.5745096665263167
25.8648132604773906 0.7686056424035943 7.6212680992865582
26.0080401725075454 0.5695029254433148 7.6678224460368103
26.1528091448840385 0.3674126856238331 7.7141470010793993
26.2988811996400074 0.1620663681759442 7.7602160587166589
26.4460173588085894 -0.0468045816695497 7.8060039132509207
26.5939786444229185 -0.2594687186818554 7.8514848589845165
26.7425260785161427 -0.4761945976301742 7.8966331902197826
26.8914206831213995 -0.6972507732837148 7.9414232012590480
27.0404234802718406 -0.9229058004116819 7.9858291864046462
27.1892954920005820 -1.1534282337832824 8.0298254399589091
27.3377977403407861 -1.3890866281677159 8.0733862562241718
27.4856912473255832 -1.6301495383341944 8.1164859295027654
27.6327370349881178 -1.8768855190519194 8.1590987540970197
27.7786961253615310 -2.1295631250900851 8.2011990243092718
27.9233295404791839 -2.3884509112178041 8.2427610344418945
28.0663983023775288 -2.6538174322025583 8.2837590787979156
28.2076634331339271 -2.9259312427870370 8.3241674516888118
28.3468859552699115 -3.2050608973859767 8.3639604475162166
28.4838268952981721 -3.4914749466506247 8.4031123614707646
28.6182473092906839 -3.7854419039726555 8.4415974943491001
28.7499084319204279 -4.0872299669642587 8.4793901785602870
28.8785723603570617 -4.3971050632203497 8.5164648807820065
29.0040043836827053 -4.7153194215651091 8.5527964346182372
29.1259779364567670 -5.0420567147016406 8.5883597891205419
29.2442751787454149 -5.3772205014709300 8.6231249804477148
29.3586459201106607 -5.7198002667790497 8.6570327347968359
29.4686446581236687 -6.0664844058898879 8.6899254483206256
29.5733256396538167 -6.4097708247986240 8.7214370579615661
29.6711111343743639 -6.7374750213690611 8.7509635800671131
29.7604856254713894 -7.0365620813587313 8.7779455818654988
29.8415308279865421 -7.3008390090811304 8.8024831550778249
29.9167891088337967 -7.5357449852552350 8.8257988407300729
29.9901109524044713 -7.7546602581072719 8.8500424493209717
30.0645216526508321 -7.9706900549959840 8.8775825899641312
30.1408890724201086 -8.1908402999475527 8.9102564253537082
30.2180699297517208 -8.4153328717379203 8.9490196375797435
30.2940835115344029 -8.6407467065955323 8.9941705040136171
30.3672375637986107 -8.8635721395998139 9.0457889135453229
30.4364921240969544 -9.0818413982759019 9.1039781370953516
30.5011972846536672 -9.2949478018870835 9.1688775867356220
30.5607953273732562 -9.5028201098655956 9.2406009504732936
30.6148177951191762 -9.7053094345003359 9.3191619039026374
30.6630690679799791 -9.9020535114331771 9.4044160756439314
30.7057515329151336 -10.0926750203974613 9.4960820509395987
30.7433612706754893 -10.2770267772647053 9.5938217988211072
30.7764325315445824 -10.4552768709003736 9.6973120513207789
30.8053871908402783 -10.6278781518083996 9.8063576256540497
30.8305244972870796 -10.7956495903006982 9.9211701932650946
30.8519724415404397 -10.9600808465202419 10.0428366010262167
30.8696000360579568 -11.1236608551194323 10.1737922319283918
30.8830643736599946 -11.2896432657526233 10.3177072483266556
30.8919970883228920 -11.4605159801752770 10.4779057992572291
30.8961267705204676 -11.6355902934074003 10.6545903969651388
30.8952262655019396 -11.8101513240820957 10.8435264311022195
30.8889567291576945 -11.9778483486028264 11.0383335944649232
30.8767325029698014 -12.1340658263285057 11.2340501933781418
30.8577095043400469 -12.2772379397800080 11.4284143852819042
30.8308016223617329 -12.4083706331544903 11.6213881196386488
30.7946578030422522 -12.5304377518821255 11.8148588123952578
30.7479196676646467 -12.6470812280596476 12.0108913660990151
30.6898837881719579 -12.7609081368630584 12.2085679726942082
30.6210188768806262 -12.8734537537904359 12.4033617832751020
30.5426194466395771 -12.9868937168253247 12.5904244018666418
30.4556870458486699 -13.1049066536394392 12.7677843011205994
30.3601851840723675 -13.2315427211926817 12.9366163935325602
30.2560162386055183 -13.3692961311223755 13.0991071011613514
30.1453373729256668 -13.5179565411219436 13.2558114362297985
30.0337407334582416 -13.6751386702825961 13.4048883920458017
29.9286388305946360 -13.8380208248060619 13.5441367186803898
29.8364568283265363 -14.0046906736331707 13.6737230344213980
29.7610320241780784 -14.1746217463103292 13.7971835982088322
29.7039153263673121 -14.3486346670022442 13.9202660224095105
29.6658143101909531 -14.5279004144444208 14.0484866016181620
29.6480230305803723 -14.7115153701856229 14.1842493744961686
29.6528188704785904 -14.8945829625148107 14.3250839647665451
29.6821925847761641 -15.0701999692591286 14.4652599166282272
29.7355752173601786 -15.2344142725924030 14.5998865421146551
29.8086154925047921 -15.3886395475193041 14.7270606005897680
29.8941617328597324 -15.5381010629194307 14.8467253231870444
29.9843273233509748 -15.6891664481160902 14.9588102357879453
30.0720942636280419 -15.8473419424007460 15.0631681582275423
30.1519230332910411 -16.0158714096606296 15.1611447149155065
30.2193734210969893 -16.1948388991165260 15.2560610927902793
30.2702531089451732 -16.3808655331105157 15.3506820616807591
30.3004344373698942 -16.5678678427302977 15.4437241422614058
30.3068260511687022 -16.7502338138322138 15.5298433408315422
30.2882759437637574 -16.9273874390300598 15.6038004235602177
30.2458077577411473 -17.1042949392922736 15.6644262893120079
30.1836289239495983 -17.2861941902130667 15.7156073359271957
30.1108997726080609 -17.4741134829369038 15.7659723622555266
30.0414866674510108 -17.6651991829920334 15.8282444648514584
29.9897761742742723 -17.8548415332496617 15.9162569541267889
29.9647860909543233 -18.0372675057122436 16.0384606425935061
29.9669872682082605 -18.2061580664189684 16.1927853432533553
29.9899099306446324 -18.3574707419301362 16.3690895103412402
30.0243100902227589 -18.4918830352761177 16.5571171393393399
30.0610819594342296 -18.6144569126766513 16.7521156708019276
30.0920257814395846 -18.7317484960716136 16.9533327883969740
30.1102025172179033 -18.8483457386645732 17.1585435000759148
30.1109758329333950 -18.9653499963367373 17.3618659802687603
30.0927994995121928 -19.0819552403775958 17.5575836540054020
30.0565343628282058 -19.1980822323656710 17.7445855774938579
30.0040218430015244 -19.3152849176607688 17.9262102280961422
29.9374777853295022 -19.4356123483439980 18.1068737469208614
29.8599574561501164 -19.5596406793992124 18.2889853036172951
29.7752870602243860 -19.6854012224414561 18.4720572345470302
29.6865795034604467 -19.8096300913980343 18.6541278870907838
29.5948485314647236 -19.9302598951194341 18.8334792507430393
29.4989668036228636 -20.0477894369724154 19.0094367570063127
29.3968349334915366 -20.1646159062647428 19.1823149054236417
29.2867484791055901 -20.2831403568005832 19.3529003631952747
29.1682604875426854 -20.4040129613209444 19.5215204973366525
29.0422778486243125 -20.5259395433225187 19.6871334685413260
28.9099187251546574 -20.6476128311014691 19.8480423945684308
28.7715126050869436 -20.7694311335049164 20.0034469523114211
28.6271980973193685 -20.8930331905146929 20.1539987466794059
28.4783757875988499 -21.0194993736723958 20.3006263007012890
28.3275560492054836 -21.1485605232193379 20.4426160520102052
28.1757625950735608 -21.2796494390329940 20.5770111559003404
28.0201883601683406 -21.4131325476405792 20.6995288630706540
27.8550169279405253 -21.5501219300682365 20.8056421574359938
27.6757504082518899 -21.6907870588452241 20.8910024937822350
27.4832086689121162 -21.8331962345172030 20.9519276177007043
27.2823226373446985 -21.9747461334112160 20.9865811728805305
27.0775078309436701 -22.1142169124972838 20.9955034137708196
26.8706358839810306 -22.2518524002844558 20.9806575469280610
26.6627416688897831 -22.3878724437088081 20.9443355842544818
26.4555147066566008 -22.5213741537361898 20.8890638070467389
26.2508852940373707 -22.6506204474717237 20.8181318335243759
26.0510510294414814 -22.7737146987914016 20.7357221608951647
25.8586776281722877 -22.8891364829779818 20.6454540578827910
25.6757855199950278 -22.9966174563291332 20.5479884405417295
25.5024082447606624 -23.0984201771382232 20.4408566056070597
25.3356816561679175 -23.1996631855756377 20.3223548918327310
25.1698017812954333 -23.3060681300177919 20.1962700559153703
24.9980537638133491 -23.4205927000258711 20.0729839467486713
24.8158214989592629 -23.5423701860458081 19.9658535703374156
24.6221493405766552 -23.6689627457519762 19.8855286067124766
24.4190591250215263 -23.7993472849097714 19.8357423617389514
24.2096142058624899 -23.9346521670277355 19.8124005790773943
23.9970931452098029 -24.0759465063964484 19.8067042740532102
23.7853529040147222 -24.2215900835774534 19.8107523132753123
23.5780762254611886 -24.3674794503074850 19.8213429527445122
23.3772788955848583 -24.5096650455915821 19.8389587923684161
23.1827300368911118 -24.6465074355661571 19.8635343246748732
22.9923244919630569 -24.7790579714248480 19.8908720542011608
22.8029603757407635 -24.9097218408295333 19.9119540089878839
22.6124195194437831 -25.0401790227110297 19.9148560591751114
22.4218057453415085 -25.1698654696865347 19.8881780500559451
22.2362722708385689 -25.2959295993793134 19.8249421827852501
22.0627880320075285 -25.4144798405381280 19.7251271341546008
21.9068395049827345 -25.5218662531875466 19.5947979063649420
21.7707082427368199 -25.6153474225432944 19.4419562802105119
21.6538197532878947 -25.6935804032954778 19.2722966295480589
21.5542934981387440 -25.7567910057013307 19.0882567570843449
21.4700329466400177 -25.8064425189196527 18.8907242952956054
21.3986226963745629 -25.8444784851732905 18.6811081399588979
21.3372667708981041 -25.8723396169001489 18.4628830462244764
21.2834278516841451 -25.8905402028113869 18.2406503297838647
21.2357233962863354 -25.8989067583068575 18.0171036869267347
21.1943264896298267 -25.8969452433354377 17.7913123726775595
21.1602756623605188 -25.8842025586533779 17.5597252645291846
21.1342438613559764 -25.8606627348345910 17.3191158375727206
21.1159846384121614 -25.8266413412886422 17.0691880413009294
21.1043343570273372 -25.7819240636990301 16.8114537469843768
21.0971966295772333 -25.7257150638670069 16.5470203268549447
21.0916408563528179 -25.6587864694565440 16.2788103803066981
21.0843884165415183 -25.5851483675977036 16.0144049033872022
21.0728397939937437 -25.5100132536410271 15.7621228646740921
21.0560220727062664 -25.4362259362327805 15.5249304615617323
21.0346917487980463 -25.3634897112636466 15.3013328856599315
21.0104476649281686 -25.2901340878512784 15.0898255598403583
20.9841279182255640 -25.2144443038749415 14.8888758178606171
20.9545246494672206 -25.1352070778169860 14.6947609871688023
20.9185796262194188 -25.0524761788216352 14.5029191302944778
20.8731070038942796 -24.9676562605545556 14.3112661643914567
20.8168839893085540 -24.8819151302507890 14.1208281900794770
20.7514329102887736 -24.7945811707093853 13.9338739832802041
20.6796771546026719 -24.7029131607384187 13.7514906288143059
20.6040489235972757 -24.6034100968299043 13.5730627905174401
20.5258425542401319 -24.4937482878019210 13.3980626473043820
20.4458950703793576 -24.3737971829824147 13.2279105312256213
20.3651836575668099 -24.2445843978532878 13.0653616766782381
20.2845899104301459 -24.1063237845325347 12.9125542803682087
20.2044042766129976 -23.9573784139727053 12.7707735634444610
20.1244859766873461 -23.7945846141583814 12.6426065321331151
20.0450187572106628 -23.6141752895925876 12.5337122010413076
19.9668528555145528 -23.4129795069099842 12.4506018912243075
19.8912151735674883 -23.1904531198953094 12.3954102633387304
19.8196252222087921 -22.9505017582769781 12.3636354246152926
19.7538920575452401 -22.7001387388755020 12.3473460983463568
19.6957507193485384 -22.4461451506637317 12.3397154389366044
19.6464303239452924 -22.1930479814951767 12.3369490891385336
19.6065689717526013 -21.9432134061794599 12.3376364183821234
