BEGIN_0
-22.1231227651755056 -24.0291060956726810 19.3698429700767818
-22.2901279787751392 -24.0465891502567430 19.5414191827452051
-22.4799657702558662 -24.0479728518102931 19.6946367902383201
-22.6892233185467767 -24.0335131590251549 19.8229456967242115
-22.9134217081861955 -24.0051313578639167 19.9225864739853087
-23.1473811697859695 -23.9662084155276958 19.9936366279684137
-23.3856790829373544 -23.9205941483393403 20.0398587279299782
-23.6243851820634632 -23.8716426834135333 20.0681274034942021
-23.8616550638570253 -23.8223546355231619 20.0876622856854468
-24.0953963038293040 -23.7762656497498881 20.1089092252340933
-24.3220853571452515 -23.7373915004217864 20.1420566340147431
-24.5379618797183809 -23.7090489435781819 20.1952441697005618
-24.7402613264956415 -23.6927201536579730 20.2729354629102296
-24.9283669960366261 -23.6878179201668004 20.3754141196482053
-25.1048670573345447 -23.6922678082451554 20.4992901117899038
-25.2745803298302540 -23.7031486719666731 20.6376206454502267
-25.4426345074302809 -23.7169717858729427 20.7804619734359441
-25.6144713150763188 -23.7298511432520058 20.9177141902480805
-25.7969681118291874 -23.7378461311837086 21.0421811415446527
-25.9970264916612592 -23.7370766124930839 21.1490784777599856
-26.2176662225708625 -23.7238878109739701 21.2333943453721581
-26.4554495586094482 -23.6955758896795246 21.2899274407277197
-26.7013677950446109 -23.6512617173029867 21.3163143872310599
-26.9445498194072108 -23.5924877506003909 21.3144953434687032
-27.1761464835834765 -23.5226483590775715 21.2882951026432785
-27.3920101298964731 -23.4447299371710400 21.2399247649787419
-27.5935917207446550 -23.3593123208790345 21.1688276094034222
-27.7852975113636305 -23.2652911530416944 21.0739251102079237
-27.9698103854803009 -23.1627145743159488 20.9569081311210113
-28.1467105260181825 -23.0540982603801368 20.8229699410033504
-28.3150205841109042 -22.9428422198026141 20.6782747725944844
-28.4760394110599293 -22.8309835225481805 20.5263474931577505
-28.6334782127684591 -22.7186692633559275 20.3666890186632052
-28.7904982705133392 -22.6053302004314745 20.1971251974123511
-28.9466033689532871 -22.4906829921417568 20.0173388746697150
-29.0974454243569305 -22.3750696193885830 19.8303945548320186
-29.2370446323994635 -22.2599728018975185 19.6420740427447598
-29.3609817351754998 -22.1476309403340395 19.4580521346604627
-29.4694038737687976 -22.0388121306890312 19.2793201885783887
-29.5670792507328741 -21.9314697983719071 19.1005372973287635
-29.6597604448082777 -21.8221267590294019 18.9142002960472340
-29.7503341569260442 -21.7082661401180417 18.7164676027633163
-29.8379777182818344 -21.5898915801464000 18.5094654419072668
-29.9202782555369851 -21.4692204426621771 18.2988015675578382
-29.9957338775827651 -21.3488851595056914 18.0894806013683151
-30.0644719035679913 -21.2305496715394568 17.8840387704614479
-30.1272735970247822 -21.1149956948709701 17.6836132408395343
-30.1845821179814422 -21.0023968733080508 17.4890714333425628
-30.2367165921108807 -20.8916857348836231 17.2999875987366281
-30.2846237746603393 -20.7803855424452593 17.1136075840701665
-30.3299103401189214 -20.6658900009966260 16.9261012861690965
-30.3738622680934327 -20.5469202265616175 16.7350325366709889
-30.4161939238734078 -20.4230867719764930 16.5398801845493892
-30.4544855979227975 -20.2933158070754942 16.3407639277832786
-30.4854604006905916 -20.1559854992910346 16.1385935200257720
-30.5086883422965300 -20.0119803371396969 15.9382658529721954
-30.5305899132510348 -19.8665874684616810 15.7501724419776341
-30.5634431977723153 -19.7253186347210701 15.5846069279523647
-30.6175209066935849 -19.5867977129311939 15.4432181781820717
-30.6935834289223735 -19.4423950458543509 15.3186808648176847
-30.7837487668091399 -19.2829486648290178 15.2030359201364185
-30.8780095386724298 -19.1040103654778122 15.0948287431008872
-30.9685071715506837 -18.9062941430726177 14.9998734528791946
-31.0497018312495072 -18.6933728697148140 14.9273263627989881
-31.1177136969716841 -18.4692665117495380 14.8842170055654250
-31.1706250632591377 -18.2373774417048899 14.8713710538022994
-31.2085030818535074 -17.9999348765086751 14.8833760857436683
-31.2321281418858590 -17.7571245458876206 14.9123644310029260
-31.2416992067995523 -17.5076530531602153 14.9515580566218134
-31.2365988315640948 -17.2522923816014178 14.9959403852413438
-31.2159252863027064 -16.9972905113138495 15.0411954403229373
-31.1792932430816379 -16.7518806592249270 15.0831762323523453
-31.1280182766170981 -16.5211997371823855 15.1181524112209047
-31.0664223871976546 -16.3032834963546627 15.1427455645278819
-31.0015529092066657 -16.0923383290456101 15.1539333324233461
-30.9404036072021427 -15.8834603892679880 15.1498789709036714
-30.8866844809291052 -15.6750398761337237 15.1307539853509923
-30.8400869533968560 -15.4681074303864392 15.0982626287932025
-30.7982115282170312 -15.2640535987936943 15.0544113055060667
-30.7586584033674484 -15.0633868384210388 15.0010444375406369
-30.7198761898943999 -14.8659107032984288 14.9401938469807796
-30.6814719525641166 -14.6707351173509402 14.8739542535737712
-30.6443739160721620 -14.4759490968665183 14.8037593385646069
-30.6103711169498780 -14.2792608071826699 14.7302680010118170
-30.5812464660502314 -14.0798062482277651 14.6542082647043763
-30.5581947821965940 -13.8795473619384175 14.5771584842420658
-30.5417819896554406 -13.6822831683835275 14.5011852530429728
-30.5322361902060706 -13.4897725138186075 14.4272566735197376
-30.5297917003635604 -13.2981383105713782 14.3538049758808022
-30.5350780137147382 -13.1002988596285519 14.2775686578071568
-30.5496075830378118 -12.8932904939909712 14.1960492134216292
-30.5761570686279569 -12.6814788279177719 14.1080281693731528
-30.6183680505999831 -12.4731697333399936 14.0117116755127213
-30.6786933444550698 -12.2756119998333268 13.9035339125240345
-30.7552524294107741 -12.0925932735515609 13.7795840931304152
-30.8402968879980506 -11.9247515722003641 13.6383138424470314
-30.9224203497111745 -11.7698571671995538 13.4815269802189146
-30.9912207021665509 -11.6218858268462739 13.3125377444857964
-31.0407171026113886 -11.4707308319276109 13.1332933324997896
-31.0694628700225906 -11.3047271930131146 12.9436406765339029
-31.0786095284617048 -11.1166285797383644 12.7447845189796176
-31.0704275273650978 -10.9089470282963816 12.5433106077897740
-31.0480322551573167 -10.6917543104375099 12.3489791732377405
-31.0150493785498682 -10.4741940153110384 12.1678806479379382
-30.9746247554923073 -10.2591539199688739 12.0000065282053026
-30.9285801080446490 -10.0443891383234174 11.8425653606368932
-30.8774932741799333 -9.8261927462521754 11.6932765225901854
-30.8214345079081085 -9.6021271089162354 11.5510912422519638
-30.7605982376330189 -9.3721040684248500 11.4160799958607253
-30.6956190313677624 -9.1386792767081388 11.2897110970555890
-30.6277788740948154 -8.9069640666807004 11.1747432023461162
-30.5588302447778162 -8.6830157452827876 11.0738744506153335
-30.4901221224296464 -8.4704252853925865 10.9878758418279965
-30.4217958440421441 -8.2679869431911648 10.9149813049296860
-30.3529908433470581 -8.0710599197029786 10.8521500709567462
-30.2826540520282919 -7.8747161908549259 10.7967453662209323
-30.2101021302468453 -7.6755895243867513 10.7472469085967735
-30.1351800376387970 -7.4719216321529700 10.7030589780938303
-30.0583069662198525 -7.2630160404723014 10.6640911752439997
-29.9805235402323973 -7.0490777200901675 10.6304548132986199
-29.9032345797689985 -6.8315059596921657 10.6022286991364343
-29.8272981247792401 -6.6129977077197637 10.5792297351981208
-29.7519201210424598 -6.3969317800267760 10.5608988997536688
-29.6744682996313358 -6.1862804319356570 10.5464077884461638
-29.5913447670100744 -5.9825776514177136 10.5349002872564661
-29.4988574618398474 -5.7853060163080485 10.5256829488837820
-29.3935648084480370 -5.5920780947425079 10.5182900272722009
-29.2728319764496092 -5.3999961226472166 10.5125001576945056
-29.1361461618519897 -5.2076419919940449 10.5083946927944751
-28.9861539576632374 -5.0157872527340537 10.5064459330937794
-28.8279863743016165 -4.8259069608846410 10.5075249264821835
-28.6670435809747772 -4.6385100906994516 10.5126868818609829
-28.5064943966234488 -4.4532445107620084 10.5226810730959564
-28.3458724446623513 -4.2702227830678758 10.5373658741167802
-28.1817650040184233 -4.0910103959502528 10.5553097064316361
-28.0103816541626536 -3.9186443350315656 10.5737531383547392
-27.8304325022835606 -3.7566852814335654 10.5891535764987630
-27.6442348097494062 -3.6075283040233828 10.5983547827227369
-27.4561772394875945 -3.4709361386279518 10.5996245707202554
-27.2701308038661203 -3.3438008313650691 10.5925804181700443
-27.0883395844070485 -3.2209724663643193 10.5770754173334396
-26.9125857059498692 -3.0964969553930839 10.5521904332666914
-26.7461231983840690 -2.9649435046586081 10.5162953165512860
-26.5938940139746904 -2.8224952128526599 10.4681468698769109
-26.4605876574916756 -2.6675250301129676 10.4080368092377302
-26.3488509713612729 -2.5008635478499333 10.3379769619088151
-26.2590246864770229 -2.3257332590214332 10.2610201505041836
-26.1897520927438094 -2.1467019268641430 10.1803182925554268
-26.1386857715934475 -1.9681525440241785 10.0983875737527384
-26.1031495016232640 -1.7936005748103803 10.0168665173362985
-26.0805682007822455 -1.6249332297890469 9.9362220943690005
-26.0686163906039745 -1.4603506181494748 9.8548338060013894
-26.0651871874861065 -1.2934781500146713 9.7685651665257858
-26.0681204340108792 -1.1167590466908450 9.6725004932785019
-26.0748348779696144 -0.9263717489598751 9.5637238267262852
-26.0823882607494753 -0.7231688310472251 9.4423259083315951
-26.0880456225304300 -0.5100087498915062 9.3104912338360570
-26.0897788770052372 -0.2899239033071694 9.1716879743828983
-26.0864257580268095 -0.0668780304328145 9.0307889314124719
-26.0776686565236737 0.1535430528249719 8.8936901376584245
-26.0637017696245685 0.3665825061937493 8.7651729779621625
-26.0446172512866134 0.5718291315853428 8.6466657303753980
-26.0201240060773351 0.7729502645963109 8.5367535843551430
-25.9898590730967314 0.9744973187715367 8.4334930331538338
-25.9537776617718379 1.1797216383778064 8.3358016205260874
-25.9121704598845071 1.3904198148265721 8.2434308440378175
-25.8654657841728692 1.6075730856408317 8.1565357915331447
-25.8140978923814508 1.8318539498520163 8.0753825430351682
-25.7584414639408941 2.0637990839627847 8.0002308227905026
-25.6987290136595448 2.3036462870059324 7.9313746848453590
-25.6350588793979064 2.5507594083184468 7.8692619220116873
-25.5676803711298319 2.8027088922810179 7.8145672442187752
-25.4973977243562828 3.0547384161177327 7.7681674902501037
-25.4255050942395187 3.3009352702175825 7.7309890024549253
-25.3528982045772011 3.5374145022385211 7.7036896305361395
-25.2789560547540724 3.7650019004811153 7.6863657498964892
-25.2014261023879271 3.9880161086346426 7.6786133436767638
-25.1177189637594651 4.2098292264386128 7.6798606732380783
-25.0264866314605925 4.4299033637280711 7.6895877130920693
-24.9281575992907989 4.6449887625183539 7.7073192198511480
-24.8243809926137580 4.8520611722103570 7.7325594174267502
-24.7170669876737108 5.0498627962006060 7.7647652712069952
-24.6075293545210982 5.2386722163092276 7.8033648664711865
-24.4959696709153221 5.4196024982210451 7.8478312596173092
-24.3814005214195006 5.5943217931990663 7.8977347452982007
-24.2621408952799946 5.7650820901494502 7.9526766954301227
-24.1368416672587252 5.9343291914309200 8.0120388854864650
-24.0054364597075285 6.1036270974069504 8.0745692059986478
-23.8691882767999921 6.2729796272186960 8.1380946022724494
-23.7299615218627622 6.4416894217385012 8.1997350438925860
-23.5899231785311727 6.6100014719819828 8.2564959682480072
-23.4521178571537341 6.7797962631463182 8.3056926063749046
-23.3210829146031955 6.9534207973423774 8.3448477219875485
-23.2026801025648908 7.1314614178630809 8.3713525135035756
-23.1032971103053661 7.3114989108290525 8.3825079423687470
-23.0287589705263969 7.4893178280216164 8.3758469772036328
-22.9827199616064739 7.6620902696077913 8.3492299778692676
-22.9651411997328658 7.8307795136967844 8.3009995016367828
-22.9723699044201517 7.9988033941741463 8.2308957842430850
-22.9987725890858172 8.1683269915528545 8.1410214935675036
-23.0382589581305162 8.3388633322419796 8.0354167182935932
-23.0848147669807773 8.5088772741353047 7.9187783626994888
-23.1326337700440021 8.6775190868860541 7.7956418694579419
-23.1764332336296057 8.8450830370929445 7.6700859808101862
-23.2120834203415072 9.0132346951166316 7.5453492030963476
-23.2372197607165205 9.1857088615374902 7.4234430631285262
-23.2512746163370529 9.3685669703494927 7.3053049562358821
-23.2547875713924590 9.5684497608833325 7.1917169857496983
-23.2485644401981233 9.7882297896288435 7.0848136519973917
-23.2332673424245080 10.0230772866656679 6.9890345333046771
-23.2094332760768829 10.2625170759233768 6.9096501670192962
-23.1775931530633130 10.4978854669983157 6.8496781415092372
-23.1383734715090874 10.7267816791494308 6.8088134064041377
-23.0925449922906445 10.9511030078027325 6.7849997793013133
-23.0409601030463804 11.1726626496325441 6.7762362192490508
-22.9842973950196310 11.3910515255205507 6.7811145989440416
-22.9226629833897633 11.6045411259608304 6.7985611862188460
-22.8552855774509958 11.8118313819601042 6.8276142063201828
-22.7806304255159908 12.0128668903090681 6.8673350100621056
-22.6971088676718402 12.2086082863396737 6.9167167335361528
-22.6040279338904604 12.4001491602079561 6.9748499140337019
-22.5020863691413062 12.5875226746658342 7.0412169658541783
-22.3930673280428252 12.7692315326355619 7.1152944288977888
-22.2789925827083763 12.9432847961643027 7.1955446684558817
-22.1613996020405857 13.1087201811841148 7.2791336311107866
-22.0410599087988395 13.2663949138377575 7.3627948444986604
-21.9181798683715172 13.4190108818459439 7.4435394997050022
-21.7930788043920600 13.5706848845399861 7.5183825670875661
-21.6670069728675578 13.7259143694334114 7.5837811691110764
-21.5426092289465494 13.8880661349090637 7.6355214480760845
-21.4238848000121074 14.0582119327649657 7.6689593381396817
-21.3157061598549227 14.2350321263674733 7.6795560263900082
-21.2227191386976628 14.4157974823516000 7.6638674395234174
-21.1479648159404796 14.5975948800117923 7.6205799022310368
-21.0920998761288701 14.7780919947490723 7.5508692816060163
-21.0535867653257327 14.9559653153377141 7.4577638752763207
-21.0293930067499595 15.1313381984767421 7.3447247574352073
-21.0156236606085507 15.3060348865262768 7.2141564511538077
-21.0078733196778025 15.4834766377933164 7.0667521224043215
-21.0015546072579227 15.6676064139185662 6.9026589683274686
-20.9926432073344422 15.8595835088627481 6.7249197256261528
-20.9785783095405520 16.0545917316153890 6.5422087100150765
-20.9583732515722225 16.2441692691822261 6.3660932597012962
-20.9316746099257252 16.4233200784167792 6.2043805742327915
-20.8976739484082685 16.5941322778011262 6.0585522704496952
-20.8547854088836004 16.7629680736974436 5.9267954828411202
-20.8011002622012704 16.9357731968961929 5.8073224433471271
-20.7351856533699070 17.1155964617318972 5.6992698407906879
-20.6568233299849489 17.3028851085830340 5.6024104947642055
-20.5671573912682604 17.4969491631575913 5.5170076835893145
-20.4681235064983333 17.6967122213274770 5.4439064649090287
-20.3617413648568082 17.9004962090939870 5.3843298304628000
-20.2495692161465612 18.1061157781517252 5.3392125407361526
-20.1323849889509532 18.3116566168487687 5.3086486165774431
-20.0106031306540864 18.5156181305517862 5.2919299850150150
-19.8852077288221949 18.7161571600030605 5.2879817676342693
-19.7578266425322333 18.9111380742451658 5.2957141296778563
-19.6297689818389216 19.0991950065330087 5.3141764849194786
-19.5011727534417503 19.2805845790258843 5.3427041805594850
-19.3710921948196990 19.4571660488248064 5.3810282139942416
-19.2385966461518763 19.6314593733039189 5.4290753254004596
-19.1041117518128161 19.8051216519946536 5.4864263265945308
-18.9696151930837402 19.9780098669012247 5.5518777590544346
-18.8373406168182029 20.1488946722003135 5.6235558262101772
-18.7084618788973494 20.3171222036564885 5.6994105670241595
-18.5828384938902325 20.4835545739014080 5.7775066504681138
-18.4596492274355768 20.6499897037372548 5.8557209636379000
-18.3382937715620642 20.8177561314140078 5.9310472013520474
-18.2187911323473202 20.9870307981921513 5.9992048436553311
-18.1013822567730038 21.1575684923161944 6.0549125418061820
-17.9862465489393308 21.3296207333333925 6.0923703239162794
-17.8742179124523197 21.5035857059302984 6.1057119810108915
-17.7678574744728479 21.6785977994563481 6.0898550304375476
-17.6712376604070585 21.8518311590341270 6.0418228988056466
-17.5879932339954017 22.0196334684809827 5.9617649822492691
-17.5193169831200599 22.1792236262698985 5.8529353856734350
-17.4635692552814987 22.3294229601476033 5.7205248073542343
-17.4172278840510941 22.4706738867447875 5.5698030515837189
-17.3760179239952564 22.6048184529762253 5.4048233747617385
-17.3357089197128040 22.7344438206301973 5.2287865694537405
-17.2927451511939232 22.8619795769093201 5.0453040132031255
-17.2447782467236763 22.9889387084711139 4.8590317184872998
-17.1907993936531192 23.1155439891438377 4.6752684931682946
-17.1307268175923504 23.2411569528547446 4.4988976705747721
-17.0646449169410346 23.3656518654342271 4.3332156339861676
-16.9921706760088256 23.4906459153001670 4.1795482698599020
-16.9123718667864402 23.6191541093932820 4.0379803173659425
-16.8240868535452357 23.7541006633207346 3.9083185178170687
-16.7262155197651197 23.8973073971683476 3.7906363089494075
-16.6178250861583230 24.0495756225086907 3.6854188056794097
-16.4981661024064366 24.2111967733807347 3.5934795662807772
-16.3668046032410572 24.3820029072710582 3.5157846671671162
-16.2240899909485741 24.5606413980944183 3.4532505283602681
-16.0717132503340814 24.7437830792353957 3.4065008601163029
-15.9121856081476487 24.9268927851698621 3.3756329265948093
-15.7466471716014453 25.1068615487609037 3.3601905931131739
-15.5735416590952518 25.2834736912538816 3.3594931764439053
-15.3909069064945818 25.4571950789475352 3.3730754033112529
-15.1995213195713070 25.6263147343909310 3.4007561918869946
-15.0028213584628070 25.7872303803651448 3.4423550342176714
-14.8045642062571901 25.9366451085292375 3.4974616155608462
-14.6072894242892275 26.0728895852679159 3.5654254836249972
-14.4123267755914028 26.1958730753213054 3.6454390411049822
-14.2202842741309574 26.3063973501099646 3.7365992662157961
-14.0313148060745583 26.4054339886368865 3.8379350272848196
-13.8453564439629382 26.4939613555454940 3.9484158774862426
-13.6624187728788655 26.5733196556866744 4.0669780359281447
-13.4826028508548852 26.6451881990828312 4.1925972288452549
-13.3059021625827505 26.7109481553812174 4.3243656583188823
-13.1321623361097100 26.7712730525025790 4.4614930063032805
-12.9612352069997367 26.8264176928509883 4.6032080968081086
-12.7930642157088528 26.8767354607687992 4.7486220901525282
-12.6276315259445262 26.9229161408057998 4.8966658581419154
-12.4648938215799951 26.9659105045994956 5.0461794747101365
-12.3047481001072061 27.0066902982407484 5.1961193345809100
-12.1469610108254091 27.0459496376683219 5.3457787878473244
-11.9910002669452709 27.0838551594903869 5.4949402210158453
-11.8357109158931859 27.1200147246130037 5.6438603786891708
-11.6788943055382557 27.1538538642784104 5.7930058766062320
-11.5172509120373530 27.1853124260128354 5.9425924046597558
-11.3473502120709409 27.2152440180840003 6.0919498166586354
-11.1674209409968554 27.2449284104031619 6.2386656911643374
-10.9784229295374676 27.2752422647961126 6.3780243756459303
-10.7833187695333201 27.3067606866166095 6.5036260754270874
-10.5854595803161597 27.3408057236755013 6.6089529691064364
-10.3873652867860145 27.3800037064892976 6.6887773102024042
-10.1904039127638733 27.4274429077536510 6.7398911890621349
-9.9951827860266711 27.4851375703140590 6.7617625827834162
-9.8018714927301147 27.5530892543186070 6.7571293590994124
-9.6100373978931888 27.6296388599845315 6.7315195305478248
-9.4185616387582662 27.7126470320147575 6.6917099086827800
-9.2261613480692191 27.8004383677738787 6.6442723091086844
-9.0320248832002221 27.8920256298485114 6.5949186079214321
-8.8360183039107234 27.9868178655222515 6.5483777530879568
-8.6385213209845233 28.0842501606539408 6.5083138962578460
-8.4401974041116254 28.1834915973840516 6.4772420102882720
-8.2418569881795474 28.2832518204801104 6.4567839676518020
-8.0443175621560439 28.3819466617620471 6.4481631638870152
-7.8480359383586773 28.4782459440266287 6.4524438066020178
-7.6527668583568342 28.5714583540776772 6.4704273718563545
-7.4578373496080559 28.6612977154144204 6.5024832530266412
-7.2630788746548873 28.7473196823853527 6.5483512801530530
-7.0692354739299681 28.8287841420763513 6.6068695808845064
-6.8771356531009058 28.9051922949826192 6.6758462104671672
-6.6869378427028234 28.9768924782462847 6.7521616668013333
-6.4984405798981477 29.0451460544547935 6.8318641089824794
-6.3114950253940254 29.1116852262667400 6.9100685475072163
-6.1256943626188178 29.1780851520141198 6.9806396428979021
-5.9402613906213215 29.2450801619006953 7.0358071169526060
-5.7549202089492528 29.3120483593362984 7.0663922294077963
-5.5711118922134935 29.3769214423864540 7.0633938547802808
-5.3923564189221480 29.4365123397144579 7.0206132269208696
-5.2230451461910699 29.4872772704977066 6.9368842939733284
-5.0664879022394924 29.5263969751508562 6.8164611608675969
-4.9238505116289479 29.5526856387679757 6.6673218852572536
-4.7943248706368831 29.5669416523799100 6.4984341564603447
-4.6755189057110655 29.5717868395617174 6.3171825653140594
-4.5637848621373376 29.5710291965310255 6.1281260199953795
-4.4549349381822534 29.5685541102627951 5.9336608295073070
-4.3450136467627098 29.5670411660028272 5.7356069804724310
-4.2305752067108786 29.5671762528073039 5.5363130661038440
-4.1085819043071830 29.5679325460771913 5.3388597411459955
-3.9763064272379385 29.5676489575434971 5.1467808726537232
-3.8314193900429325 29.5650429526419209 4.9637926775686676
-3.6723215009392778 29.5597151908090225 4.7937098607551913
-3.4986856524116998 29.5522880594680473 4.6404374311931491
-3.3118090859300073 29.5442840960703776 4.5077573849063111
-3.1140738116353237 29.5375792765177714 4.3986894171283346
-2.9075577264712305 29.5335029551122297 4.3147042132733002
-2.6932924496023567 29.5322451283492704 4.2555993866601423
-2.4721590685102841 29.5330922188166767 4.2203428723354524
-2.2459550549194391 29.5350912344598591 4.2080320420358461
-2.0173417053766363 29.5374621481404880 4.2181610381190797
-1.7896503795084575 29.5396355758608529 4.2502809721272623
-1.5671028054519898 29.5412114749692165 4.3035931793493685
-1.3541352263866555 29.5420257601694054 4.3768488586786258
-1.1540257040774327 29.5422211821425940 4.4685141108150219
-0.9682551852167984 29.5422110554976776 4.5769294298842311
-0.7968789564943335 29.5425837795393775 4.7003643036846849
-0.6391669922183940 29.5439843898539003 4.8370890119675671
-0.4939828385899938 29.5469323892365523 4.9854532816140207
-0.3599002029902234 29.5516322704184802 5.1438028892969321
-0.2352339067917155 29.5579229488779696 5.3102988392215806
-0.1180947855519343 29.5653706752903034 5.4829281252454525
-0.0064815896633519 29.5733631996248683 5.6597982680623478
0.1017038747504531 29.5811181031339956 5.8395654810024062
0.2087580306100647 29.5876293022554648 6.0217895933266288
0.3171330967431336 29.5916753236087899 6.2067945236444242
0.4291023550466782 29.5920604569792118 6.3944983246568974
0.5465467347973498 29.5881039417339480 6.5825782250851930
0.6713825935377611 29.5801531676445322 6.7656653335625938
0.8062537372028578 29.5698665196066202 6.9364134605408818
0.9542643459474038 29.5601508236081187 7.0867317682916404
1.1173550834122767 29.5546989505940481 7.2079834644714573
1.2947014173811024 29.5568409937310790 7.2918949806142717
1.4827794847193660 29.5676974421445991 7.3335956267165052
1.6770898660751472 29.5849167302060003 7.3345942422800210
1.8742349981244097 29.6033570455412907 7.3026765846584665
2.0727889006343045 29.6172259637554127 7.2488901838698041
2.2726383825044669 29.6220458400456792 7.1842492911130753
2.4739656073307432 29.6154332021383873 7.1179180326726295
2.6768647403764931 29.5969716625638100 7.0568180627584711
2.8812514253676484 29.5679400269519981 7.0060255858599714
3.0865268560757277 29.5308901840931171 6.9694731966220695
3.2913867608982361 29.4886135881074267 6.9504854386888244
3.4940298757418260 29.4429822226637796 6.9517974320164431
3.6924349940744206 29.3947418507430456 6.9750515252308496
3.8846673817219202 29.3441216482082723 7.0201535929357037
4.0694341675779668 29.2912960585629101 7.0849449232789254
4.2468376683542211 29.2364335930654562 7.1652389395311129
4.4187868909845953 29.1797760201542786 7.2549873095043038
4.5887656691392564 29.1219989881801915 7.3462935972715719
4.7609916142932063 29.0647915473010521 7.4293195159383583
4.9390218756703064 29.0111633538514795 7.4928622953435795
5.1242072143345556 28.9647691741703390 7.5263209713511152
5.3148425428125980 28.9281983097064845 7.5228081645176168
5.5070198537788304 28.9014994382288037 7.4813913007656314
5.6969813927170314 28.8822145181388343 7.4063791157216281
5.8827850899455010 28.8665803281708016 7.3044065865232577
6.0636096632141792 28.8507536589087827 7.1822623416489719
6.2382063069768661 28.8317076493623290 7.0466183507297133
6.4050179564469714 28.8079233037165352 6.9041150156223487
6.5639901354787877 28.7796876525469223 6.7603593821056664
6.7176628445563003 28.7487952044792969 6.6186135857475286
6.8700541896367078 28.7176465337040874 6.4797932974113674
7.0246381698822908 28.6877884697535350 6.3436864012996388
7.1832692955833286 28.6586788250409050 6.2101802549690497
7.3464063149885606 28.6277474098331020 6.0797947473816176
7.5138783551550130 28.5915923708580237 5.9536259275893038
7.6854698212036041 28.5471251687620224 5.8330906364658386
7.8611288421464227 28.4919732233535896 5.7197269857552158
8.0409488619714171 28.4243662485632029 5.6150997828358182
8.2250903400971858 28.3430157558694660 5.5207645588803373
8.4136871921185339 28.2473502406262753 5.4382388971190814
8.6066839735315064 28.1382728153754655 5.3689505914544249
8.8035640677536069 28.0192137737807236 5.3141624450080229
9.0031209186969967 27.8964858175418122 5.2749226801343223
9.2036043784256591 27.7776472908798198 5.2521211497252995
9.4032426902162740 27.6681682174193462 5.2466515586918874
9.6005613936176797 27.5691224416352441 5.2594901828560072
9.7943326595450877 27.4780372721323261 5.2914360104729639
9.9835857268998982 27.3916443957249349 5.3425514202266076
10.1674095646010869 27.3080239219117686 5.4117762521975887
10.3447410194609457 27.2268402574868382 5.4970858081396656
10.5147456703801581 27.1482349724406085 5.5958963068928949
10.6775218943415879 27.0718566316594433 5.7053749837305361
10.8345116848687546 26.9966982697260569 5.8226392047592537
10.9883045775238681 26.9215122838502836 5.9445199590008997
11.1420012204864953 26.8454205262346335 6.0667522931278182
11.2986494801499706 26.7682780830509586 6.1832963025667453
11.4609844356551438 26.6905564401667945 6.2863157878717164
11.6311055192030146 26.6130680873488537 6.3668020699857326
11.8098522452332730 26.5368266078317951 6.4162251699287527
11.9961989633941144 26.4628773193779807 6.4290992824683819
12.1873823494070930 26.3919485344688809 6.4048748180118213
12.3799418498666522 26.3241648181848262 6.3475995193114745
12.5707646569974827 26.2590690636257946 6.2638360463470129
12.7572192328205443 26.1959441367775732 6.1607206437258970
12.9371893244442759 26.1341035970072717 6.0448331832914359
13.1099663155212109 26.0727654145037882 5.9212819514427970
13.2769241214217182 26.0106691239607706 5.7930941615250617
13.4406061438849527 25.9460181041399593 5.6615859564290503
13.6031486833896285 25.8768387588062971 5.5274336948990701
13.7656786320877593 25.8015011633799318 5.3915925140728049
13.9288332665361985 25.7191721053868747 5.2555829082605250
14.0934325229815585 25.6299129786903244 5.1212280556606693
14.2605773406794860 25.5341820864111497 4.9902961213480701
14.4312092481207941 25.4319805536625871 4.8643969702933685
14.6056565554551518 25.3223439024442740 4.7450899124550237
14.7835420280989815 25.2036916522930454 4.6340018807777614
14.9638955267277272 25.0749041927145555 4.5328701862758560
15.1450755680666056 24.9364353094349909 4.4435131415773359
15.3245939682719889 24.7905857298932659 4.3676674617563265
15.4996029710833412 24.6403808665283748 4.3065884454863461
15.6682882697145054 24.4876526641629155 4.2605685731292553
15.8307196354238133 24.3321797409267830 4.2288966825550567
15.9877690388433784 24.1728693607149339 4.2104883044157084
16.1393760172078515 24.0094375997003979 4.2046308933914123
16.2842525485885687 23.8426290178017801 4.2112823649948421
16.4211468104521074 23.6729238883546351 4.2309209927826377
16.5500830751679544 23.4994845047109848 4.2641836410044718
16.6721850235048876 23.3209150399364518 4.3114444218300161
16.7883562629239975 23.1373735535924965 4.3724723401923367
16.8983923293421796 22.9516666451371520 4.4464047480976117
17.0014241048407726 22.7679316774786855 4.5320875203427047
17.0967855486620941 22.5894647260087140 4.6284549381955173
17.1842630286120297 22.4175932426189277 4.7346656570049692
17.2638835085106024 22.2517249405597930 4.8500840928486717
17.3358350962093084 22.0898371568059559 4.9743271857067146
17.4006454789060783 21.9291450859942287 5.1072938043780809
17.4592997230546381 21.7671661677354926 5.2487522524485168
17.5130322156722542 21.6029538045563001 5.3973900369363381
17.5630641098578337 21.4374674177642177 5.5501778597367917
17.6108119445074038 21.2725235452905537 5.7028834703697271
17.6583706607456854 21.1093101723215000 5.8512965421359890
17.7086574535714618 20.9475933617136576 5.9921516333391427
17.7651330172781883 20.7857984688433319 6.1230820123952743
17.8313979297004863 20.6218239200181515 6.2415940824735348
17.9106398747668649 20.4543094619186476 6.3439045996601919
18.0048643673384170 20.2834759433317693 6.4249021886110302
18.1142327474171445 20.1108904171482443 6.4795954750791100
18.2368392705765707 19.9387050380468160 6.5049774468074499
18.3690190108639264 19.7689566034634439 6.5011311640905589
18.5062300305586334 19.6029306823108769 6.4712158124379471
18.6442735736388912 19.4407256245776523 6.4205647955505807
18.7801553234627612 19.2813870002179684 6.3552996759030158
18.9121661217474006 19.1234245147383248 6.2810121899851357
19.0397410988019473 18.9650252083152147 6.2020070647311343
19.1634136775288333 18.8041294324136246 6.1213135686389784
19.2844128387327167 18.6390530063780986 6.0413189807225134
19.4038226291300901 18.4693239007601768 5.9642814529374757
19.5217846001773907 18.2958922403083264 5.8923330015759081
19.6374783559620347 18.1203045418152087 5.8272930398627452
19.7501242036804250 17.9432305731079538 5.7705007253849523
19.8600438648620994 17.7636055229171674 5.7227158660766850
19.9685774099763513 17.5792340591364677 5.6842187435063636
20.0770562002132316 17.3880802177417912 5.6550971481064582
20.1859009427274749 17.1892572978041080 5.6355622683820634
20.2943642086633105 16.9835127986457479 5.6260597288334431
20.4007653712668748 16.7732425113324872 5.6269881838165681
20.5030529862813360 16.5619200840548935 5.6382318009323651
20.5995639077377071 16.3529453175388468 5.6590838903821101
20.6895254234855450 16.1483275478539454 5.6887553468150447
20.7729419968226097 15.9478788324457721 5.7269668918948629
20.8501294945628111 15.7494453989858361 5.7740037655450553
20.9212721628740432 15.5503550606169263 5.8301309928983773
20.9861751721678473 15.3494676824459511 5.8948728365425964
21.0444758326198027 15.1481149321199826 5.9668819717404986
21.0962889244694765 14.9488125784640200 6.0445378293379903
21.1426152343837650 14.7530843464665420 6.1265752718749287
21.1850824950148713 14.5604268926952667 6.2121565137975896
21.2254122490035115 14.3690726122965344 6.3003478129672672
21.2652545749733228 14.1776501102221211 6.3893992398016728
21.3065149473901769 13.9860053112647122 6.4764903865852652
21.3517966931845393 13.7944591085687183 6.5580941549952971
21.4044352751826992 13.6028968550480478 6.6302504941609328
21.4677884863864925 13.4109410500091606 6.6884454585262620
21.5440021606168806 13.2186438367534880 6.7277445109729914
21.6329958487590162 13.0268017207996465 6.7437128940798328
21.7322903222093302 12.8370076321477100 6.7337212688240147
21.8378929210827479 12.6515129644711006 6.6978723501015605
21.9459155566055273 12.4726354465005738 6.6390726401127864
22.0539516249998861 12.3018208503750479 6.5621130221418493
22.1615677621388159 12.1386668280954559 6.4720152528783270
22.2698117353906966 11.9805640468057444 6.3726095662313824
22.3799061801672750 11.8235633183095121 6.2663879357823458
22.4919553648362829 11.6639938819381754 6.1554917907429942
22.6045465511026968 11.4998611261365777 6.0427491945545242
22.7153147105298743 11.3313000729779816 5.9318256705432262
22.8219791315953060 11.1596802991662614 5.8264475745588449
22.9234076414068149 10.9858014376675044 5.7293677023223957
23.0201048904648857 10.8086887273502779 5.6418287101014499
23.1135982339255648 10.6259740650310643 5.5639066444193759
23.2052355324482598 10.4351111865057984 5.4953321949981131
23.2954130258283740 10.2344343713604928 5.4361024637899700
23.3835555768435022 10.0238667106057626 5.3866412099263759
23.4684129500455363 9.8053492959078881 5.3476755809372847
23.5482903492832598 9.5826515261799905 5.3199754700733344
23.6213777715373894 9.3599337035567345 5.3040473671068398
23.6863911075918736 9.1394942717855017 5.2999985147685287
23.7429764372569139 8.9209788682547071 5.3076576428242923
23.7912615077446148 8.7033390860240409 5.3267604507235102
23.8312045136907749 8.4869330603547137 5.3570465445368960
23.8625928402011027 8.2731853178870338 5.3982907469060670
23.8854949786907618 8.0633725925085464 5.4501521741286290
23.9004886926447035 7.8589843432573652 5.5116945719412271
23.9083899844696965 7.6626836706889483 5.5810878539727682
23.9097862145740265 7.4766513366290273 5.6565589827655067
23.9047590381382022 7.2988356903576852 5.7382065762360117
23.8929787881215567 7.1229403925012420 5.8280725340757709
23.8740935097293629 6.9437025655122540 5.9276879177375914
23.8480346281475448 6.7606327404701734 6.0362243478234099
23.8149721904340836 6.5764072956288020 6.1511293273809535
23.7751170713564832 6.3933085857856273 6.2696144743026281
23.7288291707925225 6.2113578605462418 6.3891091817869228
23.6773348536318800 6.0282696078965232 6.5066710889941550
23.6239427528444388 5.8396663587823667 6.6184657512063634
23.5751278846994126 5.6388955121909961 6.7203034092134484
23.5404566020588710 5.4185532120058157 6.8092373169905365
23.5303367129559149 5.1765643678695010 6.8848922259101881
23.5516161918103499 4.9228471115152770 6.9491603379397100
23.6038573758813683 4.6761152787061011 7.0047980668460088
23.6801747127929580 4.4507219734939429 7.0544278588892899
23.7720665216060105 4.2485886193002411 7.1002792161165225
23.8733805915150441 4.0629960716179703 7.1440855789842246
23.9809902635176790 3.8861649190003664 7.1869767896205659
24.0936383587152285 3.7130461972910371 7.2295348600906042
24.2108165757916822 3.5412341403910990 7.2719894137394121
24.3322232395084370 3.3697318807300576 7.3144038569909187
24.4575946146654815 3.1980723749269675 7.3567819581360920
24.5866704355169396 3.0259405753458815 7.3991107666750793
24.7191900599615124 2.8530559378562295 7.4413736050566435
24.8548926305205313 2.6791442395684779 7.4835531283257000
24.9935172439490962 2.5039322023248758 7.5256318952038530
25.1348029907199759 2.3271466636998213 7.5675924532525372
25.2784889607181498 2.1485144728889338 7.6094173490098767
25.4243142437954788 1.9677624800401468 7.6510891289422114
25.5720179298037529 1.7846175353644771 7.6925903395123516
25.7213391085949574 1.5988064890762548 7.7339035271830241
25.8720168700210884 1.4100561913899590 7.7750112384169636
26.0237903039341454 1.2180934925200724 7.8158960196769023
26.1763985001861244 1.0226452426810635 7.8565404174255722
26.3295805486290178 0.8234382920874168 7.8969269781257054
26.4830755391148323 0.6201994909536150 7.9370382482400350
26.6366225614955567 0.4126556894941356 7.9768567742312921
26.7899607056232121 0.2005337379234522 8.0163651025622134
26.9428290613497978 -0.0164395135439506 8.0555457796955281
27.0949667185273064 -0.2385372146935953 8.0943813520939685
27.2461127670077445 -0.4660325153110065 8.1328543662202684
27.3960062966430975 -0.6991985651816979 8.1709473685371634
27.5443863972853862 -0.9383085140911867 8.2086429055073840
27.6909921587869015 -1.1836355118248481 8.2459235235937314
27.8355626710044426 -1.4354527081657693 8.2827717692600409
27.9778370238558409 -1.6940332528659212 8.3191701889841099
28.1175543079489643 -1.9596502953233887 8.3551013294016929
28.2544536204503096 -2.2325769815418273 8.3905477386488574
28.3882741110621239 -2.5130864299464513 8.4254919768729657
28.5187552842855681 -2.8014515685786598 8.4599166853000014
28.6456386602896664 -3.0979442067125689 8.4938049656595389
28.7686753417732710 -3.4028305530936347 8.5271421096718996
28.8876542039028621 -3.7163529408801601 8.5599220564260676
29.0024857344206559 -4.0386671895175432 8.5921667222800000
29.1133922869268105 -4.3696639619762507 8.6239706666366018
29.2212041996251486 -4.7085539607642382 8.6555747452839000
29.3275596829651199 -5.0531220409808810 8.6874343950490562
29.4345502839914879 -5.3988237375594466 8.7202026196831355
29.5435214859417279 -5.7384798690983203 8.7545867773338060
29.6536927810055602 -6.0636898001596116 8.7912054891211717
29.7620755257377283 -6.3680627181733804 8.8306484985448250
29.8651720577451449 -6.6500542678133385 8.8736696736881857
29.9608902334752507 -6.9127082907175037 8.9211644181873062
30.0490349946269610 -7.1607642206280744 8.9738716227774731
30.1305722552735986 -7.3980876638845743 9.0321738189106693
30.2066872095171419 -7.6270109484130408 9.0962016441925968
30.2782334163013189 -7.8489070676956985 9.1660432517172907
30.3456461505214143 -8.0648727014107422 9.2418192791514215
30.4090272791941985 -8.2759993410398351 9.3236261521219070
30.4681281403359847 -8.4831664585225539 9.4114922213055898
30.5223699102643558 -8.6866136093372717 9.5054024063260645
30.5711118136601385 -8.8857861412048962 9.6053300111897428
30.6140345713033781 -9.0797027409824942 9.7112494660154454
30.6512870800052468 -9.2675506712281290 9.8231572829064184
30.6832746713484141 -9.4490316360388533 9.9411061592662513
30.7103733565786037 -9.6243411668735313 10.0651932740037484
30.7328102645110377 -9.7940189740699246 10.1953538627102169
30.7507053974323696 -9.9587656951645442 10.3309583745720115
30.7642100553691193 -10.1191194400263988 10.4706771134392547
30.7735929603725822 -10.2751257696565084 10.6131043406953207
30.7791129479794066 -10.4263728916135925 10.7577462141597842
30.7808005144519825 -10.5724658060315022 10.9053085567784578
30.7784350323053424 -10.7135409713486496 11.0569270239038389
30.7717101046223185 -10.8503721355376683 11.2131721895125676
30.7602742564324210 -10.9839641099697687 11.3737986251745564
30.7434918673248418 -11.1149460722970304 11.5383043356812287
30.7201680486909225 -11.2432701877127705 11.7066009704406842
30.6885897710718218 -11.3685169114176574 11.8790634956588832
30.6470305759535897 -11.4906435599477845 12.0557241112412505
30.5945550406320095 -11.6106065596754604 12.2352066739206435
30.5315593284312889 -11.7302610363790620 12.4144342099260196
30.4595539891235347 -11.8515313264480895 12.5894275500735340
30.3804387408344532 -11.9756646920103194 12.7565801165333070
30.2958322829152067 -12.1033933809643486 12.9137128916457016
30.2066764637456018 -12.2358660321962986 13.0605252741446360
30.1134711148816301 -12.3753168962371802 13.1983605011641920
30.0174895153721124 -12.5244872623427383 13.3293566933333931
29.9222389821735035 -12.6849419861594050 13.4552861987108638
29.8334665858402026 -12.8559805664013567 13.5772053331583642
29.7571347238861570 -13.0356344353741527 13.6967252087279299
29.6972978099597427 -13.2225558723768195 13.8173604167364026
29.6559001875728683 -13.4161863876368699 13.9436675624492157
29.6342346500080147 -13.6142787904264182 14.0780549554429211
29.6343481602445067 -13.8105057547297783 14.2180549868031800
29.6588954548911659 -13.9964682455172849 14.3575300308726952
29.7091698533568405 -14.1671949501380077 14.4910384391899161
29.7828330338159226 -14.3238897754212964 14.6164297007432857
29.8735035622274872 -14.4722301357383394 14.7340111300091596
29.9725189826609615 -14.6193778206793006 14.8446049671823310
30.0712900555453722 -14.7718753200992197 14.9488338768694149
30.1628487968028054 -14.9344625770041368 15.0481593569618308
30.2420403530777726 -15.1096066573672232 15.1459776852690542
30.3044870146782550 -15.2976597711351943 15.2464617993656724
30.3454194278178271 -15.4970590402213872 15.3511572235647655
30.3599162090869648 -15.7044791155428740 15.4562698209689220
30.3445412159931216 -15.9156641498067231 15.5536763355888894
30.2991875226944103 -16.1271127043704219 15.6359832468298521
30.2290465237025323 -16.3369829996462030 15.7022690242450018
30.1458578827872472 -16.5433480484742681 15.7599812374776924
30.0659620377190961 -16.7430398474229918 15.8229195965840823
30.0050638389341415 -16.9323968091451071 15.9067923078795097
29.9726595902390116 -17.1080344982265586 16.0228721095065687
29.9694402446906523 -17.2678626794159698 16.1734235014475765
29.9891457563052697 -17.4124016765014140 16.3530158652899082
30.0224848445967254 -17.5442152571972976 16.5527953998560875
30.0595126325175634 -17.6657592986780365 16.7623974032658509
30.0906308123932398 -17.7782895344699021 16.9703450340505739
30.1081990563661392 -17.8832221685343633 17.1675701606674629
30.1081037983948505 -17.9840006222809166 17.3523220018110109
30.0895195284130637 -18.0856074160354297 17.5299951930715672
30.0533168399021413 -18.1921875044270678 17.7076016869929660
30.0009351617033388 -18.3056219466447878 17.8891505906654835
29.9344871762306219 -18.4255707994238449 18.0747500765758673
29.8572756629969369 -18.5498980539300540 18.2620652802451886
29.7732961220481691 -18.6751051462309619 18.4481759238612710
29.6852585332654328 -18.7980139884922224 18.6316161395223823
29.5932813328418938 -18.9177613247286303 18.8129922104897958
29.4959077675345505 -19.0357311946457308 18.9931615410331673
29.3920968465142174 -19.1538511329168486 19.1713272140901374
29.2818059912064186 -19.2733810059453603 19.3458262602158584
29.1655824451221228 -19.3942311424093035 19.5155472113175747
29.0446561937088603 -19.5146173188377823 19.6793255443430084
28.9205761983884315 -19.6323364725182401 19.8355020568053675
28.7942974009686985 -19.7467560241868298 19.9830103859399628
28.6662400418507843 -19.8589446456194878 20.1222382692755630
28.5367623404516344 -19.9705799120732692 20.2549618370250784
28.4056644871339969 -20.0837434985367693 20.3836856363064243
28.2716114036062507 -20.2009748398118063 20.5100869043228187
28.1320480985159556 -20.3246352605233653 20.6334076185673858
27.9836969732266603 -20.4556567511020120 20.7496352658494239
27.8238337550853423 -20.5926158626988069 20.8518903448066411
27.6514082807417125 -20.7325612325338895 20.9330269849139512
27.4676721765533998 -20.8728599730770696 20.9886516362972309
27.2755302377747419 -21.0126211310388413 21.0177719423031704
27.0776015351004595 -21.1525714223758285 21.0213663968170827
26.8752176035579033 -21.2934609627878828 21.0010922273236815
26.6696739587666798 -21.4344665763241977 20.9591443940052073
26.4634817845850563 -21.5732243866105335 20.8984772678063564
26.2595501128417332 -21.7072965630432506 20.8227816521979179
26.0602801873484395 -21.8352872725220024 20.7360738709312997
25.8673185585523520 -21.9570301429110941 20.6413617073291746
25.6816527069833000 -22.0731482288150787 20.5392933904966135
25.5042488335202933 -22.1846985020897591 20.4290499583617873
25.3351027842450023 -22.2938004315790010 20.3113973098105731
25.1703814911714900 -22.4043327478819165 20.1907136179063684
25.0025475586324681 -22.5204917335334329 20.0750241105186511
24.8249407204237400 -22.6440815759074283 19.9746689099637891
24.6358562666909471 -22.7739985208075950 19.8989175706686723
24.4383903403822487 -22.9085097644718658 19.8515169127775302
24.2373618801581117 -23.0472999214913727 19.8287500759803379
24.0367499686458821 -23.1905979533668258 19.8221865089433393
23.8394600172524491 -23.3364004954038720 19.8240845113727886
23.6476680916363478 -23.4800985993554008 19.8310769702712903
23.4616564203761655 -23.6182965956760071 19.8437492952237768
23.2795176604081284 -23.7518091724129690 19.8634112611936651
23.0994999720600127 -23.8836840593186892 19.8887163647414766
22.9216264792615370 -24.0155938325738703 19.9138299948089355
22.7467305317853352 -24.1467113041786021 19.9289616486014936
22.5753552255491954 -24.2750656804725296 19.9232711422660742
22.4090627022891056 -24.3984562021609506 19.8884890502136074
22.2514340933522732 -24.5143420409771906 19.8210742456762077
22.1058686199550678 -24.6205251327540680 19.7220107665803326
21.9733243477938061 -24.7160333092849740 19.5950103820921449
21.8529573486035353 -24.8007526396615603 19.4444181269381318
21.7441298023415861 -24.8743223873508157 19.2741606448373126
21.6474427641370575 -24.9356378809458903 19.0881237189267985
21.5638676110644987 -24.9839365344900486 18.8902105845864945
21.4932005908743200 -25.0200711592704010 18.6838012788442498
21.4336110346874165 -25.0460155489848688 18.4713966798803177
21.3824543264819269 -25.0630966690833645 18.2538224375560318
21.3375316644217357 -25.0709698704576525 18.0283697043594593
21.2980383748121653 -25.0678202275734634 17.7876034111249623
21.2646896112320469 -25.0512786452920935 17.5225627681970337
21.2389733757439174 -25.0197140305147627 17.2310566044047668
21.2219450220253485 -24.9734669960953184 16.9242657158658787
21.2130275368328221 -24.9154138371432268 16.6229187875611757
21.2093193623848073 -24.8503184418734335 16.3444132467589931
21.2063328993878741 -24.7829110835963675 16.0931824581691174
21.2000562508258206 -24.7160125400446518 15.8626747452591026
21.1885911392795947 -24.6503145329525495 15.6447019485105905
21.1720020815055037 -24.5848393350906562 15.4345875160375030
21.1509868459411123 -24.5173911576647754 15.2294438929696518
21.1256982642310831 -24.4457436857560424 15.0262695692368897
21.0951364804145669 -24.3693878545592426 14.8231649316812302
21.0569733102882672 -24.2900581502441568 14.6205443047642714
21.0082598071098765 -24.2099096378332703 14.4197396905126247
20.9472083097731883 -24.1290134407481389 14.2209443349151279
20.8743732215167057 -24.0446705310326578 14.0229009136824807
20.7922188204601852 -23.9531340999089437 13.8245958589059690
20.7044504252195054 -23.8523398831337090 13.6281027425400332
20.6151849800075979 -23.7429093369368545 13.4389464418673601
20.5272283070187918 -23.6262990883515229 13.2622207851983465
20.4409978607098459 -23.5025451826028160 13.0989542243241051
20.3555005595088190 -23.3700678289736601 12.9469739693541328
20.2700160702601515 -23.2267438740419863 12.8045503865841912
20.1848567601754425 -23.0704949167231277 12.6735831928793345
20.1011215216148216 -22.8990656165780919 12.5602670999213668
20.0201197975967382 -22.7099983756706578 12.4722014812089377
19.9426797573876229 -22.5014195451418360 12.4128060034776588
19.8690762044864897 -22.2739649437984113 12.3782924323062051
19.7998462727161311 -22.0319546893988374 12.3605910835165247
19.7362871374219466 -21.7817819374577937 12.3522841111179087
19.6800346714012235 -21.5291970996180098 12.3490063666390846
19.6324166361948009 -21.2779552447872788 12.3491359396097646
19.5942319487798784 -21.0300740016916592 12.3524666299532324
19.5657514125808909 -20.7867074978590409 12.3588894724513239
19.5464633872345885 -20.5485907629204831 12.3675395086337812
19.5349052115815347 -20.3155186447337002 12.3767974802158207
19.5293013747390276 -20.0854547973931474 12.3852112358993214
19.5286230664029041 -19.8546130465127888 12.3924489497145736
19.5329436440626409 -19.6189733314960115 12.3990635957819588
19.5427902456081526 -19.3758835736940647 12.4053353566854838
