BEGIN_0
-23.6596959491341927 5.6759950026363040 8.2393332929414989
-23.5467304490188702 5.8589117628561400 8.2847105191750678
-23.4487228965672792 6.0476528045875870 8.3140964792837657
-23.3719661545322168 6.2396676662667456 8.3233985812935494
-23.3212804679778927 6.4303391637666998 8.3093496755495231
-23.2987669922289236 6.6154472672903557 8.2704356043462219
-23.3031731101116613 6.7936342567709040 8.2069077097650940
-23.3302200322079862 6.9663080162366100 8.1203585730890389
-23.3736410800450507 7.1352947218576581 8.0137815844996094
-23.4263871138899269 7.3015330206327551 7.8915626227813425
-23.4816419698696564 7.4655390640522601 7.7588679924004502
-23.5334801370547311 7.6281613945300180 7.6207761018281168
-23.5773634778119998 7.7913270166812776 7.4814437248050769
-23.6106221464723340 7.9589121511784118 7.3435246144936128
-23.6325288323048852 8.1369171096778210 7.2082014902254414
-23.6436779672941810 8.3317455735849819 7.0762480074232288
-23.6451598088567181 8.5461085051981822 6.9500659864094354
-23.6381184579736185 8.7753290520762057 6.8350376281286120
-23.6235824793475118 9.0093440452878149 6.7377602110737715
-23.6022828669537077 9.2398804797514948 6.6622426398461041
-23.5746056402106490 9.4647762204059855 6.6084409798673995
-23.5408509859878237 9.6861400915604481 6.5739878108827305
-23.5016425889652645 9.9060415772212558 6.5564610877891418
-23.4580024124729292 10.1241303713564434 6.5543601810794634
-23.4108949577880026 10.3382528632719115 6.5669894254557430
-23.3605893310836841 10.5462626717197612 6.5940134335437133
-23.3063123252158029 10.7470746770886834 6.6350099387436714
-23.2464029333691826 10.9406307132869500 6.6891596384990919
-23.1788410886287792 11.1274896555315639 6.7553742485377741
-23.1019355345179953 11.3084790127762798 6.8328411908579341
-23.0149907947327392 11.4842411344506576 6.9212268204297560
-22.9186044541800662 11.6546134552746157 7.0200209167560308
-22.8142236653171224 11.8185169287146863 7.1276138894300232
-22.7031961585405071 11.9748093579862935 7.2409427097206214
-22.5862062836111726 12.1234883285584303 7.3558847859404679
-22.4635174037659446 12.2664212549964464 7.4679553531977598
-22.3358394733187176 12.4072523554006278 7.5725625396593692
-22.2052663406407511 12.5505716500122784 7.6648075342388395
-22.0755329090043233 12.7006741424632139 7.7393453685101443
-21.9515727106256051 12.8603857513513979 7.7904170662343581
-21.8389154975720601 13.0302621086204535 7.8123035279271944
-21.7428663637408697 13.2082819608736699 7.8007523911627796
-21.6673343987600511 13.3899521680197182 7.7548746560504700
-21.6137008291744834 13.5692073590979021 7.6780100682584376
-21.5803961177010244 13.7405783079751949 7.5764727172593833
-21.5635784264882773 13.9019260576229051 7.4564433540468888
-21.5583881449656722 14.0560849281257276 7.3207691271069155
-21.5598305556396852 14.2099719599141618 7.1682189295602852
-21.5631359942205414 14.3709686344758545 6.9964834972265031
-21.5640428679809126 14.5424149951317538 6.8071884372234104
-21.5590984072708096 14.7212516223229795 6.6089550073877721
-21.5458126972882376 14.9006247210335463 6.4144571287063226
-21.5226945022971705 15.0756495033433708 6.2334576419103644
-21.4892723382075310 15.2461564105136365 6.0696971808892553
-21.4459497998521798 15.4150116716158756 5.9232127275144197
-21.3933561661151401 15.5856875553678655 5.7933846428846643
-21.3315176601005518 15.7613974678728361 5.6799520947222408
-21.2597955688062505 15.9446650761529831 5.5829132437820181
-21.1776880230908588 16.1365504613205388 5.5023716374573315
-21.0856539087492934 16.3362204311834347 5.4383874041035316
-20.9852150362156280 16.5413747751045364 5.3907109423877611
-20.8782570900481943 16.7494287120935184 5.3585795594052392
-20.7661340735435260 16.9586108442231485 5.3407893104391153
-20.6495358638784019 17.1676149818951700 5.3360171299618528
-20.5291974832962509 17.3742882809127188 5.3431096155978359
-20.4063706958447568 17.5756904765079618 5.3610595340400682
-20.2826328990446356 17.7696098349866318 5.3888614155527197
-20.1592945715717633 17.9557287495759397 5.4256129767126851
-20.0367159944677766 18.1356216527517731 5.4708040347174851
-19.9140622771179601 18.3119812038126071 5.5243692708867229
-19.7899530480556933 18.4873678989250259 5.5862484307902243
-19.6636548423414261 18.6627634483770635 5.6556538748159983
-19.5357070803198383 18.8370888534620455 5.7306746183742234
-19.4073519713558582 19.0085040030637167 5.8086414319523225
-19.2795395734947732 19.1762980915544254 5.8868291229420890
-19.1526176873016674 19.3417332301697229 5.9627973267774124
-19.0270227313733322 19.5073956205045285 6.0340991372771544
-18.9042528058169950 19.6757094755147328 6.0976046736620582
-18.7868112220301953 19.8478347675050415 6.1490098890123299
-18.6768434960626557 20.0236860674292600 6.1829553583869181
-18.5751247623907823 20.2024749760886237 6.1937484548352817
-18.4816258163094780 20.3828198345588163 6.1765627916314845
-18.3966734766539339 20.5622807351217602 6.1287377130329066
-18.3212414879285710 20.7372995057709346 6.0503783146386283
-18.2561596720621608 20.9043209732510569 5.9438276120777012
-18.2011029763063057 21.0611040048822602 5.8128744668761048
-18.1542229590615705 21.2068763485348910 5.6626126989005154
-18.1124974590182468 21.3419301068392677 5.4991505334363744
-18.0724447848451639 21.4677185832247268 5.3281789212517801
-18.0309109927442641 21.5869703776900650 5.1534116044361902
-17.9856169363848792 21.7029962917622221 4.9765309874792472
-17.9352069388434323 21.8187170790256815 4.7983227735355047
-17.8789165567921486 21.9363175406339117 4.6196939410438063
-17.8161714346723130 22.0575531105397822 4.4421159561790091
-17.7464181166341035 22.1840679034346806 4.2675886820499453
-17.6692133013985391 22.3173426410341378 4.0982277727783174
-17.5843181749332693 22.4584992116869451 3.9358666718756172
-17.4916712948300201 22.6083119861502198 3.7820543169753869
-17.3912837734494765 22.7673433073243174 3.6383291364534571
-17.2831900081678356 22.9356949608251668 3.5064699244535884
-17.1677034627011089 23.1121783468729305 3.3885814371809868
-17.0458612547002559 23.2937116920213896 3.2868595185585328
-16.9192747914130379 23.4761841349645550 3.2029131069529395
-16.7890247322653359 23.6567104205987704 3.1369918460571711
-16.6547530693450447 23.8350863570010532 3.0879243076041831
-16.5152223359100105 24.0126396092339505 3.0539877797689670
-16.3698104375966764 24.1898294364542288 3.0338139355647318
-16.2194315248333254 24.3650952177784106 3.0266330968693200
-16.0659700921533002 24.5356312098713047 3.0321096506095753
-15.9107195961694607 24.6989902215601305 3.0502571679964472
-15.7531911579224619 24.8543029964833160 3.0815471984942384
-15.5911307006421325 25.0024624344256594 3.1270011286371417
-15.4218488219386600 25.1450134658334967 3.1878821225213638
-15.2442313280561450 25.2823487926292501 3.2648718772508349
-15.0597780337527141 25.4128969153222499 3.3573654632461043
-14.8715678472846697 25.5341330985036450 3.4636046364066182
-14.6824315655276365 25.6440426306299329 3.5813609197066398
-14.4940417835027873 25.7417374071778653 3.7084263878803387
-14.3072134826776676 25.8275928348572350 3.8427250036498659
-14.1226145378395280 25.9033688626566629 3.9823205559362673
-13.9409952396396193 25.9717652056226207 4.1254128555506266
-13.7628098113114312 26.0351716641848157 4.2702197689526322
-13.5879544389247044 26.0948972985160310 4.4148659987569250
-13.4160205682270792 26.1518116424123086 4.5574829338779921
-13.2465428102593190 26.2075012843927198 4.6964611144153583
-13.0787568448086287 26.2646974075783106 4.8306041569890414
-12.9113292602703051 26.3269699209211581 4.9589467501213598
-12.7427982606119503 26.3980590755450280 5.0800344522647354
-12.5725429487630631 26.4808539156106875 5.1908299981741326
-12.4012163355060530 26.5765594679086874 5.2862090304662850
-12.2302213274220950 26.6848599914626057 5.3599313896105194
-12.0611322652051935 26.8045594356453556 5.4066061553663509
-11.8955894196394496 26.9336730304548624 5.4234577869442475
-11.7351436566110703 27.0693443658824364 5.4109691891969476
-11.5806591000723706 27.2085250643844674 5.3722230537251274
-11.4317544736236023 27.3489253689592644 5.3118091237830782
-11.2867818814813567 27.4891929789804692 5.2352245178081525
-11.1433342225309140 27.6285050165032864 5.1485752014495301
-10.9991615472745732 27.7662607204303384 5.0579215720652186
-10.8528716564042043 27.9021166473555695 4.9681851859032093
-10.7036498853698721 28.0362960621709618 4.8822135385753178
-10.5505752928793033 28.1696793476708613 4.8009975598053689
-10.3927423972461508 28.3030973022109649 4.7250801891078051
-10.2299119389936539 28.4363187101911556 4.6557874590613562
-10.0623704106932426 28.5678066319807726 4.5951754962009250
-9.8899034685729745 28.6955071303602942 4.5451343775199664
-9.7114758715645895 28.8178183790223663 4.5067778985125706
-9.5263506121653627 28.9339194612565755 4.4806537495141416
-9.3351442887031606 29.0436246878504463 4.4674679911688848
-9.1394841970384260 29.1470986316340017 4.4685412507066928
-8.9408799178770195 29.2444792893951835 4.4855805307303847
-8.7404341243622419 29.3355576148620614 4.5200839904308552
-8.5396555277470902 29.4194071539366959 4.5728372826285195
-8.3408906683701840 29.4940184086783432 4.6437365889260196
-8.1465356709443881 29.5567464596427847 4.7318642455822566
-7.9580881132455925 29.6056375233352114 4.8355863119070186
-7.7759865622944595 29.6405350984452163 4.9526476223932683
-7.5999897377464922 29.6631742705518135 5.0803522177662916
-7.4295336599343926 29.6763270305898281 5.2158046440545558
-7.2638747097394436 29.6824885445215330 5.3561136369155591
-7.1020833323605412 29.6828490379026562 5.4984929216449121
-6.9429345865860768 29.6771950318672708 5.6402405300715586
-6.7846746519583156 29.6646686356023643 5.7785661200626706
-6.6247689056897805 29.6448309591678338 5.9101722472387745
-6.4600085771198135 29.6185360610712110 6.0305680879240118
-6.2873518343188852 29.5880982118916371 6.1334844351347826
-6.1053040469135151 29.5564565346911827 6.2110955458751480
-5.9150333359459353 29.5259654150069437 6.2554784965794088
-5.7204991246942507 29.4977045286494715 6.2610020254134326
-5.5272898035426890 29.4714584099115697 6.2264676834044170
-5.3407212664634818 29.4461502340971180 6.1554719935970965
-5.1641469141675103 29.4205967606401622 6.0548067188077184
-4.9982893895228235 29.3941433072232243 5.9323542713554005
-4.8416815754274474 29.3666341622538027 5.7955444594997321
-4.6914472771270468 29.3378828962833182 5.6502794101807048
-4.5439509528061244 29.3074061499540157 5.5005002770586255
-4.3954968413001643 29.2747429979133216 5.3488106028479887
-4.2428572751283617 29.2399529349031120 5.1975571492591222
-4.0833247044383212 29.2037533056774024 5.0493873438324837
-3.9146705225344229 29.1671817134224831 4.9071934380959785
-3.7355004468943731 29.1312320309764701 4.7739768544553804
-3.5458305029952060 29.0967971653679491 4.6528283573374516
-3.3472727302768455 29.0647008931416444 4.5467774015537881
-3.1422634249514738 29.0355387940893905 4.4583007260162102
-2.9325471464610979 29.0094602779775705 4.3887233550901232
-2.7184398603970497 28.9862153746380535 4.3381619152445836
-2.4999691605088010 28.9654550119742780 4.3063392082993275
-2.2784486442095879 28.9469674725123625 4.2935955372872581
-2.0564641740717562 28.9306591852675048 4.3012237740753250
-1.8365404202053304 28.9163802256830493 4.3310842168787467
-1.6205266587064577 28.9038772722889732 4.3849346212214915
-1.4105138751484358 28.8929695140651432 4.4636389891462027
-1.2096299764588410 28.8837435435156600 4.5665277016058354
-1.0211620623544255 28.8765739731156152 4.6913842807849839
-0.8470300120792347 28.8719285295700487 4.8349945173045743
-0.6872141995083796 28.8700272498802875 4.9937465331876911
-0.5402499655562769 28.8705590013054127 5.1639764849923928
-0.4040045065014919 28.8726792921241113 5.3421534692732866
-0.2761278012851167 28.8751715097538124 5.5250395406297166
-0.1540626737904809 28.8765883807991557 5.7097442119954014
-0.0347778511027927 28.8755737462359399 5.8936030593474520
0.0855013444105150 28.8714282464859977 6.0739248968488759
0.2111763809075122 28.8644499163210000 6.2474127432691269
0.3466065005572125 28.8558953205549820 6.4091550782251172
0.4952733368714060 28.8480340274098737 6.5520565342634463
0.6590656767579084 28.8444263885075465 6.6676503894356038
0.8374773748770836 28.8497135525302824 6.7480103048275861
1.0271815887853490 28.8681630009404770 6.7881260019634917
1.2228659103614867 28.9015358977687065 6.7879028727127464
1.4191096139757426 28.9479303849775711 6.7523479376610140
1.6124312441626931 29.0024314678793012 6.6894355960738388
1.8025404962632685 29.0588022025596153 6.6071989603985379
1.9918676356463556 29.1109175164639815 6.5122110067712207
2.1835899164974779 29.1535032794492857 6.4098839307439572
2.3797345723794665 29.1825999424936668 6.3052130536047049
2.5805307612477084 29.1959574892234315 6.2028757684018387
2.7847550098854379 29.1931443548047334 6.1069155258974845
2.9904120834557810 29.1751048112329698 6.0205478279132922
3.1957084715217876 29.1433792022083118 5.9460894503945596
3.4002306104294435 29.0996004169185660 5.8848926257143965
3.6052136555798038 29.0454776909496921 5.8376430284044556
3.8121159978079935 28.9828930734543384 5.8052929666404331
4.0208640469538679 28.9138718037015749 5.7899784438694333
4.2294088648697503 28.8405345083257139 5.7949402800711667
4.4343209040261993 28.7648939622182631 5.8232581795777065
4.6315493911932837 28.6884016005622478 5.8762632846688785
4.8175054958994803 28.6115300211459314 5.9528397075537232
4.9901842690266154 28.5336446248451452 6.0499561910034920
5.1494498921801952 28.4532302369902474 6.1636508629631592
5.2966280811456272 28.3684404666135812 6.2897945859450637
5.4341228884386013 28.2777664260950132 6.4242400749382895
5.5653323528912271 28.1806508328019660 6.5619846495413299
5.6947641679436209 28.0779209848042299 6.6956315004288918
5.8278482496980208 27.9721060492725542 6.8146131549699014
5.9697194036423893 27.8676471641712737 6.9065317024392403
6.1231656762215954 27.7707488817894692 6.9601664060675299
6.2870073819351786 27.6883546195096422 6.9687237545159704
6.4565448105968244 27.6261284924463801 6.9317037074600050
6.6260395514840287 27.5864634241018862 6.8541866805867526
6.7912519268747920 27.5675528891808383 6.7439143301588445
6.9505570491064503 27.5637750292009720 6.6082705327477029
7.1046667115741107 27.5675923318767246 6.4531749809508501
7.2556779591140055 27.5725605749934140 6.2837283562300144
7.4061993546780291 27.5756257436037764 6.1048602558092071
7.5587661961364550 27.5768083591454420 5.9212005640329668
7.7153224886724363 27.5765613100095344 5.7366936008982208
7.8768820122942316 27.5733451523315765 5.5545890803844689
8.0436439270104110 27.5634004654559561 5.3778284471874684
8.2153451256708205 27.5421573837469680 5.2094602615602295
8.3913589028950106 27.5056891896507381 5.0528424283018545
8.5704282830621281 27.4515722171088470 4.9116035691314668
8.7505422738841396 27.3793524721008694 4.7893144939278063
8.9296992034076723 27.2907393043976256 4.6887797554341990
9.1074492510095020 27.1895219719784009 4.6112091057257132
9.2856147134310074 27.0813392502474102 4.5559978555563916
9.4669103220464947 26.9729313611543162 4.5214700166569575
9.6527872389863063 26.8700730684219167 4.5059592309311203
9.8428131351131185 26.7751066564071429 4.5084987259217115
10.0358439189037583 26.6865090227882149 4.5288375184721641
10.2309675043422175 26.6010390824230569 4.5667862269236803
10.4269634065233419 26.5163494180743271 4.6213887360573374
10.6215145132996032 26.4320144113745883 4.6908319564061429
10.8116498075372807 26.3488562067740197 4.7731474593186061
10.9949419543949229 26.2678119849045402 4.8666183405532699
11.1704459790259616 26.1892297111320680 4.9695361499649575
11.3390090443155138 26.1126517862696552 5.0800667305901044
11.5029729467777759 26.0369144745163794 5.1964483548260745
11.6653377236899818 25.9605142724932989 5.3167883608128683
11.8287354701987919 25.8821480330353140 5.4381497960003102
11.9949459323359804 25.8011196228102833 5.5558711321751861
12.1651511411040083 25.7173916736004102 5.6640421582779155
12.3401971245596584 25.6314225393701633 5.7563784490243215
12.5205091382141624 25.5439442872841198 5.8265077244126910
12.7057497760365870 25.4558081749236820 5.8683617827798784
12.8941743492958540 25.3680928671945836 5.8773924761153324
13.0824417454829742 25.2822520670631192 5.8520141588583261
13.2668505089023103 25.1997856548221542 5.7940937551760037
13.4452449840981867 25.1214695124106342 5.7080743882807941
13.6177369356814353 25.0469586148285330 5.5996243215656829
13.7855307728726224 24.9754820525923193 5.4748564939506608
13.9493254830821165 24.9068898617875725 5.3400146691550656
14.1090094782721422 24.8416472208902519 5.2008619803794076
14.2646472934148445 24.7796455211221947 5.0615700724829154
14.4172844975638466 24.7192206961920036 4.9240728518234249
14.5685757240041411 24.6574694006217889 4.7887625579276918
14.7199351113025436 24.5913101357680333 4.6557932302889817
14.8721556173389153 24.5182016104689566 4.5258435948753206
15.0255388970350161 24.4362204532746716 4.4001604692421985
15.1801473217518961 24.3438390517710239 4.2803208842317257
15.3359654969791759 24.2397389452697212 4.1680345368267950
15.4929673753282540 24.1228016821304863 4.0650453441463270
15.6511235665267137 23.9923617941148848 3.9730820722403024
15.8103323016687121 23.8488054985601323 3.8938011057927699
15.9702426186929234 23.6943566761980975 3.8286765430823291
16.1300895388626060 23.5332826536632993 3.7788191450492246
16.2888755946137671 23.3705137965018892 3.7447795292410238
16.4459376041711813 23.2090854571195351 3.7264837124495713
16.6010998318237171 23.0489144956982130 3.7234062906199945
16.7538680762623393 22.8884387565811451 3.7348603991283209
16.9027516878918931 22.7269659114727958 3.7602214803173055
17.0457463715208135 22.5651302926372139 3.7991389762241923
17.1813533686725890 22.4036342117016716 3.8517704952497684
17.3091523635926343 22.2420537187547964 3.9188478131429960
17.4298574393311796 22.0788445041042536 4.0013886979790900
17.5448625559282831 21.9125583645595441 4.1000779702036994
17.6551687899415342 21.7434522295410879 4.2146677089780713
17.7604966022744328 21.5739290501490473 4.3439945397837043
17.8594521946904692 21.4070546805003659 4.4866001102717146
17.9502405248536085 21.2447627613254824 4.6409832486006017
18.0312013225046286 21.0874564177519161 4.8051412782316962
18.1012439977314088 20.9347746076816037 4.9761518930935029
18.1603922896615657 20.7862283482736103 5.1504584754709679
18.2100957474545311 20.6410766965704866 5.3246243898997765
18.2529193760828434 20.4979946726070210 5.4960018029416862
18.2918671904253145 20.3551013249233783 5.6632280709009084
18.3298751692423139 20.2101925576234471 5.8263087875549093
18.3697006291888094 20.0611507101520203 5.9855052014361370
18.4139914187593163 19.9067644444636329 6.1393271553754580
18.4653170725621827 19.7473910140425275 6.2836276324474412
18.5261585028383386 19.5845569698314534 6.4129247325764567
18.5988826162966632 19.4199183900928176 6.5223301271194529
18.6856230720393519 19.2547181315294935 6.6082996587685141
18.7878399796212960 19.0900789716062818 6.6683466223051227
18.9055682806156362 18.9275025530404228 6.7007571263490977
19.0368430739908163 18.7687648187728442 6.7048551758461006
19.1778095917016103 18.6151380527946095 6.6815113070218359
19.3236456693410972 18.4666148067925242 6.6332603162145141
19.4700381556048399 18.3216161723880191 6.5638588159077109
19.6142019940656063 18.1774328018794975 6.4777207656450191
19.7544894201626882 18.0314139074129081 6.3797850447510491
19.8893597359420120 17.8821584952696142 6.2754783656779445
20.0171640203173240 17.7297240554881022 6.1699552272214078
20.1370309748359588 17.5746061502281918 6.0669193372285335
20.2497376606157857 17.4164934038149468 5.9681669108430633
20.3574416067291217 17.2539759694621431 5.8742034013994893
20.4625087411917121 17.0850918950346191 5.7852752166065358
20.5665197063265879 16.9080486338638281 5.7022256346206337
20.6700645106172125 16.7218871798876769 5.6267331705883468
20.7730692481179702 16.5270473697484555 5.5607963066583768
20.8749931382434220 16.3256199104629722 5.5060049777724025
20.9746849328561780 16.1210413886630342 5.4631980365364896
21.0706070062058934 15.9169122773959799 5.4325003682737414
21.1618753561405804 15.7150533143228870 5.4134801671934163
21.2489508344529412 15.5145060252501814 5.4054234991296308
21.3327785421720506 15.3130694463831496 5.4077751906957303
21.4134880473098583 15.1096528429912702 5.4204897766651019
21.4903154134430601 14.9045964403246529 5.4440201367734531
21.5624170378690643 14.6984663542806349 5.4789383578149327
21.6291769293352267 14.4919410175819454 5.5254211450466730
21.6899010087713151 14.2863941999071589 5.5830336641013378
21.7437543321395808 14.0832326972506969 5.6510255614261897
21.7902144455639082 13.8827189637202899 5.7287164478863026
21.8295799640952559 13.6841201962339944 5.8153981699081925
21.8630145845335129 13.4870706824872908 5.9097382070868374
21.8921470542362293 13.2922765959853066 6.0093649400742297
21.9187895067341287 13.1005544247942094 6.1111815605830415
21.9451279040313274 12.9115144125644647 6.2119637261754495
21.9741608417853058 12.7235207671366428 6.3084150360709739
22.0098783979853962 12.5349605606416219 6.3965354800167287
22.0567043683428246 12.3455204088454380 6.4709833321984487
22.1181395776559881 12.1564353550583988 6.5252086722979676
22.1953013704612445 11.9698899693709109 6.5526590292322666
22.2863828587100663 11.7881725388072827 6.5487812452797236
22.3874368554485557 11.6130330427121553 6.5126778178494433
22.4940335836395882 11.4452941989258576 6.4472152062226833
22.6027649426037591 11.2847570096631546 6.3577699519827977
22.7116025802931318 11.1305749571622847 6.2507556896740706
22.8194263469597622 10.9814669846856887 6.1324139612461845
22.9257452109782527 10.8352814008986815 6.0077802455089646
23.0306731133888398 10.6887015230883424 5.8802709043517893
23.1346394262225594 10.5379404997791131 5.7523335433066780
23.2379757546266390 10.3798795422453853 5.6263583229392271
23.3406345001764279 10.2128144352344723 5.5049917885609716
23.4419722663248571 10.0367511350443444 5.3911110354514253
23.5407326373937558 9.8533031006556460 5.2877699367107098
23.6355333259502594 9.6647488904597001 5.1978025037263098
23.7256518490280719 9.4723131937147240 5.1230035455444529
23.8112939208937000 9.2752149372525121 5.0637045621196091
23.8929397017545710 9.0717827337727108 5.0193042452172794
23.9704729846982225 8.8615786088982755 4.9890688711654221
24.0429329414011654 8.6464254969575531 4.9724432898044366
24.1090328366231148 8.4291813095176860 4.9689623276516972
24.1679526206451349 8.2112262296063534 4.9781885137521122
24.2195814555329534 7.9916588055502835 4.9997571446491769
24.2639375304555323 7.7696469892299129 5.0333059410481926
24.3006625059915855 7.5468330881193806 5.0782734461796295
24.3292952276714090 7.3267217217729357 5.1338356972480064
24.3498140423002276 7.1124700396827958 5.1990444253022297
24.3627198710462451 6.9056664960158276 5.2729671087153278
24.3686799171530986 6.7064718741839675 5.3547213189738194
24.3681834496880043 6.5141589100467723 5.4435052944609872
24.3613769864109457 6.3273749103518933 5.5387312672156277
24.3480546237536828 6.1441061801195973 5.6402324402359270
24.3278013971578595 5.9617565785937288 5.7483180665974594
24.3002557200828377 5.7778996063798713 5.8633031402019000
24.2654000925397604 5.5915528702165078 5.9845534657270125
24.2236847165606335 5.4035682224739023 6.1099061496681895
24.1759446098092852 5.2151186145650499 6.2361145672426019
24.1235231450499974 5.0254118554448048 6.3596352819879520
24.0690488919176993 4.8303869429038686 6.4769039030314453
24.0176410284042312 4.6233334225174323 6.5843124391433498
23.9774257523131489 4.3982289305539597 6.6787370970113766
23.9579439804337859 4.1557407101925721 6.7587265526867153
23.9663562759030206 3.9070520829724149 6.8253719405940956
24.0040221265149007 3.6681414331883238 6.8819157602061889
24.0665292330480405 3.4482168538764046 6.9323554470277218
24.1469131387061786 3.2458935716081179 6.9799774782828479
24.2390066556143786 3.0546466660861178 7.0267011261940100
24.3388389961901623 2.8687020901961233 7.0733113422382088
24.4443522441309895 2.6848378103660089 7.1200044090832222
24.5545933358454107 2.5016477666710379 7.1667793588411177
24.6690919486188953 2.3185290548938351 7.2136004508734821
24.7875459918340013 2.1351360373030417 7.2604356898080002
24.9097014537516692 1.9511862956192143 7.3072581778238002
25.0353157760288170 1.7664096596708863 7.3540430670616095
25.1641486971912194 1.5805378534335990 7.4007660627703364
25.2959603457396724 1.3933028350714967 7.4474029839345937
25.4305109063828212 1.2044365856580797 7.4939296682090477
25.5675605707081708 1.0136710879857347 7.5403219557481034
25.7068695310166149 0.8207383249374391 7.5865556869819883
25.8481979796715002 0.6253702793984299 7.6326067023661102
25.9913061090407140 0.4272989342537947 7.6784508423577709
26.1359541114924419 0.2262562723886159 7.7240639474143915
26.2819021793948728 0.0219742766879669 7.7694218579933976
26.4289105051162245 -0.1858150699630716 7.8145004145522154
26.5767392810246967 -0.3973797846794298 7.8592754575482688
26.7251486994884786 -0.6129878845760253 7.9037228274389859
26.8738989528757557 -0.8329073867677863 7.9478183646817921
27.0227502335547491 -1.0574063083696341 7.9915379097341148
27.1714627338936623 -1.2867526664964988 8.0348573030533785
27.3197966462606736 -1.5212144782632944 8.0777523850970141
27.4675121630239829 -1.7610597607849510 8.1201989963224417
27.6143694765518077 -2.0065565311763933 8.1621729771870921
27.7601287792123408 -2.2579728065525391 8.2036501681483944
27.9045502633739808 -2.5155766040282295 8.2446064096638114
28.0473941214081499 -2.7796359407170605 8.2850175421914436
28.1884205457272650 -3.0504188337153568 8.3248594061979304
28.3273897292077805 -3.3281932999198460 8.3641078422464865
28.4640618691334559 -3.6132273542567326 8.4027386918157685
28.5981971979904586 -3.9057889949000764 8.4407278036719653
28.7295561844524201 -4.2061460962948889 8.4780510752050695
28.8579006222532577 -4.5145657337051492 8.5146846741031652
28.9829984649850019 -4.8313104561418037 8.5506060056055251
29.1046410237551463 -5.1566204123897528 8.5857970473103169
29.2226899023553699 -5.4906399610008414 8.6202529041334586
29.3371660055481414 -5.8331664664328002 8.6539956651217143
29.4483293116696814 -6.1829638717423627 8.6870777742011107
29.5565624912121869 -6.5363775168120632 8.7195337714025349
29.6618628962386417 -6.8856472767787231 8.7512635793557543
29.7632450807456870 -7.2189239953997806 8.7819894188881751
29.8590599248284150 -7.5246521289396284 8.8115827677405942
29.9485836265710113 -7.7990038362433118 8.8407385859349290
30.0330740633495523 -8.0488343272744061 8.8712540429187534
30.1145853379691246 -8.2855872387339673 8.9053340496608140
30.1941283254294000 -8.5171318685938111 8.9446333658686363
30.2713512011298391 -8.7455797588208135 8.9899936057413825
30.3453791099303807 -8.9700570846467720 9.0417609445686065
30.4154596741536452 -9.1895313459647099 9.1001000996304562
30.4810171524667446 -9.4036850440258242 9.1651126812959216
30.5415197431087257 -9.6125678959515675 9.2368652756498015
30.5965068732761409 -9.8161144640087450 9.3153765599825853
30.6457495173003274 -10.0140118517501051 9.4005611948974312
30.6893813120188739 -10.2058847852676742 9.4921985323898141
30.7278485308887639 -10.3915544025192048 9.5899768412941953
30.7616858594736478 -10.5711540278785314 9.6935770687399501
30.7913368237709868 -10.7451046107572203 9.8028019225123781
30.8171155638957686 -10.9141893756661972 9.9178589322833659
30.8391690176903737 -11.0798916495204054 10.0398539586845690
30.8573927834830073 -11.2447582942654378 10.1712703228299599
30.8714623943595967 -11.4120906152960302 10.3157266168616566
30.8810445327611838 -11.5842079894333274 10.4760989832309495
30.8859992891347197 -11.7597875745275466 10.6514233596683781
30.8863720434457605 -11.9329122581588862 10.8355565848857545
30.8821597828438819 -12.0959308518861874 11.0202340298805694
30.8729870238518771 -12.2441204548487690 11.2003710728130415
30.8579321313090951 -12.3780385983184971 11.3766947167830921
30.8356227134677710 -12.5019706461358098 11.5538159998609284
30.8045078787228590 -12.6207315362155903 11.7364214421559332
30.7632471944236272 -12.7373138094461602 11.9262761363771972
30.7111556482691128 -12.8522878041587951 12.1209399033772360
30.6484561142427658 -12.9651431932018255 12.3149116167184136
30.5762573576336472 -13.0764236752259606 12.5025506230426657
30.4963395023999553 -13.1883725476182860 12.6800917092655361
30.4104451625853081 -13.3038346342270088 12.8460035870249882
30.3193701864911667 -13.4251007012586534 13.0007915512191978
30.2229647535102330 -13.5538595193808575 13.1466666394628842
30.1215968581307614 -13.6916042112058314 13.2864471199776446
30.0181089324554193 -13.8391885240789776 13.4217352725173509
29.9182385262265527 -13.9959350254751094 13.5522331087682453
29.8286365142197489 -14.1599081650734178 13.6775306456778338
29.7543193302258224 -14.3293669109279023 13.7994268839688630
29.6978337687461789 -14.5039258312545236 13.9222031996108804
29.6603555658559763 -14.6839867276759612 14.0505730393094517
29.6432992968877258 -14.8682093141054104 14.1865423609095789
29.6489355288746701 -15.0514267745082506 14.3273707127152932
29.6792243095347033 -15.2266057802785326 14.4671244773721401
29.7335653012324563 -15.3898399662480685 14.6008395300842224
29.8075693506691337 -15.5427081346848404 14.7266924142830096
29.8940405197632160 -15.6905668349762664 14.8448007059662572
29.9850592238233524 -15.8397288368598979 14.9552519220374656
30.0736142120101633 -15.9953160326153636 15.0578742344872420
30.1542407980864304 -16.1597098444971472 15.1536323660121113
30.2226352785532448 -16.3318656106007545 15.2452064932886220
30.2746964017998899 -16.5083391684423937 15.3352368047446586
30.3061522534704046 -16.6860735257900821 15.4239768063252178
30.3134942093240767 -16.8650610236460210 15.5089774989888198
30.2951839751159540 -17.0477989368800564 15.5864561108283279
30.2521954824767754 -17.2360297744609525 15.6532688537466544
30.1888988760105157 -17.4292532597088474 15.7100279202141238
30.1145988152261062 -17.6253456781907012 15.7636412541955622
30.0433746807877000 -17.8211736865571524 15.8269335157030060
29.9900562014830641 -18.0125767089188926 15.9145141938745187
29.9640659852669344 -18.1943138162596725 16.0355800185649606
29.9658484693759277 -18.3611613716121767 16.1886425682964479
29.9886164148929986 -18.5103436680008926 16.3639356618557024
30.0229128379837213 -18.6432142108673418 16.5513559240379493
30.0596377232433838 -18.7648563224714984 16.7461529934657740
30.0906634758525442 -18.8816027349869451 16.9475214023558287
30.1090450881685818 -18.9978769843716044 17.1531766801743188
30.1100466045928741 -19.1147388367644417 17.3571893766695915
30.0920009912772493 -19.2314083027923495 17.5538217060754533
30.0557072762962534 -19.3478122270500918 17.7419382134178321
30.0030487321136050 -19.4654039778458845 17.9247488295417341
29.9363664120477218 -19.5860233579731933 18.1064013004344346
29.8588203331213329 -19.7100816497050175 18.2890710782680230
29.7742248797167548 -19.8356460949781450 18.4722870484518928
29.6855679670064845 -19.9596677235154019 18.6543597435496942
29.5936920192298203 -20.0803491326835726 18.8339549132289079
29.4973991953455084 -20.1983119263985635 19.0106067599243111
29.3947734004316743 -20.3157368012409982 19.1843832311106510
29.2844798468510632 -20.4345563906647953 19.3554744017248161
29.1662631039905627 -20.5551643207587276 19.5238702170553147
29.0408075585823404 -20.6765303609119151 19.6888603379953864
28.9088757574647417 -20.7977951416517826 19.8493212267206580
28.7706854077653276 -20.9195291507674099 20.0046778784202175
28.6265154774017958 -21.0432362829585387 20.1554100782915846
28.4778832087427283 -21.1698351750281830 20.3022120519530702
28.3272303607042559 -21.2990587417754185 20.4443149088568958
28.1754845342671452 -21.4304134410331457 20.5788230905959004
28.0199056074568489 -21.5642398069485424 20.7014649968285234
27.8548389152544971 -21.7015284464816958 20.8076380727962871
27.6758150067541528 -21.8424043571383990 20.8929378047473868
27.4835028960167342 -21.9850409272831087 20.9537138810905290
27.2827108090940591 -22.1269336343831142 20.9881784100976212
27.0778792068468839 -22.2668393553829986 20.9968826781032014
26.8709775194118095 -22.4049049174755694 20.9817878468589285
26.6631013965464163 -22.5412797773219751 20.9451914828199293
26.4559251464619116 -22.6750742540964794 20.8896120358883266
26.2512890890681518 -22.8046592153589245 20.8182576925761964
26.0511728188798024 -22.9283706047849165 20.7350641259227295
25.8578743120309191 -23.0450398143270476 20.6432467101626571
25.6732167532278375 -23.1545803030989603 20.5432918096461137
25.4978809002451783 -23.2586788970669431 20.4334684818888235
25.3307216953273091 -23.3609711799121911 20.3136814370663217
25.1678300655910938 -23.4657201921183614 20.1886553132658122
25.0036787895622368 -23.5753221168507636 20.0677693652336302
24.8342760892953009 -23.6888506983835185 19.9625555048553700
24.6582187382598903 -23.8040753867900676 19.8827647328000694
24.4750461629022062 -23.9208908386686616 19.8325440001497881
24.2844951041432999 -24.0418098661334341 19.8087516511555641
24.0879323048206899 -24.1692759698451027 19.8029603525723097
23.8886811426635823 -24.3034851863940560 19.8064190544927250
23.6904798882120851 -24.4422005341156279 19.8144998995854777
23.4961411287678708 -24.5817269682065174 19.8273411146459502
23.3066199337253863 -24.7188182359374196 19.8467587347025400
23.1200153139136617 -24.8528582261802811 19.8721966201629456
22.9322046966315121 -24.9858022142342264 19.8981510792174063
22.7399950724357360 -25.1193273687531260 19.9140686401087557
22.5442123085640418 -25.2527660603325046 19.9070753798433415
22.3504800370013292 -25.3834405427317336 19.8666095168608940
22.1668105034126981 -25.5078675170473232 19.7882719381369867
21.9995221560023104 -25.6227693894134632 19.6741539623799540
21.8510867970480618 -25.7256877793431471 19.5301249234857437
21.7213432202274177 -25.8147534990362999 19.3627083626485685
21.6094077571033658 -25.8886996527973778 19.1772170012191268
21.5144736107763244 -25.9474475104052758 18.9781362501213628
21.4353065845128476 -25.9922293333779706 18.7699315857194478
21.3693249204911737 -26.0249074887167637 18.5562778097248327
21.3129641647347725 -26.0471048339772082 18.3388805275363431
21.2633289717475051 -26.0595368162653500 18.1171561948565838
21.2194849304703048 -26.0617962752975032 17.8884483956470177
21.1822440227289057 -26.0528532203585215 17.6488666954858111
21.1527359609111762 -26.0318375961370734 17.3955808706589430
21.1311602888867291 -25.9983295531493752 17.1291442893813119
21.1165871733360184 -25.9521321751096323 16.8531706733592053
21.1072124762941762 -25.8934890833706035 16.5724412467599898
21.1003357571139318 -25.8244139957377001 16.2928229697778484
21.0926061654477692 -25.7495588203458610 16.0223930099722622
21.0811608493075404 -25.6742506844635230 15.7684153531992628
21.0648085786620420 -25.6013305980325256 15.5328176565615621
21.0441612844627954 -25.5303700093166768 15.3131822057308682
21.0206042903876487 -25.4590521024882079 15.1061000215001418
20.9946545190965104 -25.3845634708124592 14.9071422054859415
20.9648338805147496 -25.3050471545679869 14.7108428762215411
20.9278910880973399 -25.2208692159499606 14.5133584742747921
20.8802783064644437 -25.1337663951073296 14.3137695519644907
20.8203718915727052 -25.0445932900441335 14.1131747424882956
20.7500601143388010 -24.9526798570210033 13.9145512070120851
20.6738855779256276 -24.8567810200541288 13.7223508428952847
20.5961430805453709 -24.7555977818726873 13.5402265121356660
20.5185354408226104 -24.6475308865996396 13.3686786243323414
20.4406594375553219 -24.5310801442640667 13.2060121674829922
20.3620364323136442 -24.4054621795407982 13.0510893269127450
20.2828907142010664 -24.2700036604564318 12.9040890315484855
20.2035318988406800 -24.1230343074078490 12.7661651224118664
20.1240476062819020 -23.9616298748043590 12.6404474814511367
20.0448063970520707 -23.7822024869690622 12.5331054520100338
19.9667577709562742 -23.5816525870989366 12.4509655524075971
19.8911701992475578 -23.3594730603582192 12.3963488228104417
19.8195739108821876 -23.1196345049032246 12.3648909416557835
19.7537793108290067 -22.8692385193232042 12.3487711976289454
19.6955290506187062 -22.6151446753868512 12.3412414610522596
19.6460687301573209 -22.3619334914396077 12.3385592319647834
19.6060596296051450 -22.1119968726491862 12.3393459205801879
19.5756470406566407 -21.8665357906020716 12.3430501454735193
19.5542712115573671 -21.6261288295900940 12.3487559518528531
19.5405517520320551 -21.3902428048602360 12.3549804786269295
19.5328717061516386 -21.1562400481118971 12.3604830885842265
19.5302834539875292 -20.9193247839270882 12.3650889326400701
19.5327810545145262 -20.6744356955669524 12.3693423846266981
19.5406656296200971 -20.4192096292126308 12.3733616177962826
19.5536121076973792 -20.1562708960276247 12.3763491319438010
19.5701249626818701 -19.8942753122104250 12.3771333176418388
19.5877596225659616 -19.6454186437935618 12.3748093563256063
19.6040536634822899 -19.4171984880670614 12.3689174402969222
19.6173601429025481 -19.2067378380183627 12.3592210482073597
19.6269863892343750 -19.0045780728219889 12.3454773749105886
19.6326690753353894 -18.8027477825206866 12.3274947363479139
19.6338964361420310 -18.5977998972619609 12.3051416079756670
19.6295328817364414 -18.3884927720527855 12.2781076205124577
19.6178559402670061 -18.1737822331682430 12.2458889846001551
19.5969259734476076 -17.9534916632677515 12.2081908350984083
19.5650558692862937 -17.7295124688266270 12.1651501279961582
19.5210654977484452 -17.5054110213105467 12.1169606439434592
19.4642852008592513 -17.2849589381970254 12.0633485428966143
19.3944847781307779 -17.0707729823567647 12.0034762696470878
19.3118440309313613 -16.8636589118158682 11.9362412026995948
19.2170391719768112 -16.6630627068239221 11.8605831279945200
19.1114600197342526 -16.4682862382020438 11.7757352130269020
18.9975126449217200 -16.2795203032726583 11.6816503783575225
18.8787731980869147 -16.0979809454212663 11.5794394649611228
18.7594766990020361 -15.9248636072119254 11.4711587716953787
18.6431792824528699 -15.7597456467511208 11.3586687011342953
18.5315974151297098 -15.6001495499861456 11.2425890496241934
18.4247675613240105 -15.4428556221999997 11.1225454986779777
18.3220529664531391 -15.2852959823263816 10.9982418106952462
18.2228527074156048 -15.1256964117171009 10.8700711399167460
18.1267975645420876 -14.9624943458760882 10.7389288820168254
18.0337984105309062 -14.7941076000955789 10.6057716340628261
17.9440575543682357 -14.6192411144138994 10.4713611752133904
17.8579696587209327 -14.4371455609909454 10.3363244627086015
17.7759679079521291 -14.2474479665568552 10.2014166148397738
17.6984132761786128 -14.0497665394144917 10.0676950841517918
17.6255888258984399 -13.8435164487384839 9.9364651109081485
17.5577668082902889 -13.6280936423044530 9.8092581500557543
17.4951322634439990 -13.4032692949353240 9.6879036427930032
17.4375151944488849 -13.1694833530486193 9.5743560831491354
17.3843790321747136 -12.9281173915980041 9.4702766482413239
17.3353700020819090 -12.6821660942524588 9.3768543566104494
17.2909142294802898 -12.4368226788955560 9.2949750984357742
17.2520546993327244 -12.1982450528278683 9.2252068737592978
17.2194827547557416 -11.9700945809881603 9.1671971930869844
17.1927903307606442 -11.7509351820306591 9.1190939490970528
17.1707362339160099 -11.5353892706487891 9.0779768123722313
17.1519117280638866 -11.3173640912125535 9.0410596423631997
17.1349568504566037 -11.0927900260812073 9.0066487915530402
17.1184358753673180 -10.8616530894697156 8.9743701039874679
17.1009177250657878 -10.6286577855620195 8.9447928786356670
17.0812623990318677 -10.4004346802044232 8.9186892494456966
17.0587602658946764 -10.1807796390668983 8.8963456510297227
17.0331241659831214 -9.9689819451020476 8.8774241264784592
17.0044102726580846 -9.7614675828372590 8.8612462123962867
16.9727596629453785 -9.5529159577709137 8.8470358446755419
16.9379630466369449 -9.3353063800082126 8.8339682072381063
16.8992255554396920 -9.0973196367215614 8.8211939340880114
16.8556570198199367 -8.8276857342664492 8.8080316215034209
16.8073663065179097 -8.5220588194663200 8.7942823785129196
16.7560213822618564 -8.1867225000383677 8.7803368288735388
16.7040996582155223 -7.8343055994079300 8.7668845771878381
16.6537011268826909 -7.4765192932032640 8.7545181228097952
16.6060163861642138 -7.1205425580767816 8.7435585734240089
16.5614880805207392 -6.7695535938539670 8.7341015748532556
16.5201647274111281 -6.4245667992782742 8.7261239348347637
16.4819434428039457 -6.0857543196431756 8.7195568856025076
16.4466765568082636 -5.7530372118150339 8.7143182067342408
16.4142058933526016 -5.4262773382703635 8.7103225293205480
16.3843712879316286 -5.1053253214316427 8.7074838900234504
16.3570122694073063 -4.7900300466704877 8.7057162340818408
16.3319683279365897 -4.4802401798056444 8.7049334952285875
16.3090789496764614 -4.1758043639514479 8.7050496060114888
16.2881836204467874 -3.8765712403087846 8.7059784988788902
16.2691218260444757 -3.5823894499482769 8.7076341062723817
16.2517330522651839 -3.2931076339334666 8.7099303606331979
16.2358567849045130 -3.0085744333276221 8.7127811944025559
16.2213325097580778 -2.7286384891939797 8.7161005400216780
16.2079997126214650 -2.4531484425957970 8.7198023299317757
16.1956978792902788 -2.1819529345963051 8.7238004965740643
16.1842664955601343 -1.9149006062587546 8.7280089723897625
16.1735450472266287 -1.6518400986463906 8.7323416898200819
16.1633730200853591 -1.3926200528224602 8.7367125813062465
16.1535898999319372 -1.1370891098502138 8.7410355792894716
16.1440351725619635 -0.8850959107928933 8.7452246162109724
16.1345483237710248 -0.6364890967137420 8.7491936245119746
16.1249688393546009 -0.3911173086760869 8.7528565366337752
16.1151362051059905 -0.1488291877445356 8.7561272850191116
16.1048899067889622 0.0905266249988195 8.7589198021301602
16.0940694298285010 0.3271014882716834 8.7611480206514898
16.0825142563833090 0.5610467588626378 8.7627258754069111
16.0700638420338535 0.7925137778597531 8.7635673185877909
16.0565574596758225 1.0216537782440991 8.7635864214841668
16.0418333229893264 1.2486173633113147 8.7626979440844899
16.0257244853308229 1.4735520390772017 8.7608199890725267
16.0080430207014714 1.6965924861616770 8.7578841606360118
15.9885305892251974 1.9178288723318175 8.7538667755561761
15.9667369017644720 2.1372226326440664 8.7488623390445106
15.9417972815416533 2.3544276433266713 8.7432011285298223
15.9121676733362083 2.5685009317611076 8.7375154788973788
15.8755244383410403 2.7775991167408804 8.7324819590880267
15.8290505993905555 2.9789663982853192 8.7279145823438178
15.7700338947421095 3.1696684336514060 8.7213564178064757
15.6964664356793477 3.3481369571064699 8.7073125119453643
15.6077074289767719 3.5153966708241118 8.6786517731019632
15.5054427489771172 3.6743443594378435 8.6300977495101883
15.3940497476055409 3.8277231545553079 8.5612144313274321
15.2791421965888095 3.9775162135323994 8.4763619608591441
15.1652581657931549 4.1259390176282595 8.3821766909534325
15.0547001975323163 4.2758704121455722 8.2850199473109818
14.9480617375257818 4.4299455439353901 8.1898168717871691
14.8452479100625023 4.5898024847066896 8.1000774873845316
14.7458555777238409 4.7565026046697136 8.0182420899152760
14.6491498706233738 4.9311771321863365 7.9460128952997389
14.5544624014965152 5.1146319490088867 7.8847620860144003
14.4618483939749964 5.3063131865331137 7.8358351006478548
14.3722343244077813 5.5040820257531156 7.8004825625604761
14.2869223603262210 5.7052450884352535 7.7795518995140647
14.2070687390859316 5.9076375131786900 7.7733700607072329
14.1335857064518571 6.1098093903283246 7.7820083442718264
14.0671892747322946 6.3110571177164649 7.8056562934282914
14.0083272020451197 6.5117437656542050 7.8447777885936549
13.9572108265246868 6.7129730108315897 7.8999413624480059
13.9141235737765250 6.9154136995579876 7.9714428091469172
13.8796879807313527 7.1188800742182785 8.0591479087144187
13.8547027258438238 7.3235045591571657 8.1627779550241399
13.8396459268437919 7.5303708970020899 8.2817800424525707
13.8341603888312186 7.7395486397234183 8.4138158507749097
13.8367954630167986 7.9475632535203342 8.5531246158248955
13.8451698359623787 8.1486339715117495 8.6916011721975721
13.8562816868552332 8.3391093008691222 8.8221453753224139
13.8665342897152293 8.5198337355570217 8.9404105032371870
13.8716660936753602 8.6954885788708793 9.0442625755467656
13.8670158474461740 8.8723404161787354 9.1323234688322383
13.8481821071137148 9.0549084268146487 9.2023615437692481
13.8118616602068052 9.2434900209070463 9.2508305837842801
13.7566127627110060 9.4345904121928772 9.2743160454327835
13.6831897624082757 9.6233148848775674 9.2713380158703522
13.5942076906069058 9.8058101918479252 9.2428408893287539
13.4934495733103024 9.9807316803222186 9.1916440300904334
13.3852423590218823 10.1493112323806525 9.1218009415310686
13.2737246771659212 10.3144151954017023 9.0379268175087262
13.1621534324347191 10.4791909591708752 8.9444992519747490
13.0528942257259608 10.6458989063301139 8.8456913566634867
12.9477382390916880 10.8157411083455965 8.7454535547592407
12.8477572647706726 10.9897447182146273 8.6470616614888236
12.7530500107206866 11.1695094920790670 8.5524963313957887
12.6631939526333088 11.3566857760413704 8.4626563153092924
12.5781594133684855 11.5516748815747725 8.3784138701760327
12.4987533699420990 11.7529928597937463 8.3014300356429587
12.4261640219891429 11.9581146866119781 8.2338554997068307
12.3610094716275292 12.1652582607626023 8.1773246667922876
12.3028578667458905 12.3744519338301231 8.1324681742415024
12.2508210262579667 12.5866565357116471 8.0994767705157606
12.2045673037640228 12.8021387346156779 8.0789870535843615
12.1647659987588224 13.0202976617949293 8.0723563073974685
12.1327760916273526 13.2412947605882731 8.0812997907674102
12.1100812171501122 13.4673554821715822 8.1073737535500534
12.0978792835857156 13.7012199073675980 8.1511905306973151
12.0967442816905084 13.9419247022661352 8.2110384690696030
12.1062478810989536 14.1822591694161382 8.2818735153422551
12.1247568880730618 14.4126050052909402 8.3564033348028079
12.1493650731694540 14.6281560174390837 8.4275340661055136
12.1755834766766249 14.8304750771124425 8.4891976925486361
12.1967861109549354 15.0226869514035339 8.5356072727262458
12.2038928560874638 15.2050774227979417 8.5614700495472320
12.1861944764799777 15.3750821777684195 8.5637555915618702
12.1340808200232164 15.5299192982379903 8.5433503064629903
12.0429220474594505 15.6683041016665392 8.5049314405966943
11.9154812432213628 15.7907634866048951 8.4548324509918551
11.7605808355478914 15.9000767241786427 8.3985685831335744
11.5891028497402306 16.0012145461333652 8.3400209587976573
11.4104565945394913 16.1000599947328240 8.2820682412588980
11.2310537470552081 16.2018619221424274 8.2272818143669042
11.0543772231294533 16.3103300820351933 8.1781581413261222
10.8818446919133685 16.4274396629962425 8.1370656222205149
10.7139736341283687 16.5538097928457582 8.1060086897180827
10.5512947657148057 16.6894841291140388 8.0862359375196888
10.3948056175280872 16.8343843336201751 8.0780364184006039
10.2459966374371234 16.9880732013479836 8.0810164363361281
10.1063006123845192 17.1496557908764373 8.0946286754998837
9.9764504438941621 17.3180853868452189 8.1185703636719069
9.8565199355508817 17.4921800005925761 8.1528251701088283
9.7463341882146626 17.6705020520421989 8.1973917199733481
9.6455921105304938 17.8515521207677459 8.2518650622744083
9.5538066526767480 18.0338090730827219 8.3149631707150782
9.4701196055783967 18.2157326099770067 8.3843404971393909
9.3927899651353002 18.3962510260821048 8.4568855810904111
9.3186588037125340 18.5750071177661660 8.5290803707373453
9.2430438871999989 18.7516505908575866 8.5970083600939109
