BEGIN_0
11.3344368984185575 26.8150961912108130 6.3866055022906956
11.5089930214504967 26.7316891874736555 6.4591926034114042
11.6907747692831467 26.6499338818369615 6.4994047910273824
11.8779613003022408 26.5708422632659520 6.5029687441994319
12.0673239753247685 26.4949318166214383 6.4705554219236578
12.2559669510623301 26.4218298076617373 6.4068529811620216
12.4418808992090337 26.3506025481328265 6.3184723035360140
12.6232318438103466 26.2804284602754734 6.2123613682327932
12.7982477925127220 26.2108005543979274 6.0949084546072232
12.9663372446166765 26.1410342181426998 5.9710020219837894
13.1287796494243949 26.0697790635626276 5.8433085913264708
13.2878138835664945 25.9951663974560958 5.7126803757339673
13.4453233542027775 25.9153162852419854 5.5795031849906742
13.6024778180467472 25.8288156732634455 5.4448273149549244
13.7601673725681657 25.7350463195371972 5.3104684843286094
13.9193975418752256 25.6340268050952673 5.1783801803364700
14.0811976855681138 25.5257223299971869 5.0502131961621508
14.2462774643712731 25.4095900258298641 4.9274464443108439
14.4148308354876509 25.2848833117713738 4.8117087335216659
14.5863812605030407 25.1513132667783275 4.7048846887074145
14.7593541491366658 25.0095203446143017 4.6090202743447222
14.9308147846153698 24.8612154353958239 4.5261167739011352
15.0973572405099308 24.7086354762160383 4.4576651402016374
15.2570272409840655 24.5531185923910193 4.4040447030172434
15.4104149191117497 24.3939882747914041 4.3644802690597739
15.5595617065593110 24.2290564597441254 4.3378740709372128
15.7059684912231408 24.0560845394671396 4.3237701623318898
15.8495490767976204 23.8739031911736923 4.3226648113209745
15.9887404085059188 23.6829827109441453 4.3355612340770939
16.1211214541584802 23.4857910577032030 4.3631528018430554
16.2442673697219320 23.2865411986543904 4.4052839485349882
16.3566886774506699 23.0898576249742007 4.4611168887841206
16.4582393595666758 22.8992309182401534 4.5296660419682837
16.5497892528870452 22.7163390963520868 4.6101546308713228
16.6326075797183535 22.5411228233151988 4.7021799166664469
16.7078717804786763 22.3719940644141460 4.8058691452068398
16.7764036321283925 22.2061827958808742 4.9218459682658686
16.8385707034021834 22.0407562329161379 5.0505673431599156
16.8943847314351885 21.8742120073892394 5.1911455857035005
16.9439101194903259 21.7072775621181790 5.3407600796083248
16.9877917585808582 21.5419036098743675 5.4954395778743006
17.0275014947312542 21.3794821013583203 5.6513773211208385
17.0653365096022327 21.2197928651306889 5.8056232627531372
17.1043796266085799 21.0611371782238166 5.9559186046127230
17.1483376744557816 20.9014053448796133 6.0999072857316605
17.2010782265930118 20.7393453714352347 6.2340522099541147
17.2660453910097402 20.5750233429064622 6.3531018436703732
17.3457587036557328 20.4093003575020191 6.4508733684107415
17.4412193815349923 20.2434147520638668 6.5218335255806803
17.5513044265984988 20.0791434990750801 6.5624939634197244
17.6728178003656353 19.9185888867443381 6.5721983877948489
17.8015853985379735 19.7630121480693717 6.5532079061536308
17.9339511929149324 19.6117192645337113 6.5100354023631226
18.0675783992368046 19.4622591586114773 6.4482744950746405
18.2010357264295664 19.3119522402743691 6.3735424496196096
18.3329701278941357 19.1593822557855695 6.2910343674852882
18.4621191038251808 19.0045056060664237 6.2054246009524423
18.5882090088380636 18.8474205697807733 6.1205924461600212
18.7124270516199047 18.6872762886721446 6.0392525798354892
18.8364975769158605 18.5225726787508016 5.9630913921212869
18.9611528717454192 18.3524099432700538 5.8934874126865058
19.0855002873061963 18.1774067698958213 5.8320795249538246
19.2078785896254836 17.9993024570879356 5.7805671709239093
19.3273900603587556 17.8193061042560217 5.7400398289546040
19.4445378464539367 17.6368259587858027 5.7107183777991821
19.5603606716344522 17.4501055095421762 5.6924245393993367
19.6751600423492619 17.2579974115297716 5.6850926008953255
19.7880556023788827 17.0611676649258506 5.6886691460143037
19.8975344371313270 16.8619313568661262 5.7027042150627008
20.0023201191716886 16.6628844325736480 5.7264313468032828
20.1018021198310244 16.4651967371724268 5.7593912594355441
20.1958391447409049 16.2679048780142068 5.8017645857080353
20.2842831540055073 16.0690305095744961 5.8538642999298958
20.3665866702110989 15.8677474418723090 5.9152436891192721
20.4418342726484816 15.6654924857141307 5.9844210755424143
20.5093894192395680 15.4648482886098719 6.0595516920739545
20.5696234950790675 15.2675151241049694 6.1392649257503411
20.6239791321423738 15.0732375335261786 6.2228617802674613
20.6743492784773117 14.8803806217711738 6.3096931943685188
20.7224825331174003 14.6875080191898029 6.3982073098284591
20.7699993067693853 14.4942763574593947 6.4856156573348969
20.8189042055939950 14.3008303257903577 6.5684140815704950
20.8720132296688270 14.1070719691542088 6.6428594465024844
20.9327906050939205 13.9129788511855157 6.7049201440951798
21.0044477198117363 13.7192094197726533 6.7502915174298455
21.0885705837810349 13.5271013007923333 6.7751370793829047
21.1840556488425023 13.3384308763154742 6.7772527691950986
21.2874543152933740 13.1549251090420256 6.7567091700696267
21.3947669359623767 12.9772153825122682 6.7153812209850940
21.5032586543209199 12.8042929716628482 6.6559023142089124
21.6120118083187442 12.6343603987107098 6.5810445311795380
21.7212768065436777 12.4661098884741186 6.4937773659822913
21.8313927598796731 12.2993075153728650 6.3974986667529983
21.9419527968598587 12.1345223797325463 6.2959909329792119
22.0517305633131144 11.9722005230046573 6.1929833943525718
22.1594811633757232 11.8115574159805892 6.0914014531178715
22.2648307273436181 11.6502339404980795 5.9928198626981590
22.3682842218355802 11.4851303384720875 5.8977522886643907
22.4705678912130544 11.3135111819197398 5.8065692774740025
22.5721402016074180 11.1335606734251833 5.7201525342829580
22.6731262478918474 10.9444843561623362 5.6398224627417015
22.7732795447454635 10.7465578646596249 5.5669290982887620
22.8716786133055550 10.5413998509052167 5.5026328545046592
22.9665391409082140 10.3321977823642985 5.4478727054985256
23.0557943118903026 10.1228369477220976 5.4032575267442500
23.1382892196877599 9.9156409161650032 5.3688965076310797
23.2143794748052130 9.7097105410074622 5.3444530859520381
23.2851554942888406 9.5018833044373281 5.3295041408455504
23.3511688912829634 9.2893529360979930 5.3238957064405490
23.4118708404928491 9.0717817462577717 5.3278016020116361
23.4659373660566359 8.8516705674505491 5.3415214921465139
23.5119850613745669 8.6327231223443661 5.3653107068216030
23.5492122532482782 8.4172961066421728 5.3994508339250622
23.5776339036554283 8.2052142889259443 5.4443660320663945
23.5978456246602732 7.9950950122536959 5.5003678795549700
23.6105634186738236 7.7869674798568136 5.5669859600759164
23.6162942898658272 7.5834216674560126 5.6425828186616460
23.6152849185198370 7.3876491220500693 5.7250136130666096
23.6076178637842915 7.2003227881529988 5.8129181333234747
23.5933194830998616 7.0188298983027204 5.9062325599815626
23.5724526751392212 6.8396624847198915 6.0052800550661907
23.5451801607872682 6.6608902229949170 6.1096257514134145
23.5117803519986914 6.4822254797184202 6.2178235671105622
23.4728075130794736 6.3037284955138011 6.3275386343438296
23.4296443373981518 6.1245322466757663 6.4355326117274778
23.3853722535302886 5.9412773729912596 6.5380569884043709
23.3457020383570075 5.7469313130304336 6.6318227402816525
23.3193592994606220 5.5330667437599672 6.7148353023694156
23.3164080955192503 5.2969981665886205 6.7868044964429419
23.3438210260470811 5.0484580992410191 6.8490585558330777
23.4013661009894598 4.8060596203267654 6.9037981807794946
23.4823120805806695 4.5841709478970056 6.9532981808643655
23.5783391037673482 4.3849296294490969 6.9995546606769530
23.6835080611487392 4.2019137736446304 7.0441285271790584
23.7948651374438214 4.0275706744248314 7.0880392518529254
23.9112501783304054 3.8569676739230179 7.1318114721081942
24.0321926376772979 3.6877406572604645 7.1756479711950041
24.1573986430995866 3.5189009813726333 7.2195978762184874
24.2866012168239607 3.3499787586932737 7.2636545684525018
24.4195337095136722 3.1806532502510638 7.3077956511886937
24.5559283854708781 3.0106376366093262 7.3519951819100271
24.6955171637480433 2.8396513226870148 7.3962265788748285
24.8380318982069497 2.6674146450465468 7.4404631675745678
24.9832044340391342 2.4936480545423585 7.4846782627048158
25.1307666156067704 2.3180720135218991 7.5288451779679084
25.2804502872188834 2.1404069852758258 7.5729372269963688
25.4319872931830453 1.9603734331573790 7.6169277234192885
25.5851094778069523 1.7776918205231009 7.6607899808656787
25.7395486853982973 1.5920826107296833 7.7044973129645564
25.8950367602647944 1.4032662671338088 7.7480230333449365
26.0513055467141434 1.2109632530921637 7.7913404556358357
26.2080868890540621 1.0148940319614486 7.8344228934662734
26.3651126315922681 0.8147790670983408 7.8772436604652603
26.5221146186364685 0.6103388218595267 7.9197760702618165
26.6788246944943737 0.4012937596017014 7.9619934364849572
26.8349747034736765 0.1873643436815478 8.0038690727636990
26.9902964898820947 -0.0317289625442445 8.0453762927270578
27.1445218980273530 -0.2562656957189873 8.0864884100040477
27.2973827722171549 -0.4865253924859871 8.1271787382236909
27.4486109567592216 -0.7227875894885596 8.1674205910150022
27.5979382959615371 -0.9653318233698620 8.2071872820070624
27.7450966341364804 -1.2144376307707745 8.2464521248299079
27.8898178156559524 -1.4703845483010642 8.2851884331265762
28.0318336855665606 -1.7334521122163764 8.3233695206871481
28.1708760953434521 -2.0039198553730557 8.3609687026996209
28.3066769480878513 -2.2820672829826663 8.3979593055530710
28.4389684965019640 -2.5681737091753991 8.4343147313199065
28.5674849852252244 -2.8625173233473600 8.4700088124215362
28.6919701593114844 -3.1653706719990975 8.5050174307128614
28.8122053535301603 -3.4769821749330525 8.5393245750915359
28.9280934916807411 -3.7975125002357650 8.5729405309969220
29.0398512944155769 -4.1268521396953375 8.6059441390155893
29.1483134531914452 -4.4641952222242161 8.6385533042416114
29.2551532526000315 -4.8072683326829662 8.6711930701560593
29.3625612676536427 -5.1513917323759379 8.7044878193630080
29.4720657748452304 -5.4891652427779150 8.7391375082921581
29.5831046558727522 -5.8119634775163078 8.7757875935134599
29.6928039524871252 -6.1133406778999131 8.8150719182586119
29.7975440690560909 -6.3919744291317144 8.8577681381622071
29.8949055788001026 -6.6512763250348677 8.9047630049204329
29.9843524616389630 -6.8962408249232041 8.9567761012575957
30.0666920880744470 -7.1307723635585312 9.0141621158011969
30.1432362972051351 -7.3571216719477377 9.0769847089129954
30.2151587428172625 -7.5765620627514565 9.1452324255197013
30.2831709998559369 -7.7900510641467413 9.2189886266374064
30.3474905284261069 -7.9984983576488915 9.2984586797583759
30.4079313644030300 -8.2027571742710137 9.3838574379394029
30.4640132493687581 -8.4034282116795076 9.4752566079076388
30.5151453388390941 -8.6005905802919891 9.5725301135372298
30.5608725499659251 -8.7936914632778134 9.6754756221439440
30.6010509216890405 -8.9817633493475491 9.7840284927412746
30.6358221773073289 -9.1638914762295798 9.8983554538237097
30.6654427265452654 -9.3396265430936616 10.0187290428426401
30.6901535266498513 -9.5091221127851284 10.1452328430010574
30.7101679288922540 -9.6729813903729536 10.2773367039355819
30.7257487106863323 -9.8317905594242205 10.4135269380017235
30.7372878994944969 -9.9854022418539330 10.5514060657691360
30.7452281120320556 -10.1324844100802913 10.6884216977925846
30.7498363292069463 -10.2711827886488294 10.8229586620359015
30.7511063319479732 -10.4010893555356922 10.9555049597628091
30.7488832852448830 -10.5248556755927716 11.0891428200576332
30.7429531069789768 -10.6469997892665589 11.2280866415008127
30.7328686068912091 -10.7706249574550874 11.3750872406082522
30.7176767496340872 -10.8958821330276514 11.5306116806155465
30.6959684001858193 -11.0211552569495801 11.6937620843549190
30.6663275480278372 -11.1448745596311056 11.8629241851099483
30.6278114945202162 -11.2664394476446219 12.0357474740966719
30.5801536365876707 -11.3863055607901345 12.2093460183713063
30.5236311163557161 -11.5059040802353039 12.3810167565027651
30.4586818015585834 -11.6277295435922632 12.5489195982266821
30.3855153875417443 -11.7552912637622455 12.7123921037761995
30.3040372066150425 -11.8924689075949566 12.8718832686774132
30.2144973532017396 -12.0420698968775568 13.0279691193694731
30.1189628810507699 -12.2041114516596032 13.1796167124824439
30.0222926694131758 -12.3756345966980632 13.3239653961392932
29.9311283250786566 -12.5530125168449800 13.4587935391500633
29.8517277751120851 -12.7345349571404434 13.5850881312373506
29.7884525088624699 -12.9209091256129014 13.7073378951704079
29.7435965511095226 -13.1135175886374284 13.8315027842818790
29.7183037316764924 -13.3112944339253687 13.9615734758771186
29.7136925028332399 -13.5085613107772566 14.0969059998493051
29.7310610550846661 -13.6971878167661743 14.2332741182904812
29.7707407255179035 -13.8719216762700590 14.3669162503064243
29.8305653321514015 -14.0330320891886906 14.4967626081345209
29.9055191963186644 -14.1850064973751913 14.6230894737390251
29.9889068014425959 -14.3342819525758749 14.7451806533128078
30.0740544369446496 -14.4873595665945132 14.8609039704042729
30.1555503248932872 -14.6489950967614000 14.9687137681339841
30.2294772815442485 -14.8210319370929469 15.0699784626981987
30.2925109157583243 -15.0026382463413874 15.1689721502535164
30.3407056500736374 -15.1914622869673792 15.2698797981019752
30.3693232815098497 -15.3847267630159834 15.3730258402328150
30.3738840144244300 -15.5802872592062762 15.4737220002218834
30.3513721297029768 -15.7774803711787719 15.5648714761064575
30.3015113796561550 -15.9768098227340403 15.6413337839727067
30.2287121470445790 -16.1783130452956492 15.7036113969280091
30.1436295930989147 -16.3794333018709501 15.7589879745728023
30.0617393472444867 -16.5753278317233885 15.8202588950364795
29.9986850478087774 -16.7611856062867446 15.9022500515876981
29.9647204881927181 -16.9338193396853747 16.0160994802374397
29.9611775834482721 -17.0922415316751497 16.1648301483735537
29.9814820102502786 -17.2376131760858655 16.3441218724240436
30.0153950463321557 -17.3723047072725265 16.5460439021569066
30.0521021554401422 -17.4987676784752999 16.7614785829945845
30.0814603472803910 -17.6191226771191793 16.9809997886561774
30.0955987686132964 -17.7354316664494256 17.1966210413145362
30.0905007366558799 -17.8496671840427794 17.4037266850262782
30.0657340066921144 -17.9633968458022082 17.6016127504599247
30.0227715464330345 -18.0780574582308198 17.7928955610538289
29.9637872643735292 -18.1952845115433206 17.9816123360493449
29.8916258219319246 -18.3163908776438795 18.1707013803219368
29.8099181029796227 -18.4412136659478598 18.3605539278587990
29.7220199946077841 -18.5680133383438566 18.5499771813661134
29.6298467179308673 -18.6944128277716715 18.7373585985274147
29.5338824691855670 -18.8184245822720086 18.9207822000987846
29.4337028164997889 -18.9393586022954672 19.0987410784452933
29.3285436891089724 -19.0579331921930120 19.2711173478045126
29.2179500007230786 -19.1754732833808426 19.4388085400103741
29.1022669253309694 -19.2926717821575835 19.6021585030619896
28.9824339520029746 -19.4091673831094198 19.7599891614206697
28.8588674365065003 -19.5246119061385528 19.9108689626292801
28.7311158591847331 -19.6395121296506261 20.0547756147341047
28.5991754969558549 -19.7548220488293467 20.1930152450260962
28.4645208263380312 -19.8710825067950836 20.3268886274822265
28.3286356032323212 -19.9888974608359717 20.4570150365392749
28.1908561538391425 -20.1098359103104372 20.5830762853601321
28.0482335368002040 -20.2358030270462521 20.7027396365868555
27.8969252868027873 -20.3675582614532260 20.8108766691227842
27.7335528559758160 -20.5041315642337239 20.9009713261985723
27.5565388480307298 -20.6436465629870796 20.9677490546946252
27.3670709577410562 -20.7850351847178985 21.0085764735644958
27.1686240036120203 -20.9283526872714134 21.0230970048859298
26.9652848157164335 -21.0731491912300157 21.0124473253837465
26.7603517809682643 -21.2175334126697166 20.9789860970374136
26.5561887491899888 -21.3589860561101759 20.9261410786364408
26.3545910192391482 -21.4954607022790185 20.8579893199414954
26.1569842058321314 -21.6258359600510204 20.7786397072716582
25.9646164968775146 -21.7498226569699042 20.6911210550566409
25.7783590711009829 -21.8677046349576685 20.5958903325122762
25.5982842594159443 -21.9805501014704490 20.4907418127768537
25.4240885991003012 -22.0906501898720080 20.3741956220721150
25.2552494023201604 -22.2011460490583659 20.2501368347236195
25.0894760754885695 -22.3149553751834944 20.1281582654676860
24.9215312646547176 -22.4340442598969219 20.0195360944099079
24.7454472145940798 -22.5590118864326783 19.9333115781465935
24.5593912166982591 -22.6885146354228198 19.8741371165702461
24.3678340271440241 -22.8198472866019628 19.8410111612097388
24.1768332418538527 -22.9518520692646533 19.8276145443746934
23.9874102377563325 -23.0868811418015909 19.8257871256826803
23.7955752635810569 -23.2281987811975625 19.8300750056717980
23.5987300073281787 -23.3752624820488606 19.8394700741837866
23.3998660290681286 -23.5234207595663563 19.8553787597078752
23.2054385348398320 -23.6679389338043933 19.8779582912210273
23.0206018920268676 -23.8065220267819697 19.9035426008252117
22.8460883294667916 -23.9388399553245961 19.9244589346601195
22.6785493532462041 -24.0656143895924188 19.9307249803414059
22.5143247655367560 -24.1878179959704127 19.9125277092532862
22.3534459259262022 -24.3053920901198026 19.8628490312970705
22.1996506584229998 -24.4168219191323388 19.7793780951002205
22.0568989881997020 -24.5202111137005261 19.6644230703985308
21.9269797737708956 -24.6140650350281618 19.5232238246651022
21.8105471322345501 -24.6966656754515910 19.3623254145624237
21.7084014602538140 -24.7659978723722816 19.1876656148979592
21.6208715748112503 -24.8210026608657088 19.0025879486746874
21.5467532106194035 -24.8624744902371404 18.8075630589077747
21.4835186130820901 -24.8925047604286789 18.6016093655731964
21.4283536824369101 -24.9129741682806696 18.3827937971328339
21.3790229486945513 -24.9242190263982835 18.1469736300307609
21.3347763977603968 -24.9246090595689580 17.8881408731524942
21.2967591172665074 -24.9111509036398999 17.6012608380687006
21.2669352282191682 -24.8807602289815861 17.2865534962221155
21.2462381304434444 -24.8319879913796058 16.9533028883493593
21.2335232368020677 -24.7670542065465966 16.6193964072275833
21.2256776517550882 -24.6925619171705080 16.3048137236846244
21.2185055454087284 -24.6165747929178380 16.0219482629389027
21.2082200520068014 -24.5436223668225182 15.7698834887570527
21.1925690977385379 -24.4726198668231945 15.5372694317527369
21.1707923572981827 -24.3994246198035398 15.3110385015424537
21.1427744020332256 -24.3209528193734386 15.0840589128918605
21.1079338572749222 -24.2373595220470150 14.8565366173958449
21.0644469159900538 -24.1512237262745728 14.6321155564203575
21.0096751153211869 -24.0647523832484183 14.4132355337863238
20.9418201792620984 -23.9772751641203854 14.1990030678982109
20.8613659794630628 -23.8852554895906479 13.9866541492260303
20.7713325091569665 -23.7849360054285341 13.7754512887281901
20.6764679849965134 -23.6750639955270046 13.5691281223902287
20.5814490467570010 -23.5569958009239500 13.3738564285092369
20.4888727590763615 -23.4323616850756338 13.1937587916776451
20.3989009352169042 -23.3010718714384026 13.0290540926953486
20.3106009228810400 -23.1609219327094991 12.8783016010942131
20.2228671064626617 -23.0073355891666509 12.7412252194194036
20.1347435722881869 -22.8338245361432399 12.6201835124355650
20.0463422707108521 -22.6351999755165281 12.5201610088215372
19.9596694303344755 -22.4118189018077345 12.4460918832764396
19.8777273150144076 -22.1700160867275855 12.3984649888625018
19.8028727719448661 -21.9182589850769958 12.3721162364751596
19.7363292855442509 -21.6632865391051581 12.3595158642175988
19.6786815066488607 -21.4089983032488789 12.3546144328607266
19.6303073818181595 -21.1572539882682449 12.3542477525790950
19.5915149289326855 -20.9089202712568962 12.3574043392534598
19.5624682732381068 -20.6646191564665784 12.3637764306115319
19.5427622392497824 -20.4249132182099800 12.3725966120577624
19.5310694116760182 -20.1893669312826489 12.3823448327623602
19.5256617334174472 -19.9549908623694350 12.3915023936244655
19.5254807885827617 -19.7163158741828539 12.3995587601170545
19.5305269509336838 -19.4687999501163773 12.4069302813767610
19.5411501346234111 -19.2133666453571976 12.4138391021644807
19.5571233901595001 -18.9568407092266149 12.4196502101261643
19.5772740580194728 -18.7073411471525617 12.4232718091960894
19.5995550973830781 -18.4700808677146426 12.4236681256601305
19.6214614162282786 -18.2459811948380732 12.4199694098234019
19.6407674933353888 -18.0310814825796051 12.4114529971785750
19.6560393955753128 -17.8170854748810328 12.3974458449828759
19.6662668383216328 -17.5958522669944699 12.3772638594950966
19.6700225490890546 -17.3650610392268234 12.3504680929814032
19.6652945562632233 -17.1283846007615637 12.3171679603148245
19.6501487531724273 -16.8912369164022813 12.2780094737132011
19.6233101763515450 -16.6577531795188527 12.2338489925423239
19.5841878480376650 -16.4306574991836243 12.1853164981089126
19.5326082315346241 -16.2119391175252545 12.1324661143436234
19.4685733187658165 -16.0026725941709529 12.0746613026099077
19.3922087312222438 -15.8024424459916553 12.0108097381663441
19.3039305103851611 -15.6095333501063074 11.9398073024884290
19.2046683297480740 -15.4219182443620646 11.8608244900971656
19.0960392171704001 -15.2383379488565254 11.7734391670446694
18.9805472885941349 -15.0589468833836087 11.6779342442085330
18.8616937477798494 -14.8852064847307055 11.5756575138030797
18.7434971137084823 -14.7186736619493104 11.4688183327417583
18.6292272582925449 -14.5591865346577016 11.3593893749238610
18.5202971424809348 -14.4043065922366402 11.2480109234247170
18.4164467589588909 -14.2507396201868133 11.1341491955240386
18.3168217996772746 -14.0959227579454840 11.0172595542108329
18.2207480447990910 -13.9382657252598960 10.8976190083681335
18.1278555452670567 -13.7765063100880063 10.7761976200871814
18.0380136688145001 -13.6092971648123893 10.6540960002618323
17.9513387131539695 -13.4353846543081161 10.5321970889283776
17.8681561831722888 -13.2539223212904815 10.4112014306762095
17.7888723204234367 -13.0644455407807740 10.2918747064105958
17.7138541167802543 -12.8665645527983727 10.1752226975315327
17.6433645731611364 -12.6597473896890840 10.0623462897611482
17.5775934411455879 -12.4434156502025637 9.9541373100037944
17.5167281220911946 -12.2172302672704518 9.8512803573580676
17.4608996962275533 -11.9812655538723121 9.7545923210881718
17.4100506774355210 -11.7360231369394015 9.6651677062961525
17.3640520316302727 -11.4827549271683331 9.5840768946336059
17.3230573935556080 -11.2243800028669014 9.5120418732901122
17.2875349760030446 -10.9657745752814222 9.4493667428040613
17.2576145486428914 -10.7111083971134846 9.3958064772200522
17.2321754198536823 -10.4583750300525899 9.3501715762222144
17.2084784559103383 -10.1965145415523786 9.3102473257152099
17.1827142564020079 -9.9106988769270679 9.2736830457600696
17.1512403733454306 -9.5927199545342177 9.2392822488316142
17.1119751442781336 -9.2464952614484481 9.2073652339685736
17.0652042977446676 -8.8836807340955453 9.1788372077321938
17.0132416725064566 -8.5157299089560503 9.1541059471548287
16.9591870153250426 -8.1498060107495220 9.1328403585294105
16.9056909305488574 -7.7891189898178723 9.1143766614656059
16.8544068175783437 -7.4347113962663620 9.0981280368159467
16.8060956784076083 -7.0867747185625092 9.0837208159260001
16.7609764439187856 -6.7452439034441696 9.0709480522431463
16.7190184906721058 -6.4099921600655989 9.0596883825190506
16.6800999834767616 -6.0808804630733668 9.0498535439726915
16.6440719390629432 -5.7577677210045692 9.0413654507086338
16.6107786901074768 -5.4405125313391522 9.0341485730324926
16.5800631941318031 -5.1289734475699014 9.0281279140716215
16.5517681707225002 -4.8230090171406310 9.0232285699802670
16.5257363047193877 -4.5224777866931589 9.0193756505872944
16.5018102766745187 -4.2272383027710099 9.0164942674174799
16.4798327666932920 -3.9371491119070434 9.0145095321729602
16.4596464548419767 -3.6520687606331350 9.0133465565714612
16.4410940211839787 -3.3718557954810908 9.0129304523318563
16.4240181457825258 -3.0963687629826993 9.0131863311730847
16.4082615087008321 -2.8254662096697523 9.0140393048140943
16.3936667900021220 -2.5590066820740436 9.0154144849738316
16.3800766697496059 -2.2968487267273723 9.0172369833712409
16.3673338280064975 -2.0388508901615268 9.0194319117252650
16.3552809448360215 -1.7848717189083061 9.0219243817548538
16.3437607003013952 -1.5347697594994933 9.0246395051789534
16.3326157744658360 -1.2884035584668911 9.0275023937165049
16.3216888473925508 -1.0456316623422879 9.0304381590864544
16.3108225991447675 -0.8063126176574844 9.0333719130077519
16.2998597097856930 -0.5703049709442745 9.0362287671993382
16.2886428593784771 -0.3374672687344784 9.0389338333802129
16.2770147279850335 -0.1076580575604513 9.0414122232701484
16.2648179956496506 0.1192641160394921 9.0435890485999124
16.2518953422025660 0.3434407054780966 9.0453894212299364
16.2380894452634195 0.5650131639579463 9.0467384543114626
16.2232429629748225 0.7841229457920278 9.0475612718799532
16.2071984070119264 1.0009115375458375 9.0477830758078799
16.1897973516202356 1.2155207869238627 9.0473295394421260
16.1708762959886414 1.4280952913785967 9.0461287445397112
16.1502487303968465 1.6387952691517889 9.0441190629857182
16.1276420899631781 1.8478484156941857 9.0412751280161814
16.1025242141125915 2.0557007152079212 9.0376744746364857
16.0737535914262040 2.2632977106611634 9.0336195182303740
16.0391466795955999 2.4722598000565466 9.0297534833869584
15.9954189415200680 2.6842308212611741 9.0269472983145995
15.9390770728355182 2.8989045068690498 9.0256653639227551
15.8679783850353022 3.1122507449840207 9.0249041100934217
15.7820884130802561 3.3179867581823501 9.0215688147891075
15.6827153366919330 3.5118595555385905 9.0112753220778963
15.5715689351464128 3.6938264528096916 8.9903149480984013
15.4506901022578091 3.8664319366722584 8.9572463222074710
15.3226323052200062 4.0324232221422989 8.9129730947848760
15.1902252307785570 4.1939762422593976 8.8596862725461776
15.0562609563217933 4.3529705657486080 8.7999202464652591
14.9232847730349949 4.5112067248840297 8.7362618192319417
14.7930018619347958 4.6707238854411868 8.6711703567118654
14.6657384088537714 4.8341699548019257 8.6066186353593679
14.5409784159732638 5.0044833070002461 8.5440170606000869
14.4185900091301633 5.1838209792966348 8.4845866245780019
14.2994418834487576 5.3723695013753128 8.4296553239018337
14.1849632761347770 5.5679685990365915 8.3804417871382402
14.0762762299145709 5.7672851371797478 8.3377103620385977
13.9735714619331297 5.9679280971640356 8.3017391220130357
13.8761375684070725 6.1694413804768402 8.2726181881745546
13.7831103304252167 6.3721988176493003 8.2507024172730681
13.6942484066883594 6.5760015864933985 8.2368600903047540
13.6099717894270515 6.7802422110276535 8.2323179296082110
13.5308371051150154 6.9850302086520069 8.2383076743598593
13.4572874712593293 7.1912514633445888 8.2557636633216909
13.3899423404217170 7.3990756654716598 8.2850723336784444
13.3297872722173913 7.6069002447117082 8.3259360674086587
13.2778257402552153 7.8123762251488769 8.3775442097492228
13.2345994064513857 8.0142824341639045 8.4389359435171212
13.1999530447980380 8.2132205873143711 8.5092057029449553
13.1730211926358063 8.4106995895749144 8.5873702486582442
13.1523469950895571 8.6076888264199134 8.6719875137431757
13.1360143673343543 8.8041699255262937 8.7609027442056693
13.1216585431221926 9.0000231080300690 8.8513902670557503
13.1063207609775194 9.1957575437977574 8.9402990505474627
13.0862582280959074 9.3921431040842425 9.0237489878064210
13.0570134357650698 9.5894306009187567 9.0967359550841387
13.0140562089684035 9.7868152285946977 9.1534788734115526
12.9539226147901214 9.9820040010943707 9.1885461719766344
12.8752797157733916 10.1714188718852689 9.1981710736646782
12.7793595147545993 10.3516833127314740 9.1813778823167098
12.6695670099400299 10.5214573090550729 9.1404411547980224
12.5503691767114631 10.6822398464088639 9.0801622905451236
12.4260553770046727 10.8377678076336448 9.0064337730939528
12.3001715847975781 10.9924169923658255 8.9252034174562738
12.1756275340869884 11.1495910773719871 8.8420331287630152
12.0547005370296496 11.3112119186288016 8.7616937677348208
11.9387116595616671 11.4784330488890411 8.6877018252207829
11.8278861891952669 11.6525442260244958 8.6221360949540138
11.7218153503674269 11.8349738839631105 8.5659345096946726
11.6203451108920355 12.0262038095721877 8.5194468867060955
11.5241039661433238 12.2247817952136391 8.4827592606186162
11.4340612495678862 12.4278832035031002 8.4556488159570087
11.3504762941704733 12.6334704715399404 8.4375062215696968
11.2724056390527743 12.8420784758723965 8.4275094037568117
11.1984639373698691 13.0559984414869135 8.4249592901267363
11.1281061316927143 13.2763537484625154 8.4294507249743411
11.0621173656824627 13.5012263248300126 8.4407513909957217
11.0019344109047879 13.7267768391316487 8.4585772939442343
10.9487000350328181 13.9495808137397326 8.4824827468248056
10.9028853447715530 14.1679083270719914 8.5119012052180594
10.8644495222582620 14.3818179517986717 8.5462675966741237
10.8330802446813976 14.5929210929756223 8.5851684662368690
10.8082918626903499 14.8039765887804844 8.6283991153582740
10.7894745680895863 15.0177525876649813 8.6757238459125006
10.7759111443057733 15.2352330361258304 8.7264089432913110
10.7665367981680244 15.4547293305588500 8.7790780687348757
10.7595355152367045 15.6730841322235754 8.8321731650969006
10.7521701433207113 15.8877127601818184 8.8845670800454464
10.7408842270150835 16.0977198484531812 8.9358760173461853
10.7215198730727099 16.3036638515792980 8.9862835707648792
10.6896085745754341 16.5061854342047809 9.0358430942439405
10.6406912559494611 16.7041591590581291 9.0835836771238654
10.5707675898237632 16.8939601656747769 9.1269673153601758
10.4770445516083583 17.0709241952848672 9.1621776030191064
10.3589012727971674 17.2318828745987815 9.1853200405816153
10.2185960649149283 17.3768682781771275 9.1939775657546043
10.0610091067889869 17.5091342617069046 9.1881474705703354
9.8922959576388241 17.6338494710014224 9.1699495866277054
9.7183433319948094 17.7563153485907215 9.1424954833224739
9.5438863286340005 17.8807704529108840 9.1089260489782617
9.3723853032703452 18.0102747322878685 9.0722378718112786
9.2062350617806388 18.1469618233074854 9.0355728585267165
9.0469582148665211 18.2918589992726695 9.0023385350315017
8.8954163870535243 18.4446484584580119 8.9759644225338260
8.7519537780971781 18.6041867479980318 8.9594195704905744
8.6166252593935209 18.7695652865543607 8.9548155859927299
8.4896975801226446 18.9405382659918153 8.9632493901136030
8.3720305334346641 19.1170174262380854 8.9849066672035534
8.2648629670260618 19.2985718696273381 9.0193479730351687
8.1691201592422829 19.4845380091465969 9.0656855414419670
8.0849490479067789 19.6741683082710317 9.1225294906856220
8.0115886180128193 19.8665708744297724 9.1879597810030251
7.9469903806830464 20.0607163420877939 9.2596266060067904
7.8872411128332649 20.2552237045038801 9.3346975290416481
7.8264470871016441 20.4477420791238309 9.4096106473768799
7.7573128358451822 20.6342233805983781 9.4798747953295361
7.6721902412992433 20.8081270468817507 9.5400440839447462
7.5645793913824617 20.9599577799385592 9.5841964818795287
7.4310372837123433 21.0787753211305358 9.6072995611475225
7.2725656329598873 21.1565628343935828 9.6070542489841735
7.0942500236698711 21.1930187904454250 9.5852668153233846
6.9029527438082159 21.1966733422858340 9.5478117907812248
6.7045521396627024 21.1815296678602927 9.5028142628730770
6.5026650864958588 21.1625273071715867 9.4579982586964508
6.2994270091408193 21.1526454449889734 9.4191621353239903
6.0971196567124135 21.1615324637111506 9.3907639645361964
5.8989266548146029 21.1947704334030753 9.3770646320520541
5.7082601099197960 21.2538687451369981 9.3816995958782634
5.5275419931633536 21.3372025699994552 9.4057975718824789
5.3575355215519238 21.4412246539646603 9.4468214078951185
5.1973110066019599 21.5609870842674667 9.4995600997242367
5.0441367323034694 21.6898547987710089 9.5583203381561876
4.8931244007280785 21.8193645290377027 9.6184114377862500
4.7379823564619414 21.9399561359041506 9.6762365096245464
4.5734189864532446 22.0419911383172291 9.7286241629097336
4.3973503275083754 22.1160645819690416 9.7722126222499455
4.2116591331279807 22.1534777800395446 9.8035031688402139
4.0215169765240848 22.1482133403324397 9.8196135182987572
3.8332944145185834 22.0997017405453278 9.8190283085382433
3.6517029119874813 22.0141586522529380 9.8017152719988552
3.4780911777126442 21.9031677105848495 9.7687325221457808
3.3108852685940628 21.7802213710018009 9.7219776675059038
3.1470264293065333 21.6570142793507436 9.6643708214312518
2.9829968156643814 21.5411484290591595 9.6000689205445475
2.8152127449255628 21.4361001622144300 9.5341986830705885
2.6402521033220210 21.3431970434146230 9.4718462361480391
2.4555786795247325 21.2644150788455732 9.4168517436729218
2.2607551731275870 21.2038803570192940 9.3715579258634278
2.0578774697763094 21.1665097894203029 9.3378418376530199
1.8504628199470954 21.1550247760658223 9.3182011076979059
1.6422387995391214 21.1684307273179257 9.3156271476557269
1.4370393267994361 21.2033783550488835 9.3323200722131041
1.2387502954194920 21.2567197360153983 9.3684877864720377
1.0505801771217347 21.3267601785698844 9.4223200648548975
0.8745772896695250 21.4127884054967694 9.4907698601631623
0.7117074959689982 21.5141735882050682 9.5701695681343217
0.5617438573072948 21.6296760440674696 9.6563694800981601
0.4227062166087436 21.7566537358734848 9.7445827509531693
0.2902875611004010 21.8901500610293951 9.8292749131381605
0.1581803859196991 22.0219012830179111 9.9042443435695411
0.0200971235496454 22.1393379049609855 9.9629253089684351
-0.1272579564662446 22.2261669373371298 9.9989707891512776
-0.2824504913547208 22.2670804791441626 10.0074970441625481
-0.4408770841518264 22.2560944300895116 9.9873426748142293
-0.5993434666828459 22.2025413727135259 9.9434047917670298
-0.7595608440012693 22.1284944610026777 9.8868782861641051
-0.9265816697390132 22.0591773982156596 9.8323270296749925
-1.1040051827241184 22.0136222516803244 9.7928500028948662
-1.2910226307723720 22.0002958267321134 9.7757618292439190
-1.4834069877936731 22.0176977542648658 9.7808331366139463
-1.6766206413589235 22.0573308031299788 9.8015550689039586
-1.8682306837279059 22.1062076443637139 9.8278723009173561
-2.0578550713413595 22.1483768182109060 9.8485385527935616
-2.2448986261268216 22.1673459179048677 9.8530626645284052
-2.4264820947246752 22.1505348120858656 9.8342269147462886
-2.5979382101736048 22.0935139640950595 9.7903038158912157
-2.7555005716991294 22.0003868137789169 9.7246479565850716
-2.8983662910830486 21.8801167362675528 9.6426694849435073
-3.0284883466701471 21.7422903122945215 9.5489474156261505
-3.1489032745729828 21.5949343093233281 9.4463876031298994
-3.2623136845549396 21.4442784006583196 9.3368157522065438
-3.3711986066659323 21.2953203216020626 9.2217102713029568
-3.4792185005817542 21.1523379540396306 9.1027853740081657
-3.5921832088557455 21.0190916032173618 8.9825698208065567
-3.7168662516557252 20.8986418906622227 8.8646175285871376
-3.8580712944903102 20.7928483132054183 8.7529432741443838
-4.0168543311864600 20.7023605070583727 8.6513894276328092
-4.1913482484774640 20.6269961695393320 8.5633111408833820
-4.3786668790009129 20.5659520579247967 8.4913072388008306
-4.5761437065051380 20.5179886941777028 8.4371253738544887
-4.7813775056046648 20.4819571995134382 8.4018262166693560
-4.9919026627231720 20.4575768430661569 8.3856769501175314
-5.2051035410131137 20.4460177520641295 8.3877087144643330
-5.4181015517376085 20.4496330324384346 8.4056282304041758
-5.6277690471833353 20.4705679935612856 8.4364762342176149
-5.8314083322064434 20.5092364298558678 8.4774860146029809
-6.0276789253360867 20.5640895859736759 8.5261635861061826
-6.2170615501475854 20.6324318162542184 8.5795593526321756
-6.4016980724267771 20.7106540984958762 8.6337763273606267
-6.5846196881378116 20.7931648290840982 8.6843707302929438
-6.7683790237676771 20.8709436606479954 8.7271216098076891
-6.9535544173322457 20.9313015723620524 8.7584082283355293
-7.1378818484550273 20.9601149586080453 8.7753149833520041
-7.3163602955731442 20.9461472535358837 8.7759765890780539
-7.4826189180657199 20.8851170406027222 8.7600551280628043
-7.6315812215887213 20.7809434156031081 8.7288761698951500
-7.7619898715890336 20.6433738267992979 8.6850267791328442
-7.8768813500852257 20.4838367417217917 8.6316842177736266
-7.9820075109846584 20.3122453838646955 8.5721542630920791
-8.0838918769836674 20.1360091361703759 8.5098021904593608
-8.1886926870865064 19.9605324679243594 8.4482124226334818
-8.3015340494505789 19.7896624561948506 8.3910955617401708
-8.4258492300268344 19.6256860485353428 8.3417441143904689
-8.5630880636905751 19.4697322089205116 8.3026165864764874
-8.7130434484440684 19.3227164174397288 8.2754130598081304
-8.8745114918492600 19.1858138677876724 8.2611086098142490
-9.0458295872984298 19.0601507516415438 8.2596309229048170
-9.2251360539360565 18.9463790564927201 8.2695510998038486
-9.4103352373566427 18.8442709441047072 8.2880750921547488
-9.5985807467203355 18.7518070152355918 8.3114759317448907
-9.7854482851689575 18.6636487956748525 8.3358847401343965
-9.9641041243927386 18.5699593273502472 8.3576562708401987
-10.1246962859508649 18.4572636657869857 8.3727699674016591
-10.2548007379461996 18.3130432416505045 8.3762546711045225
-10.3426820144279148 18.1334543348871478 8.3630460866577305
-10.3830386045492062 17.9282220742899199 8.3300637730553042
-10.3808551194007901 17.7153521070063071 8.2776310901358130
-10.3494709209122213 17.5088857421308717 8.2089619628354029
-10.3046023795972470 17.3125902897153665 8.1286463535687652
-10.2592963418513570 17.1233015161034139 8.0417087371305414
-10.2224097781944039 16.9369194115046255 7.9535683970728792
-10.1993397058109316 16.7513134605642691 7.8699816715352675
-10.1931454717845291 16.5657344924401322 7.7962789133444916
-10.2055419084560981 16.3789327117774057 7.7365073613050077
-10.2373502980280016 16.1885916130257961 7.6932330514043059
-10.2881448945002134 15.9931669894909234 7.6678962875522867
-10.3557970314657091 15.7938354355283579 7.6609612231791271
-10.4367892615913593 15.5938620721843755 7.6716258292451300
-10.5271582560036983 15.3964771623533405 7.6977819899885667
-10.6233998025648617 15.2037453879579534 7.7365898914328968
-10.7230280129068802 15.0167953579144093 7.7853151858074945
-10.8248159246476181 14.8360455010871952 7.8418884897885155
-10.9284861239009494 14.6611824158211093 7.9048585733790704
-11.0339502836296113 14.4913877513154787 7.9728621647944271
-11.1407940921948789 14.3255108879569342 8.0441079580594259
-11.2482718470464373 14.1617388817747560 8.1161487619215258
-11.3551935326765570 13.9972330469516955 8.1856800796777236
-11.4593356968775346 13.8280822143207818 8.2482425535963166
-11.5567978620343847 13.6493711141680656 8.2981681666806146
-11.6420964466147066 13.4556498669284181 8.3292186166720263
-11.7096271231301188 13.2428922649306884 8.3361820398437718
-11.7559039463160762 13.0124249329367192 8.3170277604692622
-11.7809495994208220 12.7733960014581580 8.2743033984484828
-11.7878810168703581 12.5383183032140284 8.2142490080385073
-11.7812195149889902 12.3145729066778795 8.1440919652557682
-11.7652651596257503 12.1019639562713532 8.0699673611366212
-11.7435289917021759 11.8967441747749003 7.9963215370910561
-11.7190523575645926 11.6950909329324535 7.9258789437472874
-11.6947839074858333 11.4937594206847695 7.8598419905023258
-11.6735384812795928 11.2903874210683401 7.7986269118638569
-11.6576801741651952 11.0846381195821930 7.7427700828092778
-11.6488259182001848 10.8791160446405843 7.6933497133354383
-11.6477438704296574 10.6782659205808272 7.6517320004912488
-11.6545183773805405 10.4844339845062517 7.6189185465272642
-11.6687977122542392 10.2941465574194950 7.5951630241909838
-11.6897648615605441 10.1000373050817895 7.5804529810365393
-11.7160642309093461 9.8970459807283628 7.5752735703331249
-11.7463388197746603 9.6849286048663004 7.5804051364370499
-11.7799419731898176 9.4663313699120657 7.5959986383774654
-11.8169269019581638 9.2446824590372714 7.6210937996663013
-11.8575858231408393 9.0232159100110749 7.6540157456891844
-11.9024339242786112 8.8043067746421517 7.6932568921848290
-11.9525164977461813 8.5889487939174227 7.7381466088026229
-12.0091713046883051 8.3766791117337593 7.7886939626550031
-12.0731632183092668 8.1662166924504547 7.8447262659241552
-12.1440623272414570 7.9568231433817935 7.9051853614000374
-12.2205229923787453 7.7492819955545293 7.9683615089083366
-12.3011393783999772 7.5451536243147261 8.0328923978901354
-12.3850324833082350 7.3451665205492169 8.0983096857766483
-12.4716331566555443 7.1486747509993052 8.1644665198354716
-12.5600669235118723 6.9545346485481021 8.2306337352115051
-12.6490127171212325 6.7619112088018500 8.2953410702005179
-12.7371829564666168 6.5698911225390786 8.3568358328138235
-12.8235397219920078 6.3768441065623938 8.4132630946617013
-12.9066410289733167 6.1804381224251612 8.4623193157380232
-12.9837426118078696 5.9773989862583408 8.5011045554189941
-13.0507307228711955 5.7626684228508962 8.5268102636597156
-13.1030574854520374 5.5305880399489302 8.5378872252864255
-13.1370317929254306 5.2800348288282777 8.5348822794728978
-13.1509752726536906 5.0190459926241893 8.5204188957476443
-13.1459745655451847 4.7615103167510329 8.4980982100945717
-13.1256528654573223 4.5177135762540601 8.4709396816678737
-13.0947274868004193 4.2891363897838630 8.4406265938742351
-13.0572655453295727 4.0707575836295806 8.4078777116663836
-13.0158435808082089 3.8560123097603238 8.3731700933524706
-12.9718855778412845 3.6398950816542843 8.3370768812282936
-12.9265098293748970 3.4195435897850182 8.3002044126862806
-12.8811186594937102 3.1937640561121778 8.2631108050448034
-12.8374541489801626 2.9627887402508915 8.2264221418654806
-12.7972782999814765 2.7285467292440124 8.1910196851366024
-12.7619612741322719 2.4947367369766287 8.1580453131349060
-12.7322175800826525 2.2655846963102881 8.1286230513276223
-12.7080730550203835 2.0434029647470133 8.1034717838654871
-12.6890619630219934 1.8272672812346862 8.0827428873423948
-12.6746120619189995 1.6146407991526726 8.0662122563535323
-12.6643908241432150 1.4042141421708561 8.0535808641846849
-12.6584687890516960 1.1968819606532719 8.0446147999059221
-12.6573134716558418 0.9935398364064341 8.0391338494695113
-12.6616243043002523 0.7914695108251895 8.0370298238898510
-12.6720650563751338 0.5836978214572639 8.0383846267609371
-12.6890503959090157 0.3633926887981822 8.0435444057658660
-12.7126826661322330 0.1288786998829075 8.0529882246386073
-12.7427211143681127 -0.1155403786424731 8.0670381813697603
-12.7785306656357687 -0.3621744556789857 8.0856250621955077
-12.8192957784006225 -0.6036852943114592 8.1083997382504833
-12.8646841625751769 -0.8371353335240137 8.1353014860531516
-12.9154300557111146 -1.0660249552313363 8.1671050555725788
-12.9729644284816334 -1.2973496469422887 8.2052195944701793
-13.0382201507209174 -1.5355776226678604 8.2507771848513620
-13.1107911841671569 -1.7793186829283041 8.3039408204785286
-13.1892773888839390 -2.0233581599618979 8.3640785790955832
-13.2722299341424073 -2.2625965116916618 8.4303599551308643
-13.3587202850748863 -2.4940344059325632 8.5021034590628943
-13.4483130106525159 -2.7165347420280810 8.5787725522696103
-13.5407390331972763 -2.9299148442257028 8.6598687338051334
-13.6355999367068730 -3.1344053877816762 8.7448741250281081
-13.7323526261501492 -3.3305726481707900 8.8332471898965359
-13.8306163497066805 -3.5193611905408666 8.9244649515072201
-13.9305549620161777 -3.7019283737108672 9.0181122514055563
-14.0330168029418978 -3.8791533562015310 9.1139880483810884
-14.1392722778756550 -4.0510770833091918 9.2121302312235933
-14.2505013696440912 -4.2168202069146687 9.3126261878139864
-14.3674406382261921 -4.3751966191992331 9.4153440458487392
-14.4905052648786778 -4.5256490779579863 9.5199489197953113
-14.6202500399313351 -4.6691437511168132 9.6260495713320502
-14.7575619217007699 -4.8087305162156504 9.7329493755430327
-14.9030666494948179 -4.9489054088098037 9.8392092232532882
-15.0560321608643832 -5.0932969151630161 9.9426190006659105
-15.2137967073287292 -5.2425275772204465 10.0406324256457893
-15.3724096628116982 -5.3947584643855357 10.1310013949179840
-15.5279230635753400 -5.5481389656433642 10.2121231104126391
-15.6772621802904339 -5.7023834367504307 10.2828948331748879
-15.8182831196994940 -5.8585431783628010 10.3424764424968494
-15.9494005312256739 -6.0182818852282622 10.3902594522662248
-16.0693638597294637 -6.1837202687514576 10.4259744235972889
-16.1771928859127740 -6.3572387097934673 10.4498267675141818
-16.2719288742650363 -6.5403973578273664 10.4626400496654028
-16.3525407526548250 -6.7328594483482540 10.4659210799450797
-16.4185207828572501 -6.9327808834866218 10.4617030290475164
-16.4705503489129050 -7.1380723264730896 10.4521940441737975
-16.5104640948661832 -7.3472984160216903 10.4394114827500495
-16.5407523703568700 -7.5603386639276806 10.4249426174028113
-16.5640562684069472 -7.7788139428427776 10.4099381255304664
-16.5827543619239961 -8.0054949213225015 10.3953462830200838
-16.5986813414746734 -8.2422467203366416 10.3821688986258618
-16.6130232492422252 -8.4867205819827056 10.3714656391093918
-16.6264102577413659 -8.7306441137661537 10.3641258689868145
-16.6392834875414906 -8.9646787966377950 10.3606993736968427
-16.6523451089718826 -9.1872688377923950 10.3615127023665679
-16.6666207388541494 -9.4060777246505545 10.3670090549425176
-16.6831673902443818 -9.6307242340656813 10.3779345363235329
-16.7028106967352485 -9.8663661608818458 10.3951595355229500
-16.7259392983338024 -10.1119441100834457 10.4193600889709455
-16.7523903739040492 -10.3619028820214503 10.4508946687006894
-16.7815948588350743 -10.6099082964863349 10.4899193568193443
-16.8128425549352158 -10.8516725738834872 10.5365036153796297
-16.8454439019670197 -11.0853467626437450 10.5906445488663223
-16.8788274131599998 -11.3105797532896446 10.6522440067283988
-16.9126643625014417 -11.5276214633878453 10.7210934881185587
-16.9469394432288247 -11.7368383175387727 10.7968986482068861
-16.9818826387282265 -11.9385324106756805 10.8793602933665277
-17.0178695324872926 -12.1329657031970264 10.9682262043511436
-17.0554497713549651 -12.3204760192889857 11.0631982829620963
-17.0954557710030208 -12.5015593891375474 11.1637885547806111
-17.1389985645588503 -12.6769586048351037 11.2694629695975426
-17.1873709407542705 -12.8479798204958691 11.3802952907830708
-17.2420979994882622 -13.0170678265805506 11.4978300557769266
-17.3050082169531372 -13.1879795453931585 11.6253161124636080
-17.3776315049204300 -13.3644918051225829 11.7665122923592698
-17.4597649729665143 -13.5478813825294466 11.9234896527728615
-17.5485403560818121 -13.7356563076966474 12.0954644531134505
-17.6394301528324888 -13.9232526317068448 12.2798286862773178
-17.7285142830406208 -14.1067389544075539 12.4737289038460109
-17.8140269843287946 -14.2840683458938464 12.6746242019235105
-17.8962092953368668 -14.4547814708466795 12.8801822983805980
-17.9761536290214998 -14.6192718527419423 13.0882651758840929
-18.0548100453329354 -14.7782773921751733 13.2970413437197017
-18.1326398667099795 -14.9326512335946688 13.5050047452744337
-18.2097032951793594 -15.0832799135166944 13.7108807567424762
